# .PCD v0.7 - Point Cloud Data file format
VERSION 0.7
FIELDS x y z
SIZE 4 4 4
TYPE F F F
COUNT 1 1 1
WIDTH 532
HEIGHT 1
VIEWPOINT 0 0 0 1 0 0 0
POINTS 532
DATA ascii
0.085096285 -0.00060267624 -0.090738714
0.079653494 0.0076918602 -0.093823761
0.085378371 0.0058669681 -0.092212722
0.090369187 0.005688502 -0.091964364
0.037567563 0.014863253 -0.090671122
0.04102217 0.014736459 -0.090833418
0.064988017 0.014287403 -0.090830125
0.074411586 0.01424388 -0.090651132
0.085748091 0.015073732 -0.092425406
0.091531768 0.014582789 -0.09313269
0.1063031 0.01391792 -0.09033563
0.12053698 0.015669748 -0.090166584
0.079645514 0.022992622 -0.092229992
0.085083172 0.023283575 -0.091815382
0.090953261 0.023208944 -0.091322318
-0.011877246 -0.0021519996 -0.080693685
-0.0060122106 -0.0026376124 -0.080862977
0.00074791908 -0.00082334876 -0.080222517
0.069880769 -0.0024959445 -0.081714883
0.07669013 -0.0020678772 -0.084479481
0.085133433 -0.0029495519 -0.083966665
0.091207765 -0.0029228148 -0.083068438
0.10587112 -0.00054251298 -0.081006527
0.11563841 -0.00073215459 -0.081074335
-0.012062613 0.0017200708 -0.080412574
-0.0048729265 0.003039496 -0.080857314
0.0085173743 0.0039777257 -0.0823704
0.013928468 0.0068971957 -0.081848346
0.024760911 0.0083393278 -0.081931524
0.034970783 0.0083978791 -0.08203771
0.045530729 0.0079146959 -0.081547387
0.054687295 0.0081910435 -0.081696421
0.065597929 0.007748052 -0.082212292
0.075234741 0.0050453153 -0.083821945
0.085231811 0.0044791345 -0.08635053
0.095249787 0.0055468176 -0.084011637
0.10500424 0.0052762441 -0.083806299
0.11515111 0.0056194519 -0.084006041
0.12261701 0.0060655987 -0.083192274
0.13483883 0.0073951944 -0.081638977
0.14330192 0.0076842606 -0.081869908
0.17789409 0.0072332593 -0.082572609
0.1830149 0.0074671698 -0.081759855
0.19561595 0.0070130345 -0.081028722
0.20584358 0.0076142568 -0.080728956
0.21446811 0.0074492521 -0.080661215
0.22456321 0.0079432633 -0.080934234
0.23425479 0.007418931 -0.080656447
0.24452703 0.0076828343 -0.081837684
0.25132167 0.007385063 -0.081124492
0.0099876523 0.017332532 -0.082707345
0.016066466 0.014806625 -0.082630828
0.024980668 0.014413458 -0.082486212
0.035624996 0.01458903 -0.083799481
0.04465957 0.015806507 -0.083368279
0.055109989 0.015777787 -0.082963705
0.06528502 0.015268017 -0.084532604
0.074906334 0.015265048 -0.085921749
0.085331284 0.015188434 -0.087354995
0.095364347 0.015305791 -0.086358503
0.10487062 0.015062088 -0.085926898
0.11545312 0.015315361 -0.085803926
0.12367212 0.015151045 -0.083195098
0.13498189 0.014690113 -0.08234302
0.1439252 0.014605127 -0.082245402
0.17766927 0.014961059 -0.082783401
0.18395807 0.013916724 -0.08210244
0.19485143 0.015042227 -0.080904715
0.20559405 0.016548771 -0.080878288
0.21542662 0.015387346 -0.080825537
0.22456324 0.015842922 -0.081014521
0.23575471 0.016085688 -0.080885835
0.2449732 0.014568556 -0.081751704
0.25199237 0.014714384 -0.081346668
0.01568592 0.021766501 -0.081223205
0.025943423 0.022281755 -0.081541441
0.034807164 0.022332983 -0.081879444
0.045386884 0.021736218 -0.081435904
0.055261623 0.021353226 -0.081393205
0.06596157 0.021391792 -0.082099818
0.07559894 0.023809088 -0.083136618
0.08521229 0.025458369 -0.085672088
0.094889812 0.024036378 -0.083068699
0.10520617 0.023510994 -0.083082467
0.11514342 0.023415126 -0.082980663
0.12232433 0.022356106 -0.0831099
0.13504575 0.021338362 -0.08096347
0.14324763 0.021338517 -0.081637003
0.17848386 0.02036804 -0.082445875
0.18540558 0.021597618 -0.0808153
0.19193682 0.021009918 -0.080750093
0.20297077 0.020430416 -0.081504114
0.24515784 0.021607503 -0.080763251
0.079421267 0.032943673 -0.081899203
0.085412212 0.031959988 -0.082926258
0.090806618 0.031381957 -0.083616063
-0.004124226 -0.01019299 -0.072625957
-0.012042339 -0.0023191068 -0.077458769
-0.0046248287 -0.0051149824 -0.075205788
0.0028188934 -0.0032717055 -0.073775783
0.036234446 -0.0013999806 -0.071245387
0.046094328 -0.0014153516 -0.070931256
0.056671955 -0.0012085411 -0.071682438
0.067302354 -0.0014491933 -0.072716035
0.076167338 -0.0022374706 -0.074190892
0.08507558 -0.005219575 -0.074909396
0.094955318 -0.0025289967 -0.074099369
0.10511223 -0.0014003101 -0.074211419
0.11494902 -0.0014518846 -0.074160576
0.12127754 -0.0012223243 -0.073890142
-0.013067034 0.0037141044 -0.074218936
-0.0053140456 0.0057429173 -0.075427994
0.0052847313 0.0047880732 -0.075383164
0.014710451 0.0048740241 -0.07494805
0.024885671 0.0046708751 -0.07482978
0.034745369 0.0045061023 -0.074974656
0.044973958 0.0048956536 -0.075620458
0.055178858 0.0049745808 -0.075552337
0.065162987 0.0044194865 -0.075576335
0.073157296 0.0018282877 -0.075992286
0.086835131 0.00096351368 -0.077891432
0.095456824 0.0012260139 -0.078215495
0.1049161 0.0012346066 -0.078672171
0.11619449 0.0023152318 -0.077200338
0.12491158 0.0044355099 -0.075551003
0.13520528 0.0042204419 -0.07525146
0.14366958 0.0047867335 -0.075460188
0.15553325 0.0098427236 -0.072149836
0.16513523 0.0097505217 -0.07296516
0.17670463 0.0057761879 -0.073776864
0.184386 0.0052415617 -0.07533028
0.19491437 0.0063951006 -0.075239137
0.20486537 0.0072918721 -0.075181
0.21507587 0.0075007565 -0.075206913
0.22488764 0.0078419195 -0.075062819
0.23518805 0.0076517505 -0.07486783
0.24484779 0.0075370106 -0.076393999
0.25392282 0.0074712569 -0.074547365
-0.010032952 0.010061532 -0.073688865
-0.0025002325 0.012248036 -0.072570384
0.0049473145 0.013986839 -0.073972225
0.013450957 0.015713345 -0.076321006
0.024814971 0.015660038 -0.079134464
0.034327902 0.015898731 -0.079164773
0.04454539 0.015180161 -0.079189502
0.055537082 0.015725175 -0.079209402
0.06400229 0.017247975 -0.078935489
0.070779905 0.019421915 -0.079573333
0.11884745 0.016128933 -0.079493925
0.12534259 0.015562112 -0.078824058
0.13640803 0.016296009 -0.077450164
0.14504257 0.014899674 -0.075789407
0.15542273 0.013091515 -0.07287427
0.16495344 0.013113303 -0.073419258
0.17455056 0.013472755 -0.073533766
0.18477736 0.014956797 -0.076583445
0.19525017 0.01549074 -0.075752646
0.20493625 0.015664399 -0.075431466
0.21489736 0.01534487 -0.075319044
0.22491241 0.014733596 -0.075254023
0.2350148 0.015091936 -0.075434841
0.24493873 0.015692366 -0.076104298
0.25401789 0.014911689 -0.074518099
0.0094119161 0.021223407 -0.075889826
0.015179766 0.023766953 -0.074668787
0.025120758 0.02396485 -0.075137205
0.035119765 0.024115726 -0.075102441
0.044900063 0.023896173 -0.074912764
0.055061877 0.023866454 -0.074720778
0.065360762 0.024332523 -0.075000368
0.074328013 0.026983008 -0.075489171
0.083837032 0.028378723 -0.076437362
0.096082345 0.028120404 -0.07560119
0.10480206 0.027990947 -0.075256936
0.1153229 0.027327808 -0.075279593
0.12423933 0.023768315 -0.074820995
0.13499196 0.023348922 -0.074488692
0.14362352 0.022685772 -0.074687213
0.17711976 0.0224206 -0.073672608
0.18439035 0.021988375 -0.07445626
0.19319469 0.020707449 -0.075250007
0.2019522 0.020317335 -0.077817626
0.21126589 0.02001971 -0.075695783
0.2387957 0.021675736 -0.075970337
0.24544229 0.021565493 -0.073604457
0.25304925 0.021408912 -0.071410432
0.079251118 0.0337689 -0.073699988
0.085245013 0.033729039 -0.074873485
0.093241505 0.031611428 -0.074135087
-0.0052403947 -0.010233713 -0.066320322
-0.011897897 -0.0023398797 -0.063391149
-0.0048444015 -0.0052834204 -0.065072469
0.0027991908 -0.0036005522 -0.065836221
0.037115186 -0.0025460913 -0.066385061
0.045123219 -0.0024119017 -0.066537373
0.054680422 -0.0025071052 -0.066280894
0.065114461 -0.0023201522 -0.066448726
0.075455636 -0.0029263538 -0.066147357
0.08471714 -0.0051598828 -0.065248646
0.094693199 -0.0023998057 -0.065723412
0.10480236 -0.0013294488 -0.065884784
0.1146809 -0.0012851603 -0.065710284
0.12106162 -0.0014001186 -0.06658233
-0.01350024 0.0036884411 -0.065911472
-0.0056076325 0.0055874214 -0.064576432
0.0049779122 0.0047029909 -0.064708605
0.014859783 0.0057778405 -0.065521404
0.025023118 0.0059036575 -0.06491074
0.03558398 0.0046868478 -0.0650222
0.045124426 0.004490044 -0.065286636
0.054933693 0.0044026133 -0.065285727
0.064757839 0.0038539274 -0.065008849
0.074253261 0.0032446703 -0.06270504
0.084656842 0.0017746306 -0.061322529
0.095058724 0.0019711673 -0.062300108
0.10456781 0.0022287327 -0.06222545
0.11625592 0.0030660322 -0.063572429
0.12523226 0.004516189 -0.064706877
0.1353416 0.0046453075 -0.06475585
0.14306545 0.0042698774 -0.06522499
0.15453544 0.0098426016 -0.067464091
0.16563241 0.009748118 -0.067995191
0.17741598 0.0060978946 -0.065028243
0.18440676 0.0056117992 -0.065270334
0.19493715 0.0066631748 -0.06503766
0.20498693 0.0070489584 -0.065073118
0.21500276 0.0073639513 -0.065155543
0.2249788 0.0077070254 -0.065271027
0.23519695 0.0075992309 -0.064894043
0.24491012 0.0075209462 -0.063786939
0.25370547 0.0074689114 -0.065375917
-0.011611976 0.010147184 -0.069555461
-0.0025821729 0.012022502 -0.066718802
0.0049700541 0.014275206 -0.065960534
0.014188096 0.01527113 -0.063667439
0.024639813 0.01482251 -0.062182058
0.034920447 0.014948063 -0.061988782
0.044399284 0.015271699 -0.062196046
0.05363746 0.015586644 -0.06246265
0.064744458 0.015212708 -0.06168459
0.07281895 0.017397732 -0.060316462
0.11856353 0.015648078 -0.061390832
0.12494766 0.015534598 -0.061733376
0.13534774 0.015926355 -0.062616818
0.14537078 0.014148637 -0.065879501
0.15505458 0.013254049 -0.067095861
0.16482785 0.013194734 -0.06726025
0.17563753 0.014192212 -0.065977447
0.18466219 0.015234901 -0.063617334
0.19511674 0.01571418 -0.064677909
0.20503278 0.015873445 -0.064720891
0.21482836 0.01550003 -0.064941414
0.22508666 0.014697076 -0.064824946
0.23507908 0.015237626 -0.064634442
0.24490324 0.015805328 -0.0644079
0.25349948 0.015071681 -0.065584846
0.0093332296 0.021963308 -0.066497862
0.014952505 0.023101669 -0.065896995
0.025094915 0.023487069 -0.065255091
0.034897074 0.02381452 -0.06508144
0.044657037 0.023505719 -0.065462798
0.055094153 0.023317518 -0.065679431
0.065354474 0.024056781 -0.065461248
0.074761279 0.026069053 -0.064931132
0.084324099 0.027317353 -0.063072279
0.095811106 0.027364871 -0.064193748
0.10515612 0.02719716 -0.06451977
0.11519259 0.026716728 -0.06494198
0.12449059 0.023522388 -0.065517686
0.13522919 0.023022484 -0.065467425
0.14326002 0.022836883 -0.065714888
0.17771295 0.022087956 -0.066183336
0.18464078 0.021740152 -0.06582959
0.1922366 0.020711647 -0.065739349
0.2391686 0.021326527 -0.066260993
0.24482857 0.021717248 -0.067291409
0.25189042 0.021549245 -0.068240196
0.079098336 0.032812633 -0.064345911
0.085105009 0.033365104 -0.065385833
0.093329713 0.031570394 -0.066755265
-0.012568712 -0.0018909071 -0.058470432
-0.0053329132 -0.0028459583 -0.058523975
0.0018398315 -0.0016093813 -0.059547473
0.078786954 -0.0024879472 -0.057610225
0.084839806 -0.0026411072 -0.056430995
0.09295623 -0.0018402189 -0.058854446
0.11663877 -0.00039473674 -0.059829518
-0.012348336 0.0018702173 -0.058147304
-0.0050819409 0.0037895958 -0.058374226
0.0037412182 0.0062058852 -0.059134554
0.015721954 0.0087270215 -0.058998752
0.025192212 0.0077897813 -0.058745049
0.034229595 0.0072146412 -0.058836758
0.045498297 0.0086812135 -0.056855064
0.055082433 0.0083029056 -0.054312535
0.06500642 0.0073535275 -0.055009451
0.076217972 0.0052019507 -0.056288484
0.084872663 0.0047558439 -0.054362614
0.094952814 0.0057511693 -0.056296255
0.1050471 0.0053620855 -0.057009891
0.1150365 0.0056223064 -0.056803584
0.12454911 0.0069359373 -0.058310375
0.13665152 0.007062606 -0.05801532
0.1429331 0.0077867541 -0.058368113
0.1782365 0.0077656275 -0.058884308
0.1817566 0.0080273552 -0.058945984
0.23961493 0.0082444847 -0.059563458
0.24519818 0.0077154576 -0.059120793
0.25063157 0.0073686838 -0.059839051
0.0062565133 0.013156853 -0.059623938
0.015421837 0.014834277 -0.058404967
0.024995483 0.015018562 -0.05828825
0.035055127 0.014840285 -0.058549456
0.046331909 0.014621109 -0.054833796
0.05485791 0.015260207 -0.0553969
0.065704778 0.015200336 -0.054890446
0.074700885 0.014488759 -0.054152694
0.084461972 0.015369045 -0.052954186
0.095038682 0.015140386 -0.054548495
0.1051963 0.014907466 -0.055288557
0.11526642 0.01508977 -0.055780195
0.12494062 0.014723727 -0.058127023
0.13616958 0.014764669 -0.057518367
0.1431396 0.014700725 -0.057919167
0.1780041 0.014672644 -0.058743324
0.18362594 0.013371738 -0.058682472
0.19036776 0.013643935 -0.059851736
0.23892927 0.014658526 -0.0596832
0.24509126 0.01492501 -0.059025966
0.2513096 0.014266017 -0.059675835
0.014512367 0.021679575 -0.059364777
0.025190037 0.02140614 -0.059038047
0.033627421 0.022275183 -0.059285711
0.043519881 0.021007765 -0.058599681
0.055368807 0.020878673 -0.054181058
0.064936541 0.021341143 -0.055102531
0.076544411 0.023849506 -0.056508079
0.084890306 0.025387239 -0.054925334
0.094855845 0.022984058 -0.056980874
0.10495874 0.023023669 -0.05722319
0.1151692 0.023083149 -0.057487883
0.12370869 0.021361446 -0.058377203
0.13675717 0.021013051 -0.058319695
0.14217466 0.020701913 -0.057826832
0.079280987 0.031722579 -0.058457687
0.084321208 0.032044742 -0.057618082
0.090260558 0.030860543 -0.057345275
0.025527393 0.009760296 -0.040705904
0.037072707 0.0095961913 -0.042591721
0.046673261 0.00947983 -0.045166265
0.054991063 0.0084008994 -0.046087343
0.063209563 0.0086487839 -0.045990199
0.079941526 0.0078597618 -0.048976511
0.084291793 0.0063648238 -0.048499167
0.026632817 0.014269584 -0.041794319
0.036009256 0.014653307 -0.043386962
0.045021251 0.014631105 -0.044362511
0.054554928 0.015614904 -0.044002466
0.064852677 0.015042385 -0.045409583
0.074466974 0.014287835 -0.04787907
0.084180847 0.014913822 -0.04801482
0.090643004 0.014360662 -0.048681751
0.056063063 0.020896399 -0.046484414
0.062539116 0.020530192 -0.047789931
0.079782821 0.021221831 -0.049598027
0.084459186 0.022869375 -0.048637193
0.0086191148 0.0096508171 -0.031118337
0.015888214 0.0088376487 -0.032474767
0.023851249 0.0093278177 -0.033788629
0.033540122 0.0097321691 -0.0357637
0.04286544 0.0098217502 -0.037911419
0.055655815 0.0085954564 -0.03955017
0.0091318442 0.011851288 -0.030772211
0.016085712 0.013839017 -0.033511452
0.024966098 0.014450798 -0.034869414
0.034947202 0.014333592 -0.036387723
0.04427544 0.014566672 -0.037929945
0.05579916 0.014603636 -0.038578685
0.061546832 0.011810899 -0.039474368
0.055715978 0.02029014 -0.039432928
-0.0011218615 0.007882203 -0.020910209
0.0056535564 0.0073960107 -0.023869019
0.014444776 0.0081790555 -0.025158945
0.022469422 0.0091966558 -0.027985139
-0.0010547936 0.010967791 -0.020925656
0.006421851 0.012800903 -0.023884887
0.014876404 0.013840557 -0.025556764
0.023661928 0.013842429 -0.027349351
0.030852528 0.013670959 -0.02928848
-0.0037508607 -0.00042177737 -0.010790637
-0.003379138 0.0055097202 -0.013352137
0.0045675449 0.005998157 -0.015269505
0.0121925 0.0080650048 -0.017281659
-0.0018181236 0.010932025 -0.015574453
0.0047891997 0.011810901 -0.016009323
0.012767278 0.012594084 -0.018102666
-0.011771468 -0.0017434112 -0.0018169899
-0.0056187473 -0.0016275913 -0.0034354557
0.00081424788 -0.00078752637 -0.0034399272
-0.011667343 0.0032253054 -0.0031784994
-0.004817035 0.0047040917 -0.0053550489
0.0028065182 0.004999998 -0.0066097095
-0.0012061824 0.010440043 -0.007967297
0.0034078932 0.010675922 -0.0086728316
-0.0134481 -0.004177256 0.0060330341
-0.0066006328 -0.003312883 0.0052265418
0.00063955784 -6.4074993e-05 5.0932169e-05
-0.012627091 0.0020871421 0.0049218251
-0.0060531264 0.0028630584 0.0037908922
0.00051336986 0.0020538147 0.0014271637
-0.014636679 -0.011771394 0.016879667
-0.0087603945 -0.011017716 0.01591694
-0.020653641 -0.0071786419 0.016369238
-0.01430939 -0.0054144417 0.014837825
-0.0075719235 -0.0048447005 0.013966167
-0.012821078 0.00093291735 0.012189911
-0.0076539163 0.0015560968 0.011530634
-0.021198446 -0.013524255 0.026263205
-0.015309204 -0.013893428 0.025533017
-0.0084632067 -0.012739988 0.024693714
-0.021051239 -0.0092034638 0.024204161
-0.0151214 -0.007263748 0.023939252
-0.008003599 -0.0074697635 0.023393784
-0.022082018 -0.022453468 0.037571609
-0.016879469 -0.021700228 0.035734672
-0.02194652 -0.016171398 0.035345472
-0.0158216 -0.015126804 0.034450609
-0.0091564804 -0.014072376 0.032165565
-0.021302633 -0.0094393417 0.030935377
-0.015199254 -0.0091945641 0.032013267
-0.0085276067 -0.0094087124 0.030598193
-0.045804016 -0.030632287 0.049790572
-0.03363179 -0.030784676 0.049055394
-0.028232211 -0.030315787 0.048578262
-0.044068657 -0.029092036 0.049907997
-0.033153765 -0.026249826 0.048306707
-0.024652155 -0.024446232 0.045766942
-0.01699779 -0.023062436 0.0445216
-0.022821926 -0.017965825 0.044578824
-0.016435517 -0.01723074 0.043156747
-0.081905447 -0.030448548 0.058181565
-0.0743111 -0.031683937 0.057139587
-0.064692818 -0.032859001 0.056164823
-0.054601699 -0.033131436 0.055608671
-0.044982877 -0.032650836 0.055644393
-0.03554707 -0.031760469 0.054804523
-0.027877742 -0.030816192 0.054128975
-0.10027224 -0.020983502 0.059887499
-0.093294047 -0.022854324 0.058371156
-0.08452867 -0.024798933 0.057115767
-0.075157449 -0.025797185 0.05634433
-0.065124847 -0.027039578 0.056062993
-0.054858051 -0.027489908 0.055877041
-0.044690836 -0.027079295 0.05574517
-0.034767639 -0.025912736 0.055104334
-0.026047839 -0.025189847 0.053480353
-0.018773969 -0.023661744 0.05240076
-0.1016463 -0.013945818 0.059275288
-0.095123313 -0.016725518 0.058346182
-0.087562971 -0.018729791 0.058232039
-0.024199286 -0.01944166 0.051361252
-0.019265935 -0.019811958 0.052469522
-0.10302588 -0.0094282031 0.059744306
-0.081630573 -0.030710345 0.062369023
-0.074791074 -0.031509083 0.062356956
-0.064921841 -0.032287519 0.062280566
-0.05526793 -0.032594569 0.061917029
-0.045406315 -0.032119591 0.061652627
-0.036386494 -0.031590495 0.061398137
-0.029320359 -0.030334175 0.060869873
-0.10059751 -0.021042565 0.064133011
-0.094357826 -0.023020867 0.064550132
-0.085091263 -0.024843538 0.063887648
-0.075543717 -0.02617974 0.063259788
-0.065647557 -0.027553402 0.062398806
-0.055289771 -0.02823481 0.062154856
-0.044561528 -0.027742578 0.061629627
-0.035252959 -0.027106579 0.061325327
-0.029040134 -0.027552277 0.060707193
-0.11170056 -0.01088717 0.066607572
-0.10433514 -0.014187443 0.065419413
-0.095650293 -0.015851669 0.064744353
-0.087145366 -0.018086111 0.063631035
-0.079789974 -0.019593321 0.06187433
-0.12002173 -0.00018582493 0.069486946
-0.11363503 -0.0042078975 0.066366494
-0.10581049 -0.0059250211 0.065216243
-0.098389931 -0.0084593659 0.065445416
-0.12114121 0.006043239 0.068454981
-0.11544705 0.004313014 0.066805914
-0.10833976 0.0023875895 0.067158721
-0.1218998 0.014928748 0.068961628
-0.11706753 0.013302105 0.068259247
-0.12223567 0.02161216 0.069405787
-0.092681095 -0.022104055 0.071323588
-0.087477766 -0.023667075 0.070672691
-0.11119759 -0.010698237 0.071435265
-0.10430559 -0.013237105 0.071408316
-0.096720167 -0.015714247 0.071568429
-0.1137239 -0.0036158669 0.072563842
-0.10689621 -0.0058420096 0.072161704
-0.098377846 -0.0088552656 0.071373738
-0.12189724 0.0064497991 0.073671088
-0.11570734 0.0047994046 0.074071087
-0.10790309 0.0035975967 0.073348522
-0.123657 0.015294254 0.075325824
-0.11694243 0.014508332 0.074538872
-0.13077255 0.028069746 0.078232437
-0.12469494 0.024653912 0.07574106
-0.11762945 0.024093146 0.074920781
-0.13192514 0.035326961 0.077325538
-0.12514174 0.034893934 0.075193852
-0.11837097 0.034471076 0.076903634
-0.13213837 0.043475464 0.077569619
-0.12599561 0.043754071 0.076655157
-0.11919608 0.041914083 0.077898286
-0.12343669 0.0092094541 0.080670059
-0.11677391 0.0074881027 0.080831446
-0.12355518 0.016742583 0.081435636
-0.11751099 0.015840931 0.081378318
-0.13127704 0.028950211 0.081090271
-0.12475362 0.026078513 0.081999168
-0.11828794 0.024925999 0.082570717
-0.13230911 0.035965055 0.083384298
-0.12553598 0.034968007 0.084440194
-0.11803365 0.034899555 0.083293416
-0.13323697 0.042785879 0.08415287
-0.12564415 0.04361875 0.084558308
-0.11875589 0.042394347 0.08302211
-0.12716606 0.037705041 0.090739436
-0.13117513 0.043851845 0.090823233
-0.12699175 0.043275878 0.091125853
