# .PCD v0.7 - Point Cloud Data file format
VERSION 0.7
FIELDS x y z
SIZE 4 4 4
TYPE F F F
COUNT 1 1 1
WIDTH 293
HEIGHT 1
VIEWPOINT 0 0 0 1 0 0 0
POINTS 293
DATA ascii
0.00091430545 0.0089457706 -0.040647686
-0.0014776438 0.016714292 -0.04006321
0.00053948164 0.015195712 -0.040205322
-0.0013387799 0.021933347 -0.040244073
-0.011904102 -0.0029355541 -0.030919556
-0.007658537 -0.0035277228 -0.031084845
-0.021834282 0.0087212818 -0.030402886
-0.01456057 0.0045967735 -0.030708482
-0.002237109 0.0087113157 -0.035338387
0.0033928955 0.0088432506 -0.035152655
-0.02065111 0.011496983 -0.030228019
-0.014143641 0.013569177 -0.032367196
-0.0029065954 0.015519074 -0.035122871
0.0045578945 0.015294618 -0.034511283
0.010696549 0.016135002 -0.034713272
-0.002333987 0.021915296 -0.035086591
0.0038027624 0.022137608 -0.034784768
0.010714489 0.021050895 -0.033951007
-0.052119717 -0.030921252 -0.020668088
-0.046816833 -0.030515755 -0.020261951
-0.037396684 -0.030306991 -0.020203061
-0.052097138 -0.025313528 -0.021197034
-0.045541909 -0.025246492 -0.02104879
-0.035439521 -0.025271904 -0.020857364
-0.025690291 -0.02506382 -0.02068625
-0.015417154 -0.024119433 -0.020799926
-0.0068233646 -0.023738259 -0.020280296
0.00028082728 -0.02495194 -0.020060629
0.016506318 -0.020774463 -0.021323536
0.021633632 -0.021140978 -0.021168327
-0.051419731 -0.019781372 -0.020547008
-0.049304366 -0.019866347 -0.020362418
-0.035432987 -0.019705623 -0.020092279
-0.01110436 -0.01774307 -0.020944156
-0.0089592058 -0.014984415 -0.020650432
0.0093219243 -0.012493609 -0.021097168
0.015687669 -0.015213941 -0.021435689
0.021796046 -0.015924744 -0.021203557
-0.022578198 -0.00095496076 -0.025375076
-0.013574017 -0.0019715843 -0.026282357
-0.0044374634 -0.0033671537 -0.025068544
0.0022111863 -0.0041873925 -0.023274589
0.014761615 -0.0055708834 -0.021189
0.021112517 -0.0061100037 -0.020741682
-0.030560277 0.0071618101 -0.025020551
-0.023395024 0.005967149 -0.024510672
-0.014854279 0.0043844013 -0.024696741
-0.0061827917 0.0054397415 -0.023590894
0.0047011632 0.0062176324 -0.021451142
0.014902802 0.0043697217 -0.021085845
0.020407632 0.0024798049 -0.020350596
-0.030533621 0.013206403 -0.024516147
-0.02387636 0.014337014 -0.02360552
-0.015407182 0.015253817 -0.022774478
-0.0042295936 0.015242978 -0.023748308
0.0035256306 0.015565436 -0.024926234
0.014132414 0.015364518 -0.020785842
0.020983815 0.019384861 -0.020603836
-0.021801813 0.020623781 -0.022150708
-0.014167248 0.021381602 -0.021654727
-0.0045546293 0.022675123 -0.021816799
0.0036865231 0.022767138 -0.022204163
0.012560716 0.021444805 -0.020665523
-0.052301075 -0.031826131 -0.014098695
-0.045238655 -0.031711198 -0.014091987
-0.035146724 -0.03170152 -0.013886998
-0.025149152 -0.031705294 -0.013682296
-0.015111285 -0.031689312 -0.013442018
-0.0050849016 -0.031646248 -0.013221035
0.0037622654 -0.031463481 -0.012859963
0.010288617 -0.030450165 -0.011471903
-0.052013639 -0.026643882 -0.017312065
-0.045209005 -0.026369914 -0.017459482
-0.035076395 -0.026350684 -0.01713489
-0.025037706 -0.026334425 -0.016825762
-0.014886538 -0.025792535 -0.016580665
-0.0050737476 -0.025651745 -0.016144095
0.0052598231 -0.025536062 -0.014626294
0.011810512 -0.023742342 -0.013280139
0.023140769 -0.020848144 -0.014703007
-0.051843628 -0.019231029 -0.018930277
-0.045331694 -0.019399211 -0.018761478
-0.034885071 -0.019315692 -0.018326964
-0.025045212 -0.019309551 -0.017695718
-0.011539018 -0.016300367 -0.016608639
-0.0054285093 -0.015090858 -0.016217873
0.0050763874 -0.015376037 -0.015205208
0.015342837 -0.015032229 -0.01774985
0.022973331 -0.015285476 -0.01503111
-0.010703502 -0.0057505118 -0.01564325
-0.0049137105 -0.005073078 -0.015867993
0.0046480317 -0.005037332 -0.01572844
0.015803142 -0.0046960157 -0.017779296
0.022059046 -0.0053291768 -0.014577242
-0.024367882 0.0059555708 -0.019555552
-0.010980496 0.0048374394 -0.01594523
-0.0051944214 0.0049891821 -0.01558957
0.0053219376 0.0050358395 -0.016456293
0.01628688 0.0052299229 -0.016696395
0.021390319 0.0043288548 -0.014039478
-0.022141783 0.016656544 -0.019156866
-0.0146291 0.017070761 -0.018240834
-0.0054037771 0.015460301 -0.015139759
0.0056356452 0.015635109 -0.015233089
0.016111024 0.015534052 -0.015628273
0.021064872 0.014861691 -0.013529792
-0.020841002 0.020491192 -0.019283507
-0.01326517 0.021529349 -0.018616265
-0.0042122887 0.02284001 -0.016114401
0.0043378477 0.023091476 -0.015922386
0.015159096 0.021463098 -0.015925251
0.020687994 0.021115288 -0.013035972
0.0033048391 0.030687869 -0.017414778
-0.060205996 -0.032079786 -0.0032032232
-0.052968241 -0.032303948 -0.0047107502
-0.045946617 -0.032238584 -0.0060009961
-0.034462605 -0.0323052 -0.0054880115
-0.02507381 -0.032287911 -0.0048760022
-0.015403737 -0.032241568 -0.0061368276
-0.0049346965 -0.032362297 -0.0050109192
0.0041166241 -0.031913027 -0.0049614571
0.010424452 -0.030502925 -0.0050632418
-0.05229874 -0.029308144 -0.0054409276
-0.045636643 -0.029055612 -0.0061487635
-0.034895509 -0.029372951 -0.0058184429
-0.024584925 -0.029472502 -0.0051623932
-0.015268933 -0.029177612 -0.0061291391
-0.0053162365 -0.029430604 -0.0052445726
0.0076021114 -0.026431799 -0.0051614395
0.011349044 -0.024283336 -0.0045719664
0.023474813 -0.020777881 -0.0056077787
-0.0086026192 -0.01170644 -0.0098518729
0.0088028973 -0.018415634 -0.0058048144
0.014177782 -0.017157111 -0.0046814904
0.022983657 -0.015305798 -0.0050435076
0.030101299 -0.016832322 -0.0098489225
-0.0074394196 -0.0014159344 -0.0098930597
0.00056683028 -0.0026385784 -0.0097084595
0.019109694 -0.0040624016 -0.0041450495
0.022037972 -0.0052836109 -0.0050335382
-0.0024304241 0.0086639645 -0.0048831124
0.0015221159 0.0098319603 -0.0044399835
0.018766401 0.0054940027 -0.0045405608
0.021477437 0.0043835361 -0.0052296305
-0.0015330137 0.014290116 -0.004626153
0.0015744012 0.01437078 -0.0050390488
0.017989516 0.015442068 -0.005040945
0.021087172 0.014949341 -0.0052575846
-0.0022095509 0.022372978 -0.0094453953
0.0037094995 0.022107907 -0.0092894183
0.01798757 0.021077303 -0.0061556506
0.020541754 0.020778814 -0.0065366193
-0.060620595 -0.032956392 0.0056927144
-0.05328365 -0.032862369 0.0049790177
-0.046297666 -0.032961477 0.0062790108
-0.034171116 -0.032932825 0.0056886864
-0.025053488 -0.032812387 0.0050167744
-0.016337883 -0.033035077 0.0072236545
-0.0045410963 -0.032906659 0.0052901409
0.0041068718 -0.032254785 0.0050594928
0.010462173 -0.030610826 0.0047332551
-0.052781571 -0.029386776 0.0039423234
-0.04657815 -0.028858235 0.0056386744
-0.034402292 -0.029377505 0.0050936472
-0.023039248 -0.029385908 0.0033957013
-0.018162975 -0.028820921 0.0074038035
-0.0053988318 -0.029342463 0.0042497143
0.0078878887 -0.02646862 0.0049633258
0.011625471 -0.023937285 0.0048866258
0.022748878 -0.020795461 0.0057813427
0.0091675948 -0.018927015 0.0050669359
0.015904792 -0.016282978 0.0051515787
0.022471122 -0.015259694 0.0049652536
0.019003827 -0.0068630679 0.0040789475
0.021853225 -0.0073566809 0.004044909
-0.0017992379 0.0094509246 0.0065303855
0.0014762029 0.0095260646 0.0058486471
0.018260773 0.0064140549 0.0048974855
0.021196837 0.005741036 0.0041687754
-0.0016646413 0.013596701 0.0051875911
0.0012539822 0.013623808 0.0047449707
0.017639395 0.015117111 0.0050085252
0.020794453 0.014581618 0.0046748579
0.017020559 0.020920863 0.004515043
0.020536553 0.02073073 0.0038614001
-0.053086396 -0.033174388 0.01511626
-0.045089345 -0.033214319 0.01508604
-0.035098247 -0.033299372 0.015108067
-0.025088845 -0.033354614 0.015135019
-0.015047664 -0.033409372 0.015018298
-0.0050711143 -0.033436581 0.015086682
0.0040903231 -0.032587219 0.015133709
0.01032218 -0.03076417 0.01432772
-0.053326841 -0.027761143 0.018892702
-0.045621414 -0.027899599 0.019044777
-0.035812121 -0.027750729 0.018897472
-0.025338644 -0.027113717 0.018666271
-0.015306406 -0.027152294 0.014815663
-0.0083890231 -0.029111817 0.010896181
0.0076923668 -0.025920114 0.015135787
0.012007954 -0.02381717 0.014242606
0.022483099 -0.021267748 0.015789527
-0.011529681 -0.016027868 0.019302562
0.0082316371 -0.019063396 0.01512502
0.018257886 -0.01529617 0.014789372
0.022104941 -0.015661839 0.014608277
-0.010874874 -0.007215865 0.019437177
0.018835962 -0.004692649 0.015647737
0.021542644 -0.0060505169 0.015246124
-0.010211568 0.0020615351 0.019778743
-0.0020263565 0.0093520712 0.01554065
0.0012149005 0.0093597872 0.01539637
0.018075328 0.0053140898 0.015079048
0.021070652 0.0046562515 0.014998668
-0.0018977997 0.012967585 0.014880236
0.0010503703 0.013068669 0.014570826
0.017272584 0.014780505 0.015009137
0.020588556 0.013782067 0.014329871
0.016429082 0.020876253 0.014436218
-0.053167928 -0.031786229 0.021441592
-0.04490117 -0.031879827 0.021613374
-0.034951445 -0.032025106 0.02184055
-0.024935547 -0.032119848 0.022042839
-0.014973009 -0.032272059 0.022250852
-0.0049002087 -0.032396927 0.022517582
0.0034213571 -0.032104231 0.022415705
0.010113835 -0.030463152 0.020485166
-0.060200721 -0.027728369 0.021103432
-0.053098697 -0.027152972 0.022098668
-0.045079645 -0.027218338 0.022356546
-0.035060402 -0.02731698 0.022721151
-0.025067443 -0.027363563 0.02318603
-0.014582918 -0.025709601 0.023874117
-0.0050491891 -0.025262011 0.024454435
0.0047556949 -0.025263494 0.023732947
0.015779262 -0.021778101 0.027355539
0.021983333 -0.021615181 0.024990685
-0.011896861 -0.015281618 0.024686227
-0.0053976951 -0.014820404 0.025474895
0.0048098057 -0.015283883 0.025738055
0.017134041 -0.015164304 0.027249822
0.021699326 -0.016107379 0.024910953
-0.011463143 -0.0055546989 0.025381023
-0.0057535558 -0.0051718764 0.026347233
0.0044732536 -0.0053413729 0.026992816
0.017876556 -0.004861752 0.025954833
0.021314386 -0.0056754076 0.024379607
-0.011229552 0.0054109893 0.026683444
-0.0063090571 0.004587071 0.026855787
0.0046047098 0.0047532786 0.027461331
0.017344242 0.0051121456 0.025541689
0.020739092 0.0041594231 0.024217317
-0.011279472 0.013822127 0.026982488
-0.0051369872 0.015124515 0.026408864
0.0038168593 0.015379253 0.027121283
0.016601892 0.014761943 0.025254069
0.020538369 0.014045541 0.023575859
-0.011038189 0.021180511 0.028544843
-0.0038158465 0.021275299 0.02748535
0.0022818479 0.021317963 0.027703451
0.015642405 0.02075547 0.024992963
-0.013243884 -0.021931287 0.030082405
0.0091252374 -0.021630688 0.031455141
0.014814058 -0.021982413 0.031671569
0.021211483 -0.021768995 0.031118307
-0.010665309 -0.014019201 0.03069305
-0.0059855939 -0.011497519 0.030282527
0.0083240066 -0.014229291 0.031636022
0.014701816 -0.015135125 0.031623151
0.021063641 -0.015899079 0.031082731
-0.01074984 -0.0022387556 0.031209614
-0.0045952075 -0.0026827133 0.03141458
0.0059229373 -0.0042492491 0.032010213
0.014544338 -0.0049776104 0.031991068
0.020591551 -0.0059059905 0.030728405
-0.011426244 0.0059953057 0.031902578
-0.004997707 0.005496785 0.032987729
0.0051763812 0.0051210797 0.032634199
0.014164288 0.0050822641 0.032220017
0.020230195 0.002986525 0.030386783
-0.011578179 0.014097233 0.032226022
-0.004781405 0.014768258 0.034025203
0.0049805325 0.015501048 0.03324537
0.013663401 0.014493222 0.032461759
0.020902488 0.016559644 0.031999703
-0.010803444 0.021054521 0.032148596
-0.0038739757 0.021334266 0.032835003
0.002785912 0.021140492 0.033116501
0.013306451 0.020822145 0.032040015
-0.0029764192 0.0091593368 0.041178539
0.00048721489 0.0084375897 0.0411826
-0.0029683751 0.01194744 0.041386902
0.00049281301 0.01158308 0.041035034
