# .PCD v0.7 - Point Cloud Data file format
VERSION 0.7
FIELDS x y z
SIZE 4 4 4
TYPE F F F
COUNT 1 1 1
WIDTH 295
HEIGHT 1
VIEWPOINT 0 0 0 1 0 0 0
POINTS 295
DATA ascii
0.00086468458 0.019778401 -0.040207952
0.0019593835 0.022371918 -0.040805727
-0.05313807 -0.022497764 -0.030728331
-0.053246878 -0.017047578 -0.030613083
-0.045521349 -0.017170059 -0.030771982
-0.035634007 -0.016483271 -0.030883428
-0.025139434 -0.016216801 -0.030386353
0.0093664229 -0.010315299 -0.031097621
0.01488922 -0.011079446 -0.030677829
0.020863608 -0.010540317 -0.030483892
0.013485022 -0.0073550814 -0.030290829
0.020659873 -0.0088593364 -0.030363753
-0.0056975484 0.0090841502 -0.030721229
-0.010902051 0.01968345 -0.030567423
-0.004711031 0.016850712 -0.032291964
0.001808784 0.019337038 -0.034055062
-0.010382588 0.023406755 -0.031172385
-0.0014405083 0.022991611 -0.034030154
0.0015816326 0.022941923 -0.034168016
0.013374299 0.027596891 -0.030226171
-0.0031484708 0.031122608 -0.030627001
0.0035870872 0.03059434 -0.030315867
-0.052705184 -0.023254581 -0.023644174
-0.045154411 -0.023111587 -0.023386482
-0.035143316 -0.023021333 -0.023105785
-0.025103036 -0.022894723 -0.022849379
-0.015112771 -0.022844192 -0.02249326
-0.0051365644 -0.022732478 -0.022228502
0.0036673446 -0.022363899 -0.021817455
0.010244362 -0.020300657 -0.020171046
-0.052520972 -0.017487328 -0.025783777
-0.045174945 -0.01748094 -0.025292626
-0.035103355 -0.017542753 -0.024773654
-0.025074275 -0.017581111 -0.024289571
-0.014397473 -0.016146069 -0.023689186
-0.0051783966 -0.015081566 -0.023049638
0.0044381921 -0.015293488 -0.022276105
0.015891502 -0.011811162 -0.026392067
0.022372184 -0.011683394 -0.023746537
-0.01128836 -0.00558464 -0.022983167
-0.005529392 -0.0050232294 -0.022629375
0.0049318192 -0.0049483082 -0.022478418
0.015389189 -0.0050799795 -0.026124153
0.021963485 -0.005762869 -0.023369335
-0.010965907 0.0044232616 -0.022459758
-0.0055039437 0.0049681016 -0.022397626
0.0054367543 0.0056255064 -0.02410513
0.015547533 0.0049468647 -0.025114467
0.021362338 0.004185135 -0.022678001
-0.010734251 0.016033232 -0.023435337
-0.0056034373 0.01505769 -0.024699621
0.0048821149 0.014730848 -0.024890693
0.015490412 0.014980289 -0.024171727
0.020927006 0.013975643 -0.02225204
-0.010830321 0.023445344 -0.024314933
-0.0052955491 0.025213687 -0.024587218
0.0048112441 0.025475867 -0.024739815
0.014765142 0.024704633 -0.023598429
0.020510161 0.02349166 -0.021299675
-0.010703415 0.030416241 -0.02310431
-0.0031424765 0.031375859 -0.024426235
0.0034118239 0.031382706 -0.024462441
0.012502831 0.030677054 -0.02411817
-0.054127179 -0.030259809 -0.012547255
-0.045778379 -0.030811414 -0.012172583
-0.030829489 -0.033250306 -0.014107186
-0.027536312 -0.033524711 -0.014083958
-0.014352653 -0.031082403 -0.011833255
-0.00904126 -0.03050077 -0.01105995
-0.060356535 -0.02487839 -0.01226123
-0.053247079 -0.025130326 -0.014703069
-0.045187268 -0.025104338 -0.015034623
-0.03513198 -0.025253817 -0.014915973
-0.025382105 -0.025815694 -0.014849669
-0.015021107 -0.025033405 -0.015019055
-0.0050580194 -0.024999607 -0.01513585
0.0046633212 -0.023659218 -0.015130867
0.010449095 -0.021287289 -0.014864758
-0.052723438 -0.017378636 -0.019842109
-0.044196516 -0.018534169 -0.015061129
-0.034576941 -0.016994497 -0.019102965
-0.024182165 -0.017332202 -0.019331804
-0.013172073 -0.014718007 -0.018277543
-0.003638936 -0.011875722 -0.019750364
0.0077432808 -0.015707396 -0.015670599
0.012329018 -0.014613512 -0.01479089
0.022806695 -0.011796373 -0.014945369
-0.01106765 -0.0042570434 -0.019537745
-0.0056774011 -0.0042615477 -0.019481471
0.0059486371 -0.0060123629 -0.018750537
0.018007345 -0.0042645 -0.014946824
0.024472386 -0.0052932166 -0.014798965
0.032142084 -0.0045643398 -0.014059913
-0.011006992 0.0046850108 -0.019297881
-0.0058315652 0.0052616652 -0.019073958
0.0043815742 0.0050208452 -0.019181564
0.018856354 0.0058182185 -0.014738696
0.02153687 0.0044981479 -0.01532036
0.031224092 0.00029711923 -0.015018096
-0.010990249 0.016509771 -0.019301813
-0.0045943488 0.016617373 -0.017165527
0.0038951475 0.016456442 -0.017591311
0.01820212 0.015303168 -0.015019692
0.02112296 0.014346118 -0.015309889
-0.011197189 0.023460222 -0.019114882
-0.0038714907 0.024419114 -0.01682022
0.0038468458 0.025270406 -0.017503945
0.017322384 0.024398223 -0.015253698
0.020642413 0.023691827 -0.015459775
-0.0028621482 0.031189891 -0.018549465
0.0024760172 0.031168973 -0.018441927
0.016703675 0.030641774 -0.016493296
-0.053300206 -0.030565063 -0.0041283597
-0.048867807 -0.030804498 -0.0048679397
-0.033620689 -0.030492371 -0.004170855
-0.026525442 -0.032058783 -0.0087259226
-0.019949898 -0.030767024 -0.0099442303
-0.0063017327 -0.030354308 -0.0044793943
-0.060759187 -0.02593315 -0.0030678045
-0.053756159 -0.025755761 -0.0049221711
-0.0478638 -0.025679978 -0.0052570989
-0.033773806 -0.025826106 -0.0050094915
-0.025097422 -0.025758751 -0.0049787206
-0.015900636 -0.025514131 -0.0075273351
-0.0047953087 -0.025811177 -0.00511593
0.0047416729 -0.02412262 -0.0049519869
0.010532511 -0.021157799 -0.0049862745
-0.0504843 -0.019841835 -0.0055992976
-0.049170144 -0.019733012 -0.0061435881
-0.021380909 -0.019651791 -0.0049861372
-0.014143672 -0.019317806 -0.0092101693
0.0083387941 -0.016330084 -0.0051596859
0.012895511 -0.01458522 -0.0046640197
0.022301363 -0.011783682 -0.0048623011
0.0091003794 -0.0096232165 -0.0068030856
0.018968908 -0.0040861233 -0.0046105995
0.021837231 -0.0056092162 -0.0050316043
0.032247689 -0.0061096819 -0.0097603379
0.018520633 0.0055146227 -0.0069363643
0.021380616 0.0042429436 -0.0069453032
-0.0018887095 0.018842729 -0.0044783032
0.00092779833 0.018818488 -0.0050150459
0.017773205 0.015176158 -0.0048912731
0.020821799 0.014461676 -0.0053672432
-0.0020903002 0.021623416 -0.005021919
0.0010409892 0.021613006 -0.0054190401
0.017130101 0.023487573 -0.0049851458
0.020510197 0.023021512 -0.0058812047
0.015916487 0.030216297 -0.0076281829
-0.053891774 -0.030657656 0.0056969826
-0.044363447 -0.030890055 0.0031782179
-0.036446344 -0.03054956 0.0037701172
-0.023294657 -0.030258741 0.0067519909
-0.014440151 -0.031041397 0.0056845606
-0.0076948102 -0.03054898 0.0034954464
-0.060524281 -0.026305096 0.0044886726
-0.053772818 -0.026444877 0.0048712292
-0.045254592 -0.026501846 0.0052003483
-0.035082515 -0.026500445 0.0049326494
-0.025006151 -0.026459616 0.0049371314
-0.015155538 -0.026495911 0.0058725146
-0.0050602239 -0.02648169 0.0049714302
0.0047022062 -0.024433987 0.0049841353
0.010420453 -0.021087211 0.0036291508
-0.06005156 -0.019085899 0.009948194
-0.054483723 -0.018764596 0.0096526295
-0.047037538 -0.019634953 0.0030305237
0.0079803122 -0.016371436 0.0051278393
0.014340824 -0.014199324 0.0044736378
0.021931816 -0.012234801 0.0052605257
0.0084914118 -0.0097991005 0.0053227171
0.018944126 -0.0041982969 0.0053566736
0.021565458 -0.0057143583 0.0047856173
0.018147722 0.0052560377 0.0072197914
0.021150213 0.0040664584 0.0073006549
-0.0022259101 0.018595321 0.0053090751
0.00084178458 0.018524082 0.0049810638
0.017405139 0.015204454 0.0051178527
0.020563964 0.013791466 0.0045698369
-0.0024184554 0.021365914 0.0046592322
0.0008152271 0.021252636 0.0041903304
0.016662473 0.023038914 0.0049619372
0.020750573 0.02309574 0.0039807428
-0.053738628 -0.030592375 0.012140537
-0.03356668 -0.030038878 0.011644498
-0.025094517 -0.030050119 0.011647074
-0.013483315 -0.030041035 0.011965614
-0.0066839093 -0.030067071 0.012727314
-0.060538057 -0.023121065 0.01375689
-0.053844061 -0.024094181 0.013892435
-0.045062725 -0.024226794 0.014149215
-0.035037104 -0.024403092 0.014447741
-0.025065716 -0.024536222 0.014775855
-0.015104918 -0.024856919 0.014959999
-0.0049745697 -0.025090784 0.01517235
0.0039280192 -0.024060905 0.01453641
0.010102225 -0.020953393 0.011208273
-0.060408629 -0.01865633 0.015723908
-0.053897057 -0.018730631 0.015369267
-0.045149155 -0.018779201 0.015845599
-0.035093088 -0.018777078 0.016338829
-0.025030665 -0.018740084 0.016821157
-0.014117419 -0.015846105 0.017422399
-0.0051409765 -0.015057948 0.018000791
0.0051990789 -0.01564212 0.016076667
0.01816711 -0.013140202 0.015446695
0.021680521 -0.01302695 0.014899042
-0.012242566 -0.0051956521 0.017928936
-0.0055051376 -0.0055282563 0.01842781
0.0035599486 -0.0054221549 0.018567244
0.018817548 -0.004603371 0.015310287
0.021330701 -0.0056895176 0.014678945
-0.011748137 0.0044514416 0.018288227
-0.0059352908 0.0045867143 0.018657202
0.0034520137 0.0040021213 0.018847847
0.017954586 0.0052110981 0.015140191
0.020873763 0.0042874515 0.014605219
-0.023057496 0.01808228 0.019443899
-0.011611189 0.014766521 0.018502647
-0.0038117967 0.016926553 0.016027316
0.0029449402 0.016159834 0.017385356
0.017058104 0.015156504 0.015063938
0.020376734 0.012564139 0.013835941
-0.022148997 0.021661608 0.019800436
-0.011398631 0.022471914 0.018854138
-0.0042145005 0.02335635 0.016948616
0.0022191261 0.023437332 0.017820975
0.016099919 0.022878991 0.015184811
0.020940656 0.023491984 0.014111428
-0.0026871376 0.030111641 0.019621585
8.7201595e-05 0.031677306 0.019939542
0.013000015 0.030265868 0.015954711
-0.053100783 -0.021734959 0.020376822
-0.044344772 -0.021591848 0.020428551
-0.034403566 -0.021684011 0.020539934
-0.024677524 -0.021712653 0.020572415
-0.014498343 -0.021371143 0.020410271
-0.0044612014 -0.022021027 0.020468056
0.0021647445 -0.022183582 0.020501172
0.015595937 -0.020829171 0.024468724
-0.053456414 -0.018716633 0.02058199
-0.045971557 -0.019430805 0.020766675
-0.034393512 -0.019215491 0.020736944
-0.025255362 -0.019343752 0.02062563
-0.013371945 -0.015324642 0.020727869
-0.0048803608 -0.014858017 0.020842912
0.0068477364 -0.013428465 0.023207411
0.015189387 -0.013670841 0.024001237
0.021316277 -0.013503065 0.022217309
-0.01205485 -0.0050107837 0.021153212
-0.0051275245 -0.0051468653 0.021161914
0.0065505314 -0.0046433564 0.023746185
0.015374891 -0.0050266669 0.024160685
0.020961985 -0.0056549506 0.022092009
-0.011736415 0.0050498387 0.021271683
-0.0048193322 0.0064961715 0.022525005
0.0052460288 0.005157263 0.024441775
0.015162487 0.0049879905 0.024290031
0.020508522 0.0033809012 0.021637257
-0.02321063 0.01824224 0.024840605
-0.013739174 0.016739838 0.024328995
-0.0054348842 0.014808833 0.024901228
0.0053318981 0.015119875 0.025336042
0.014567015 0.014993464 0.0243771
0.020174367 0.010984926 0.020832177
-0.022950418 0.022020943 0.024979036
-0.014585275 0.023711203 0.025266083
-0.0050109336 0.025068505 0.024502585
0.0042633303 0.024503248 0.025476638
0.014087781 0.022772558 0.024341537
0.020843793 0.02325777 0.022586893
-0.013627625 0.030713616 0.026221652
-0.0025165714 0.030502571 0.024753908
0.0014856985 0.030414328 0.026328797
0.012062123 -0.015130609 0.03030799
-0.01096004 0.0091836797 0.038150754
-0.0042801253 0.0092540486 0.037734225
0.0017246635 0.009141474 0.037582234
-0.022198936 0.018718461 0.030620238
-0.011452648 0.016199615 0.037675593
-0.0046556364 0.015956683 0.036263067
0.0018263988 0.016166195 0.037351534
-0.02364496 0.020789376 0.030226167
-0.011389582 0.022022901 0.037296638
-0.004502086 0.022326928 0.036679201
0.0020884089 0.022465199 0.036475271
0.011578615 0.021969039 0.030715918
-0.0038561716 0.0092685055 0.040518858
0.001928422 0.0091466308 0.040492278
-0.011172204 0.017202243 0.040565588
-0.0044323355 0.0156797 0.041027077
0.0023504146 0.016268719 0.041058462
-0.011130571 0.021886572 0.040574521
-0.0043659979 0.022978196 0.041192219
0.0018315781 0.022153219 0.041271646
