# .PCD v0.7 - Point Cloud Data file format
VERSION 0.7
FIELDS x y z
SIZE 4 4 4
TYPE F F F
COUNT 1 1 1
WIDTH 85
HEIGHT 1
VIEWPOINT 0 0 0 1 0 0 0
POINTS 85
DATA ascii
-0.020046949 -0.020634294 -0.0029632747
-0.011837623 -0.021113733 -0.002031676
-0.0042994586 -0.021849601 -0.0020562569
0.0043492294 -0.021897649 -0.0020390954
0.012092077 -0.021297062 -0.0020226676
0.020125598 -0.020150781 -0.0030008256
-0.021300722 -0.012003944 -0.0020281749
-0.014323913 -0.014295878 -0.0021560248
-0.0050884024 -0.015325578 -0.0023271765
0.0051190327 -0.015229197 -0.0024162827
0.014302351 -0.014320209 -0.0021492455
0.021200664 -0.012105119 -0.0019270901
-0.02192037 -0.004307278 -0.0021536467
-0.015262803 -0.0050707306 -0.0024505709
-0.0050500045 -0.0049066064 -0.0028120477
0.0049742954 -0.0051429486 -0.0027440318
0.015289155 -0.005143438 -0.0022976405
0.021811839 -0.0042880415 -0.0019337379
-0.021908928 0.0043457854 -0.002145675
-0.015262935 0.0050961277 -0.002450288
-0.0050432757 0.0049504186 -0.0027868953
0.0049695689 0.00517176 -0.0027415375
0.015299461 0.0051781577 -0.0022981383
0.021822333 0.0043373369 -0.0019290302
-0.021297215 0.012017475 -0.002032591
-0.014340106 0.014318979 -0.002150425
-0.0050873561 0.015319626 -0.0023140991
0.0051201195 0.015238219 -0.0024165271
0.014301537 0.014344014 -0.0021544416
0.021211563 0.012161571 -0.0019273629
-0.020013154 0.020591527 -0.0029399693
-0.011844665 0.021110842 -0.0019906412
-0.0043298425 0.021880785 -0.0020502803
0.0043583107 0.021925917 -0.0020364539
0.012124189 0.021286951 -0.0020290932
-0.011675959 -0.021058051 0.00093690789
-0.004401206 -0.021661885 0.0010134459
0.0043330491 -0.021706492 0.00087370916
0.011614253 -0.020893762 0.00079698197
-0.021096064 -0.011935635 0.00090315996
-0.013039475 -0.013882155 0.0030499315
-0.0058548274 -0.014524692 0.004427223
0.0050083487 -0.015473075 0.0010672974
0.014524166 -0.01448587 0.00092647644
0.021091394 -0.011722502 0.00081967266
-0.021711426 -0.0042973347 0.00091563433
-0.014402236 -0.006178664 0.0021256604
-0.0058504539 -0.0058604544 0.0022747579
0.0051703793 -0.0048702904 0.0012400681
0.015182763 -0.0037582989 0.0040960507
0.021722456 -0.0041370825 0.0011377311
-0.021718865 0.0043664849 0.00089341745
-0.014449746 0.0061846687 0.0020403999
-0.005841508 0.0058721416 0.0022732546
0.0051683523 0.0048989472 0.0012033054
0.015185748 0.003800333 0.0040928824
0.021739155 0.0041903774 0.0011551142
-0.021131016 0.011885639 0.00086162228
-0.0130466 0.013876928 0.0030858989
-0.0058694459 0.014530702 0.0044624018
0.0050185258 0.015464116 0.0010722968
0.014548827 0.014487188 0.00094491482
0.021093518 0.011702278 0.00087340316
-0.011689428 0.021016011 0.00098467572
-0.0044356203 0.02167353 0.0010447509
0.0043821759 0.021706676 0.00089995953
0.011713598 0.021004623 0.00089106546
-0.0113415 -0.011670134 0.010656683
-0.006255039 -0.013320624 0.010731415
0.0015152813 -0.016355822 0.010648361
0.014163163 -0.010902762 0.011173554
-0.012427622 -0.0089926496 0.010628701
-0.0074444208 -0.0087244119 0.01094697
0.0095317904 -0.003940722 0.010733827
0.01424872 -0.0024936779 0.010763714
0.02008231 -0.0018737987 0.010331811
-0.012497524 0.008987952 0.010657317
-0.0074507301 0.0088014994 0.010954965
0.0094480142 0.0038419811 0.010759852
0.014210721 0.0025663946 0.010764706
0.020107042 0.0018511459 0.010299894
-0.011365709 0.011734162 0.01066845
-0.0062279287 0.013340879 0.010741395
0.0011202693 0.015813088 0.010656915
0.014170048 0.010929912 0.011184834
