# .PCD v0.7 - Point Cloud Data file format
VERSION 0.7
FIELDS x y z
SIZE 4 4 4
TYPE F F F
COUNT 1 1 1
WIDTH 1338
HEIGHT 1
VIEWPOINT 0 0 0 1 0 0 0
POINTS 1338
DATA ascii
0.024988433 -0.0045789904 0.065774389
0.035482865 -0.0049346872 0.064044356
0.041590177 -0.0043959604 0.06792786
-0.031104695 0.0026919609 0.068556942
-0.024332188 0.0036457931 0.065420166
-0.015317447 0.0026845722 0.064762503
-0.0051781554 0.0013288805 0.064567216
0.0048965714 0.0013911168 0.063708194
0.015319288 0.0016455858 0.064411171
0.025637072 0.00465893 0.064063191
0.034873731 0.0049826615 0.064880483
0.04173439 0.0038958369 0.067980736
0.024402911 0.010494451 0.060940914
0.031262897 0.010186553 0.062512025
-0.03069273 -0.040844359 0.078977108
-0.023676829 -0.041326065 0.075858101
-0.015912281 -0.041368138 0.07375481
-0.0067166216 -0.0411603 0.071290806
0.004452222 -0.040808495 0.070425086
0.016750634 -0.041186202 0.071139529
0.026046244 -0.041351799 0.073418066
0.034037441 -0.041349236 0.075749651
0.040758021 -0.040752042 0.078587025
-0.031253528 -0.034826018 0.078055806
-0.025622932 -0.035703659 0.074707404
-0.015119131 -0.036291659 0.075164393
-0.006313263 -0.036110416 0.072019786
0.0048842775 -0.036208473 0.070979044
0.016062014 -0.0360967 0.071829386
0.025381945 -0.036197562 0.074725866
0.035908025 -0.035705991 0.074409157
0.041561048 -0.034730967 0.077858709
-0.072715908 -0.022395995 0.074473418
-0.065191098 -0.023031194 0.075473353
-0.057155222 -0.022610283 0.074433587
-0.045999423 -0.020475447 0.079154849
-0.031434614 -0.024473798 0.077561311
-0.026275767 -0.02507164 0.074423425
-0.015251231 -0.025065163 0.074527167
-0.0065813879 -0.025085362 0.071327485
0.0041220076 -0.025508989 0.070326835
0.017619856 -0.024645744 0.071343683
0.025935251 -0.02507573 0.073692895
0.036141209 -0.025305059 0.074268334
0.041754089 -0.024858003 0.077332422
-0.080163032 -0.012794368 0.071148902
-0.074412808 -0.015105107 0.074693374
-0.067290522 -0.01713698 0.079343282
-0.053101294 -0.0162466 0.075522564
-0.044937685 -0.014624678 0.074981101
-0.035735033 -0.015929252 0.074610181
-0.02537692 -0.016939761 0.074734949
-0.015393526 -0.01500637 0.074164003
-0.0072068064 -0.014852469 0.071271241
0.017768856 -0.015259177 0.070894688
0.026019827 -0.01529442 0.073108181
0.034626167 -0.016118729 0.075249188
0.04455154 -0.015093947 0.075177513
0.051987112 -0.013984703 0.078767441
-0.080788985 -0.0086418092 0.071738303
-0.073765881 -0.0076454175 0.074367024
-0.065185413 -0.0070977272 0.075062193
-0.055791777 -0.0074608047 0.07485608
-0.04448428 -0.0095704682 0.075190999
-0.03518118 -0.0054016486 0.074911289
-0.023068724 -0.0038684646 0.076329939
-0.015915306 -0.0044269329 0.074198693
-0.0076838937 -0.0048914249 0.07108099
0.01772606 -0.0050681597 0.070818052
0.026633425 -0.0046735802 0.072960064
0.032686733 -0.0040880418 0.076896153
0.045351729 -0.0050188936 0.074574873
0.052516535 -0.0048366277 0.078626305
-0.033494446 0.0038921374 0.075969934
-0.025519099 0.0032514026 0.07456173
-0.016377294 0.0013736077 0.072956845
-0.0086836098 0.0012703756 0.070902288
0.018851198 0.00096188654 0.070932843
0.026636938 0.0012894962 0.072688013
0.035660274 0.0030313525 0.074451938
0.044653185 0.0043084919 0.07514935
0.052678805 0.0033609476 0.078617573
-0.03161519 -0.041357622 0.086233675
-0.025699535 -0.041333314 0.084541388
-0.018876519 -0.041085344 0.081439607
0.029135492 -0.041141748 0.081178308
0.036317196 -0.041377798 0.084371045
0.041890714 -0.041224908 0.086182982
-0.03293993 -0.035416074 0.08524932
-0.024208168 -0.036370836 0.084970348
-0.01821945 -0.036058657 0.082506724
0.028305149 -0.036127105 0.081697248
0.03469529 -0.036335934 0.084923662
0.043666102 -0.035393789 0.08502806
-0.071323603 -0.021847969 0.080948971
-0.065234713 -0.021963723 0.081290722
-0.058560058 -0.021938914 0.081286147
-0.044253144 -0.021768868 0.083347544
-0.033649236 -0.025133656 0.085040182
-0.024120478 -0.024922734 0.08496844
-0.01927921 -0.025410715 0.081148371
0.029303391 -0.025828939 0.080275059
0.035543337 -0.025049482 0.084879354
0.04453459 -0.025164213 0.084775768
-0.071323916 -0.014873393 0.081589773
-0.064788625 -0.014803431 0.084503226
-0.05514162 -0.014787455 0.085600153
-0.045340054 -0.014637688 0.084919162
-0.036830392 -0.017406512 0.084397025
-0.024351263 -0.014992377 0.085098214
-0.019356426 -0.016661409 0.080784574
0.029484611 -0.015984189 0.080568038
0.036102895 -0.014882242 0.084715575
0.047069542 -0.017161731 0.084605798
0.055150274 -0.015278078 0.084321745
0.06464842 -0.01457535 0.086876564
0.071998261 -0.013836926 0.088658795
-0.071425036 -0.0078619923 0.08146891
-0.065203443 -0.0077848667 0.082570992
-0.056185838 -0.0087537011 0.083980031
-0.042690475 -0.0066832611 0.085892707
-0.038250141 -0.00436784 0.084206596
-0.024836406 -0.0045514931 0.084832825
-0.019776592 -0.0038452479 0.080417737
0.029829443 -0.0054885298 0.080493838
0.036654815 -0.0045485105 0.084616497
0.044628181 -0.0046988693 0.08567629
0.0557543 -0.0051032011 0.082505964
0.065119229 -0.0048943465 0.085952759
0.07237418 -0.0048208791 0.088451393
-0.041180298 0.0034176793 0.086676598
-0.03564259 0.0047906199 0.084971957
-0.026650857 0.0018869025 0.084227957
0.037198577 0.0013331056 0.083983004
0.045433987 0.0044049895 0.08484555
0.055236105 0.0044469219 0.084193893
0.064814992 0.0043371944 0.086333252
0.072644539 0.0043220776 0.088479578
-0.032490384 -0.041304342 0.095308132
-0.02733716 -0.041292787 0.094640985
0.037960999 -0.041244801 0.094594955
0.042995609 -0.041298497 0.095144466
-0.03510423 -0.035627671 0.095049337
-0.02603358 -0.035834182 0.095005766
0.037045661 -0.035995577 0.094982035
0.04584967 -0.035609469 0.095082976
0.05001229 -0.038280949 0.095742375
-0.040071044 -0.021853924 0.099584177
-0.036057614 -0.025003394 0.095120594
-0.027184311 -0.024984019 0.094686009
0.038283151 -0.024972476 0.094431154
0.046344016 -0.025146371 0.094957575
0.050212212 -0.023479115 0.097441159
-0.061438974 -0.013278966 0.091487601
-0.054551415 -0.014052286 0.094529167
-0.045496829 -0.014849338 0.095037222
-0.037135117 -0.017929729 0.095214777
-0.027377674 -0.015241398 0.094850965
0.038443878 -0.0149293 0.094359942
0.045660507 -0.015259208 0.095315255
0.056030869 -0.012538477 0.093231745
0.065975137 -0.015194438 0.092945866
0.075115129 -0.014718136 0.094569735
0.082269318 -0.013587293 0.097826786
-0.060848981 -0.0093870405 0.090776883
-0.054247662 -0.0097619174 0.094381854
-0.042380951 -0.0058742044 0.094677933
-0.037017636 -0.003845707 0.09581694
-0.027631694 -0.0047711143 0.094827041
0.038709898 -0.0047989613 0.094189398
0.042839289 -0.0051194909 0.095831901
0.055395778 -0.0062014093 0.095942497
0.06443999 -0.005931919 0.096530624
0.075736672 -0.0051270742 0.09346699
0.082688078 -0.0050111627 0.097478658
-0.041378744 0.0041653719 0.094788231
-0.036166836 0.0048732208 0.094964191
-0.028293623 0.0013938305 0.094637573
0.038652319 0.0010517086 0.094470143
0.045657445 0.0034948776 0.094883554
0.053127173 0.0046274667 0.094430283
0.06601207 0.0048034722 0.092860758
0.075588018 0.0056724367 0.094122104
0.082832642 0.0056379619 0.097112283
-0.038308591 0.010486226 0.094189905
0.048960622 0.010481894 0.096386299
0.078492559 0.010224162 0.097125441
0.083885022 0.01059368 0.098187737
0.090043664 0.010928094 0.09987551
-0.032493316 -0.041292001 0.10491798
-0.027483741 -0.041334257 0.10537078
0.037953842 -0.041330516 0.10540864
0.043133348 -0.041291717 0.10485397
-0.035077326 -0.035606798 0.10502233
-0.025963165 -0.035988625 0.10522301
0.037122019 -0.036002222 0.1052149
0.046293661 -0.035584677 0.10504098
0.050449613 -0.032632448 0.10638346
-0.041390702 -0.021811331 0.10547998
-0.035943817 -0.025251999 0.10508256
-0.027218891 -0.025048783 0.10515563
0.03811425 -0.025099849 0.10558895
0.046637159 -0.025133118 0.10447568
0.050356921 -0.02451905 0.10716131
-0.051702723 -0.013647798 0.10381734
-0.045834396 -0.014677939 0.10520224
-0.037075829 -0.017468374 0.10519521
-0.027522666 -0.014909847 0.10520531
0.038295865 -0.015242487 0.10552261
0.0459514 -0.015171482 0.10469969
0.053904168 -0.011725749 0.10535153
0.064953901 -0.010334935 0.10500658
0.076605015 -0.01292264 0.10313876
0.085247226 -0.013699217 0.10461554
0.093027651 -0.012102352 0.10796517
0.10228207 -0.0113968 0.10980769
0.11409849 -0.013362424 0.10942299
-0.05142669 -0.009626857 0.10371133
-0.042575579 -0.006504558 0.10457321
-0.037509166 -0.0039449865 0.1053636
-0.027711283 -0.0047085392 0.10519312
0.038492132 -0.0051056826 0.10572673
0.042285699 -0.0050412752 0.10475402
0.055542637 -0.0060810796 0.10507462
0.065067619 -0.0060545183 0.10513805
0.074458145 -0.0055819307 0.10569358
0.086126924 -0.0053452915 0.1037338
0.094266146 -0.0049299654 0.1074708
0.10401365 -0.0044475808 0.10913811
0.11411244 -0.0034794733 0.10939005
0.12068856 -0.0013199747 0.10896266
-0.041013967 0.0042085163 0.10417154
-0.036265016 0.0046169627 0.10517028
-0.028197013 0.0013442711 0.10544118
0.038825039 0.00098374707 0.10577324
0.045702506 0.0035115075 0.10498206
0.05221276 0.004627334 0.10469587
0.07757736 0.0056193355 0.10277063
0.085728973 0.005796486 0.10363474
0.094571382 0.0050388379 0.10707198
0.10454581 0.0056358757 0.10900614
0.11485074 0.0056665433 0.10916234
0.12535419 0.0073495596 0.10888798
0.13402489 0.0079334769 0.1088275
0.14041838 0.0090128984 0.10829951
0.053010818 0.010492861 0.10129726
0.079032935 0.010259613 0.10188614
0.086656533 0.011274529 0.10472099
0.094891198 0.012768469 0.1073247
0.10454419 0.015079691 0.10877242
0.1160195 0.015598133 0.10885517
0.12502004 0.015080901 0.10862321
0.13513257 0.014945603 0.10863596
0.14236309 0.015832828 0.10881422
0.10724726 0.023040406 0.10883632
0.11693593 0.024441671 0.10859776
0.1250256 0.024984332 0.10850539
0.13509876 0.025018316 0.10860473
0.14239061 0.024520634 0.10881741
0.11875701 0.031344581 0.10856096
0.12572038 0.032939803 0.10863709
0.13437285 0.032717142 0.10877786
0.14100249 0.031169603 0.10876944
-0.031686768 -0.041135211 0.11357689
-0.025823053 -0.041316383 0.11550389
-0.019265061 -0.040911354 0.11816962
0.029083267 -0.041412633 0.11928701
0.036284488 -0.041341815 0.11566447
0.041978978 -0.041175883 0.11404924
-0.032899518 -0.035374492 0.11469734
-0.024299337 -0.036304235 0.11511538
-0.01826515 -0.035831597 0.11787554
0.02851606 -0.036287468 0.11826155
0.034613743 -0.036229685 0.11507648
0.044815253 -0.035105832 0.11499434
0.050496668 -0.030731315 0.11225539
-0.033632599 -0.025144963 0.1150078
-0.024448365 -0.025060449 0.1150871
-0.019250153 -0.026121151 0.11857284
0.029818267 -0.026993722 0.11906895
0.035418019 -0.025162147 0.11511727
0.048258469 -0.026025306 0.11525897
0.050994404 -0.024643647 0.11571126
0.11414852 -0.020291992 0.11683161
-0.050791252 -0.013477601 0.11435799
-0.045831364 -0.014368152 0.11503116
-0.036947671 -0.01688168 0.11532478
-0.024649912 -0.015026565 0.11517493
-0.019065939 -0.014863053 0.11946662
0.035933893 -0.015085082 0.1152537
0.048648044 -0.015548375 0.11443634
0.052503094 -0.013505705 0.11550379
0.064894952 -0.010339445 0.11469317
0.075022072 -0.010356879 0.11494079
0.086096838 -0.011515656 0.11384935
0.096131533 -0.012500855 0.11412586
0.10495165 -0.014834094 0.11591423
0.11411662 -0.015031331 0.11533717
-0.050508317 -0.0094660446 0.11384961
-0.043525837 -0.0082231043 0.11391667
-0.03768038 -0.0047589126 0.11524372
-0.025221927 -0.004629124 0.11519974
-0.0196907 -0.0051283538 0.11947446
0.036553022 -0.0047690417 0.11525708
0.045932569 -0.003203782 0.11437367
0.055444162 -0.0059882617 0.11493537
0.065072082 -0.0061020209 0.11495735
0.074944049 -0.0055719516 0.11487782
0.08417435 -0.0072125872 0.11505437
0.095586218 -0.007209966 0.11359793
0.1052272 -0.0053212014 0.11179511
0.11515077 -0.0048032342 0.11392543
0.12137408 -0.00080467132 0.11529092
-0.04065809 0.0038122167 0.11276644
-0.03539497 0.004959289 0.11500166
-0.026666097 0.0019581602 0.11572308
0.037407067 0.0012689237 0.11574148
0.045795735 0.004748642 0.11495484
0.051626366 0.0049976846 0.11459959
0.07878048 0.00059030706 0.1149047
0.085678712 0.0040223827 0.1152599
0.095213771 0.0059138215 0.11218642
0.10533861 0.0048110629 0.11109222
0.11545452 0.0044181994 0.111811
0.12476727 0.0044058287 0.11417986
0.13476224 0.0074953809 0.11454945
0.14081009 0.0092002619 0.11361989
0.08823473 0.011908894 0.115234
0.094922014 0.014302026 0.11475154
0.10454515 0.015943117 0.11202301
0.1142113 0.014638917 0.11084983
0.12505679 0.014314573 0.11049417
0.13743137 0.012520102 0.11323354
0.14256236 0.015387778 0.11462007
0.098916441 0.025774222 0.11763
0.10510745 0.026071521 0.11486022
0.11414951 0.026690863 0.11367051
0.12415648 0.026142318 0.11096166
0.1370374 0.026996162 0.11220814
0.14280997 0.024860617 0.11458036
0.098977886 0.030480141 0.11807299
0.10559862 0.030648548 0.11611917
0.11683308 0.031352926 0.11547513
0.12512855 0.034068488 0.11440393
0.13500763 0.033480953 0.11459401
0.14109623 0.031244051 0.11476485
-0.030652355 -0.040588301 0.12129259
-0.023743197 -0.041370898 0.12396716
-0.01612678 -0.041336358 0.12630005
-0.0071868394 -0.041261233 0.12880786
0.0053987508 -0.04097949 0.1296373
0.017190617 -0.041155957 0.12882525
0.026213458 -0.041383076 0.12649423
0.034081742 -0.041280534 0.12426838
0.040667217 -0.041022804 0.12157429
-0.031221839 -0.034736942 0.12191315
-0.02569833 -0.035809841 0.12523341
-0.015090697 -0.036097545 0.1249202
-0.0061462359 -0.036056507 0.12824918
0.005045237 -0.036337022 0.12900119
0.016646398 -0.036138691 0.1285152
0.025249831 -0.036064133 0.12541193
0.035884719 -0.036264911 0.12550443
0.042448591 -0.033693407 0.12335517
-0.031504683 -0.02468271 0.12216518
-0.026140545 -0.025173666 0.12496654
-0.015353397 -0.02501281 0.12568869
-0.0074393698 -0.025323868 0.12902586
0.018210394 -0.025870377 0.12930658
0.025664428 -0.025067557 0.12635536
0.03291649 -0.02541635 0.12317927
0.046256568 -0.026560513 0.12541954
0.051578529 -0.023277856 0.12521113
0.11431628 -0.021314502 0.1213627
-0.051086631 -0.013364168 0.12609525
-0.04578669 -0.014467872 0.12500839
-0.035757031 -0.0159309 0.12510942
-0.024594283 -0.016583584 0.12456021
-0.015788477 -0.015078559 0.12593053
-0.008159617 -0.015511496 0.12910284
0.016697057 -0.015491666 0.12945877
0.026042154 -0.01511455 0.12667857
0.031986997 -0.014806201 0.12257412
0.049587037 -0.015771117 0.12319634
0.052733492 -0.014368896 0.12519565
0.066221356 -0.011937914 0.12608071
0.075698391 -0.014483728 0.12692405
0.085020259 -0.013567607 0.12580326
0.094608247 -0.012225 0.12349872
0.10492828 -0.013565239 0.12218942
0.11365215 -0.01376584 0.12233026
-0.050820157 -0.0098664016 0.12458059
-0.045576833 -0.0096597597 0.12519361
-0.03547569 -0.0051944265 0.12500584
-0.022053193 -0.0040752958 0.12260615
-0.015977249 -0.0049325828 0.12640993
-0.0089231702 -0.0052656708 0.12928908
0.01693505 -0.0048184423 0.12953363
0.026268784 -0.0048908642 0.12712777
0.033124309 -0.0039751292 0.12368903
0.044896092 -0.0014513109 0.12627955
0.055682506 -0.0058346721 0.12463335
0.064885244 -0.0058173696 0.12457042
0.074502729 -0.0055597951 0.12353545
0.085506186 -0.0056740567 0.12700444
0.094901912 -0.0053424048 0.12542276
0.10498884 -0.0050807735 0.1239502
0.11446999 -0.0046461537 0.12299945
0.12105358 -0.00090099964 0.12228067
-0.033717904 0.0058436729 0.12462179
-0.025669964 0.0040545533 0.12512182
-0.016482517 0.0014139088 0.12701295
-0.0087190466 0.0016830824 0.12954774
0.017831659 0.00090967119 0.1295577
0.027073365 0.001355198 0.12751961
0.034411464 0.001423807 0.12461418
0.045970172 0.0060920753 0.12448459
0.05150241 0.0057644765 0.1247053
0.067049466 0.0054122498 0.12826793
0.075040944 0.0058289575 0.12547834
0.085355327 0.0050501148 0.12617825
0.095045991 0.0049299807 0.12616242
0.10503339 0.00498818 0.1247415
0.11525743 0.0048160707 0.12429211
0.12491054 0.0057363627 0.12489092
0.13443092 0.007665419 0.12492624
0.14093004 0.0094098393 0.12467408
-0.032084458 0.010645361 0.12753767
-0.028391145 0.0107132 0.12831202
0.046652492 0.011116975 0.12726061
0.051552631 0.011197557 0.12791149
0.066746309 0.011135703 0.12835893
0.075954244 0.011701913 0.12744659
0.085471325 0.012704939 0.12597433
0.094954439 0.01456968 0.12492293
0.10469456 0.015466329 0.12489737
0.11520933 0.01502916 0.12658286
0.12508242 0.014967936 0.12777358
0.13572884 0.014430445 0.12716772
0.14237812 0.015703704 0.12490682
0.09909302 0.024539802 0.12127643
0.10532852 0.025534883 0.1229239
0.115268 0.025514025 0.12578157
0.12491984 0.025143813 0.12772517
0.13540517 0.025391292 0.12754746
0.14249299 0.024673205 0.12496209
0.099624798 0.030202046 0.12119949
0.10590407 0.030685119 0.12194111
0.11756362 0.031509213 0.12460926
0.1251322 0.033643778 0.12535815
0.13475744 0.03315004 0.12512946
0.14094537 0.031208757 0.12432924
-0.021247003 -0.041149493 0.13110325
-0.013976899 -0.041273955 0.13298996
-0.0049090753 -0.041330211 0.13486362
0.0049923249 -0.041319489 0.13562757
0.015010411 -0.041287988 0.13485152
0.024318168 -0.041250419 0.13319623
0.03156412 -0.040944215 0.13148531
-0.022214677 -0.033932496 0.13290003
-0.015261892 -0.035590421 0.13578345
-0.0050809933 -0.036858603 0.13536374
0.0049099438 -0.036610242 0.13414337
0.015180944 -0.036594894 0.13504618
0.025491014 -0.035644386 0.13601686
0.033453424 -0.033945851 0.13307804
0.041010581 -0.031004796 0.13122512
-0.051222723 -0.020397987 0.13971061
-0.048540123 -0.020455582 0.13977735
-0.033888873 -0.020469204 0.13432339
-0.023482632 -0.025445137 0.13528469
-0.015711902 -0.027539536 0.13662603
-0.0046258238 -0.024786059 0.13223943
0.0047488874 -0.02506369 0.1332646
0.014725811 -0.024957148 0.13221493
0.025193807 -0.026925817 0.13561958
0.035992309 -0.027209459 0.13616149
0.04485273 -0.024403494 0.13487878
0.052106693 -0.02199322 0.13518681
-0.052526392 -0.013996622 0.13579732
-0.045354556 -0.014897521 0.13456406
-0.035510551 -0.015097029 0.13504872
-0.026883312 -0.017845988 0.13529058
-0.012078515 -0.014962054 0.13089606
-0.0048728227 -0.014612374 0.13249494
0.0048659323 -0.01486303 0.13385957
0.014763079 -0.014907108 0.13267405
0.02145672 -0.014813232 0.1310873
0.055301987 -0.015949804 0.13549259
0.065818809 -0.01557422 0.13578992
0.074221864 -0.014611342 0.13321717
0.082082406 -0.01306924 0.13111357
-0.052317102 -0.0087500373 0.13747051
-0.045998324 -0.0089611448 0.13664377
-0.033099402 -0.0054235179 0.13471147
-0.027429242 -0.0025742219 0.13782364
-0.01386032 -0.0026768534 0.13391687
-0.005368006 -0.0043963841 0.13338029
0.0049378201 -0.0046050479 0.13458957
0.015143824 -0.0045400849 0.1335609
0.023824122 -0.0033493948 0.13376939
0.03511196 -0.0029111593 0.13561273
0.042940531 -0.0025554195 0.13496508
0.055764493 -0.0048267459 0.13281737
0.066281997 -0.0057765911 0.1362876
0.074782036 -0.0050317957 0.13404028
0.082503013 -0.0048012058 0.13128221
-0.032087743 0.0053736591 0.13419053
-0.024981881 0.0055919331 0.13506548
-0.014979279 0.0016295878 0.13399178
-0.0051977611 0.0015172358 0.13524248
0.0048621278 0.0019251119 0.13672541
0.015127955 0.0017391394 0.1357947
0.024546398 0.001302826 0.13363425
0.032151848 0.0012033373 0.13152231
0.045277152 0.0054976479 0.13428321
0.054713208 0.0055329348 0.13463427
0.065032132 0.0061482266 0.13419853
0.07575085 0.005194739 0.1360794
0.082885079 0.0060081063 0.13219765
0.12612405 0.0069152713 0.13043302
0.13342802 0.0084450394 0.13014726
-0.031399697 0.011771218 0.13498786
-0.026584394 0.012831869 0.13609292
-0.019385742 0.012180487 0.13851465
0.046466663 0.013985727 0.13551123
0.055344831 0.013179775 0.13681318
0.065033168 0.012582861 0.13551044
0.074595019 0.012029577 0.13312362
0.083509319 0.01185307 0.13159394
0.090274572 0.012648106 0.13025118
0.10052948 0.01373861 0.13020539
0.11881115 0.018440083 0.13061523
0.12618712 0.017369647 0.13020281
0.13515984 0.016972745 0.13019805
0.04646929 0.020729003 0.13924117
0.11831149 0.020207345 0.13068008
0.12552939 0.022550143 0.1301301
0.13342434 0.023112655 0.13014431
0.14195895 0.022318274 0.13020611
0.12482111 0.033205211 0.13024995
0.13588712 0.031951826 0.13022223
-0.0029882556 -0.040919922 0.14076263
0.0054103774 -0.04101111 0.14101535
0.01391814 -0.041192122 0.14064297
-0.012629845 -0.032251164 0.14124778
-0.0043689362 -0.033862472 0.14197722
0.0050432291 -0.034426447 0.14248134
0.014464464 -0.033813968 0.14210561
0.023146199 -0.032489154 0.14140569
0.031008013 -0.030280057 0.14044076
-0.06044418 -0.021298056 0.14877419
-0.054468218 -0.022544013 0.14613351
-0.045731291 -0.022679552 0.14584324
-0.03924102 -0.021889055 0.14831819
-0.022808444 -0.023279389 0.14452067
-0.014931484 -0.025337145 0.14529273
-0.0051348456 -0.025896763 0.14644122
0.0049131634 -0.025917728 0.14708433
0.015114105 -0.025685165 0.14672269
0.025042985 -0.025218951 0.14546806
0.034836356 -0.023526821 0.14506705
0.044852197 -0.022202259 0.14522929
0.052595358 -0.021632962 0.1450606
-0.06054629 -0.014360271 0.1478233
-0.056431532 -0.015263045 0.14435053
-0.043860581 -0.017290171 0.14273375
-0.034706749 -0.015522662 0.14476286
-0.026983593 -0.017203925 0.14537093
-0.011696884 -0.019029671 0.14975119
-0.0046273153 -0.017763898 0.14934798
0.0050509386 -0.017758653 0.14941658
0.014607627 -0.017891627 0.14934877
0.024830693 -0.017807117 0.14940839
0.034997489 -0.017754387 0.14940427
0.041136492 -0.017846555 0.14956532
0.057141803 -0.016479133 0.1459005
0.062764153 -0.014836255 0.14309955
-0.060525417 -0.0080277491 0.14805634
-0.055105768 -0.0074992301 0.14501812
-0.045305647 -0.0072110482 0.1449327
-0.034111008 -0.0067665358 0.14457044
-0.028022751 -0.0044985912 0.14563328
-0.013990372 -0.0023917079 0.1449465
-0.0066154194 -0.0019303672 0.14541487
0.017874356 -0.0016371011 0.14595334
0.025320698 -0.0027890536 0.14531754
0.03486003 -0.0033551648 0.14505841
0.042415153 -0.00245967 0.14489269
0.058439452 -0.005521208 0.14772819
0.063336767 -0.0051803165 0.14370929
0.071575582 -0.00074656308 0.14068753
-0.030936006 0.004437909 0.14293736
-0.026836114 0.0053362814 0.14502643
-0.016916929 0.0047564483 0.14568175
-0.002333554 0.0046819127 0.1445293
0.0050308034 0.006218622 0.14433224
0.013722023 0.0052287127 0.1445639
0.023261443 0.00088973594 0.14698826
0.035433523 0.00043481804 0.14836414
0.044085495 0.0051755956 0.14492168
0.057378139 0.0068077925 0.14700744
0.065765418 0.0044556907 0.14543465
0.072400257 0.0046597361 0.14285827
-0.030820811 0.012784988 0.14237392
-0.025602285 0.01552964 0.14464304
-0.018048657 0.014980021 0.14637467
-0.00092686154 0.012287633 0.14831366
0.0053313682 0.01452168 0.14863601
0.011721399 0.013064072 0.14903121
0.045648336 0.016283821 0.14381516
0.055529218 0.015968181 0.14468634
0.062017858 0.013462981 0.14191097
-0.023747351 0.022352265 0.14756298
-0.01853223 0.022716496 0.14818068
0.0059877937 0.020366078 0.14945845
0.046570804 0.02374384 0.14654762
0.052879687 0.022230774 0.14742854
0.046264719 0.030981759 0.14909551
-0.060545646 -0.021760983 0.15363488
-0.05515784 -0.022708926 0.15510112
-0.0451448 -0.022853553 0.15514584
-0.038916621 -0.021889176 0.15408294
-0.022737019 -0.021408092 0.15473317
-0.016249433 -0.021643931 0.15388878
-0.0047506043 -0.022696761 0.15122317
0.0049581309 -0.022874206 0.15125999
0.014922695 -0.022368014 0.15137601
0.024902534 -0.022172738 0.15120468
0.034894612 -0.021519531 0.15130717
0.046496704 -0.021372261 0.15361337
0.052534636 -0.021281753 0.15478665
-0.061164856 -0.014612339 0.15487933
-0.058346361 -0.015355952 0.15555981
-0.041745652 -0.018416394 0.15707979
-0.034537379 -0.015726799 0.15531461
-0.0266714 -0.016343709 0.1553577
-0.014551689 -0.0155594 0.1549274
-0.0049149087 -0.014936923 0.15223396
0.0050159702 -0.014071657 0.15300587
0.015007686 -0.014636648 0.1521136
0.024873573 -0.014680038 0.15200655
0.034879878 -0.014742798 0.15194924
0.044356667 -0.015721763 0.15510327
0.054635171 -0.015605608 0.15478258
0.060728937 -0.011787176 0.15008305
-0.061175629 -0.007978539 0.15503743
-0.055865332 -0.0073382854 0.15505591
-0.044944305 -0.0071463394 0.15513633
-0.036975723 -0.0081271566 0.1544455
-0.02613158 -0.0048943036 0.15510975
-0.013575063 -0.0051765414 0.15615827
-0.0051584155 -0.0059321057 0.15530573
0.0054714726 -0.0087623708 0.15706012
0.015302612 -0.0055000279 0.15506181
0.024957187 -0.004524386 0.15359849
0.034856718 -0.0044476292 0.15349807
0.042975463 -0.0051589813 0.15604438
0.055517241 -0.0053211618 0.15474735
0.060741466 -0.0022574749 0.15123591
-0.030038659 0.0040675998 0.15050274
-0.025299383 0.0050968388 0.15501961
-0.01295207 0.0048651542 0.15509206
-0.0055368911 0.0050000031 0.15435269
0.0040350179 0.0091199884 0.15079126
0.016724944 0.0050286045 0.15550503
0.025093712 0.0048336009 0.15560891
0.034869891 0.0049444139 0.15544333
0.042540923 0.0049917074 0.15566443
0.055887714 0.0049741487 0.15540797
0.063419558 0.0041265762 0.15434764
0.070766091 0.0017101765 0.15069699
-0.024641292 0.015125809 0.15501507
-0.014234426 0.015199702 0.15434088
-0.0047280304 0.015288486 0.15616021
0.0047632866 0.016317159 0.15286967
0.014760477 0.015101437 0.15572384
0.025108811 0.014920539 0.15734541
0.034882244 0.014901515 0.15717246
0.044372883 0.015267586 0.15570636
0.052062161 0.015000925 0.15414748
-0.023459988 0.025106262 0.15465239
-0.015700098 0.025395412 0.15491453
-0.0049242731 0.024974525 0.15787783
0.0050509968 0.024233619 0.15711017
0.014967967 0.024785561 0.15774179
0.025397312 0.024651688 0.15813674
0.034814153 0.024748698 0.15813583
0.046216246 0.025861986 0.15467823
0.051738974 0.024539474 0.15400411
-0.022220971 0.033919282 0.15708162
-0.016211174 0.034482546 0.15725283
-0.0050289291 0.034577876 0.15830085
0.0050735027 0.034539632 0.15830088
0.014998646 0.034761395 0.15832098
0.025109818 0.034236297 0.15837692
0.03474535 0.034276526 0.15855017
0.046366315 0.034677412 0.15573113
0.051189542 0.034730487 0.15638934
-0.021376519 0.043077596 0.15885952
-0.016165761 0.043808974 0.15883724
-0.0045626964 0.04354861 0.15917934
0.0054298914 0.043560505 0.15919322
0.014660467 0.043206617 0.1591388
0.024871377 0.043880735 0.15921445
0.035398155 0.043252286 0.15905997
0.04645551 0.043852802 0.15808506
0.051163435 0.044311754 0.15838648
-0.017217444 0.051693726 0.15957125
-0.0020835798 0.050607961 0.15991326
0.0046048909 0.050592475 0.15990019
0.014969753 0.050987206 0.15988161
0.026376542 0.050821967 0.15980664
0.037045784 0.050812639 0.15970281
0.046305247 0.053736106 0.1588771
0.051066663 0.053119689 0.15909794
0.047294181 0.062477622 0.15953866
0.051373601 0.060397059 0.15998115
-0.052944828 -0.022028975 0.1614164
-0.046963714 -0.022028249 0.16148138
-0.039559141 -0.02011171 0.16101241
-0.022539087 -0.021051764 0.16499226
-0.018027114 -0.020992866 0.16523871
0.048375495 -0.020710813 0.16192192
0.052121319 -0.020722969 0.1623033
-0.060564704 -0.015069291 0.16072233
-0.054065485 -0.014948793 0.16242695
-0.045003865 -0.01494679 0.16298644
-0.034992084 -0.014233535 0.16285349
-0.02587961 -0.015158359 0.16514198
-0.016981246 -0.015581569 0.16497941
-0.00010838111 -0.010626098 0.16248469
0.0052848402 -0.010724775 0.16192697
0.010288194 -0.01042524 0.16223657
0.046906598 -0.015504277 0.16501309
0.053064562 -0.015707089 0.16496408
-0.060683943 -0.0083250655 0.16080123
-0.053928368 -0.0078471899 0.16221093
-0.04621001 -0.0078000329 0.16232401
-0.03510261 -0.0095566902 0.16230755
-0.024255183 -0.0051369057 0.16516639
-0.016032565 -0.0050999774 0.16503802
-0.0028877147 -0.0043474613 0.16236807
0.005009809 -0.0055611106 0.16228603
0.012265632 -0.0041682427 0.16214898
0.045199778 -0.0049733925 0.16506739
0.054096527 -0.0052068536 0.16517666
-0.02335122 0.0050770091 0.16507351
-0.01482064 0.0053442554 0.16466127
-0.0043749693 0.0051028258 0.16289489
0.0050316514 0.0048496765 0.16277455
0.01358578 0.0050512296 0.16243015
0.039978389 0.0076172948 0.16021472
0.044218536 0.0049980665 0.16488302
0.056331187 0.0047125947 0.16514733
0.061213877 0.004129122 0.16306227
-0.022705534 0.015037774 0.16502528
-0.013405098 0.01470711 0.16528134
-0.0048235836 0.014983797 0.16361536
0.0050074379 0.014993154 0.16337296
0.014767279 0.01498396 0.16292039
0.023690509 0.016999869 0.16135292
0.035905611 0.016791187 0.16070443
0.043614678 0.01501589 0.1645333
0.052246511 0.015231488 0.16534369
-0.022212673 0.025011696 0.16488525
-0.013342018 0.025075311 0.1659973
-0.0048361551 0.025218055 0.16364925
0.0050020944 0.025217209 0.16350222
0.015008095 0.025061287 0.16323543
0.024148691 0.025964512 0.16151951
0.035364754 0.025887296 0.16117741
0.043315731 0.025244979 0.1644358
0.051996689 0.025090571 0.16537255
-0.021827932 0.034967728 0.16464804
-0.014379466 0.035613015 0.16462085
-0.0049692085 0.035336629 0.16319361
0.0051351739 0.035345718 0.16303088
0.015048628 0.035343565 0.16298752
0.024830882 0.035403021 0.16211243
0.034994546 0.035590183 0.16160968
0.043846767 0.035335403 0.16393732
0.051782705 0.035089944 0.16556567
-0.021584539 0.044683971 0.16481668
-0.015689 0.045230091 0.16384321
-0.0049625873 0.045067806 0.1635083
0.0050785858 0.045028996 0.16350131
0.015030006 0.045072928 0.1633931
0.025047049 0.045064747 0.16315126
0.035055876 0.044994429 0.16289598
0.045134567 0.045420907 0.16331041
0.051536795 0.044797704 0.16558494
-0.021252794 0.054558896 0.16528875
-0.016018983 0.055095229 0.16426916
-0.005212029 0.054953638 0.16424701
0.005084719 0.055020846 0.16416244
0.015043727 0.05496376 0.16411819
0.025031084 0.055057246 0.1640815
0.035225503 0.055021517 0.16407321
0.046014246 0.055118244 0.16354635
0.051473089 0.054699894 0.16536969
-0.020919468 0.064363912 0.16664191
-0.015953509 0.064984724 0.165535
-0.0049864799 0.065005548 0.16527149
0.0050507691 0.064998776 0.1652905
0.015063144 0.065108828 0.16526175
0.024925593 0.065062828 0.16525102
0.034981657 0.064938903 0.16531202
0.046249248 0.065128468 0.16471963
0.051398829 0.064863771 0.16570789
-0.020665392 0.073883884 0.16752933
-0.015437872 0.074775532 0.16675121
-0.0049574063 0.074859329 0.16608003
0.0049746544 0.074608043 0.16621593
0.014974883 0.074616268 0.16624716
0.024983184 0.074613251 0.16624382
0.034827948 0.074783571 0.16633773
0.046034876 0.075055957 0.16603425
0.051259309 0.074767441 0.16669208
-0.020390362 0.081929378 0.16888094
-0.014505826 0.084409907 0.16759783
-0.0051431539 0.084999517 0.16669253
0.0045975512 0.084509604 0.16682534
0.014644975 0.081992425 0.16690749
0.025567593 0.082716763 0.16686656
0.034945782 0.085019059 0.16698426
0.045311619 0.08478038 0.16730842
0.051231615 0.083356075 0.16781507
-0.01266291 0.094720908 0.16808352
-0.0051539354 0.094815455 0.16736411
0.0015608788 0.092343442 0.16714202
0.037487023 0.093955837 0.1675266
0.044480283 0.094942436 0.16791221
0.050376374 0.094464131 0.16920988
-0.011917297 0.10471645 0.16821545
-0.0053699701 0.10491537 0.16785055
0.00046596344 0.10708093 0.16832836
0.038245603 0.1051541 0.16804892
0.043788373 0.10478604 0.16826259
0.050286449 0.10392825 0.16950077
-0.011378058 0.1125286 0.16859326
-0.0051732347 0.11456497 0.1682312
0.0027225816 0.11642852 0.16833743
0.010697372 0.11984235 0.16927128
0.028116167 0.11901246 0.16808572
0.036543194 0.11548595 0.16833417
0.042951789 0.1139276 0.16863233
-0.0029735274 0.12260105 0.16847964
0.0051019657 0.12460508 0.1685124
0.014758555 0.1253899 0.16854586
0.025082024 0.125329 0.16851912
0.034157082 0.12366184 0.16870178
0.041180234 0.12185984 0.16888076
0.0076666768 0.13115412 0.16910082
0.012936944 0.1312256 0.16908187
0.025075991 0.13119568 0.16893321
0.031281162 0.1303768 0.16937093
-0.02235439 -0.020981146 0.17197515
-0.018031964 -0.020885995 0.1719684
-0.023091048 -0.014290764 0.17379443
-0.017594716 -0.014652114 0.17396268
0.047495738 -0.012753532 0.1738466
0.052561764 -0.013021252 0.17400886
-0.023624504 -0.0055988184 0.17558615
-0.01638123 -0.0054938165 0.17565288
0.045833915 -0.0057928273 0.1757137
0.053531889 -0.0053536859 0.17533427
-0.022945598 0.0049703857 0.17539378
-0.015376183 0.0048983674 0.17512591
0.04463204 0.0048553483 0.17514645
0.055649169 0.0049092839 0.17507188
0.060615458 0.0037756562 0.17516558
-0.022177976 0.014831736 0.17502272
-0.015270405 0.014751177 0.17527212
0.044077169 0.014921477 0.17533758
0.053221468 0.015145061 0.17488816
-0.021685401 0.024777357 0.17475988
-0.01582087 0.025398733 0.17541081
0.043358792 0.024833346 0.17534721
0.052712392 0.025042651 0.17492111
-0.021550976 0.034769457 0.1746726
-0.016294915 0.035188019 0.17521754
-0.009393774 0.036866479 0.1753
0.042700969 0.034700673 0.17515787
0.052271832 0.035049852 0.17494059
-0.021170948 0.04484605 0.1747252
-0.016349604 0.044999879 0.17508143
-0.0093287593 0.046227332 0.17565247
0.042790387 0.044919919 0.17495842
0.051805224 0.044990897 0.17505591
-0.020981813 0.054581646 0.17478302
-0.01676169 0.055077109 0.1751025
-0.009095625 0.055541325 0.17369702
0.039634239 0.057491183 0.17294107
0.044807225 0.055033587 0.17488441
0.051574416 0.054879397 0.17502774
-0.020768108 0.064688534 0.17489249
-0.017481295 0.065057293 0.17515199
-0.0088677211 0.064941429 0.17391287
0.0038647056 0.069460243 0.17061016
0.015555866 0.06994921 0.17006487
0.039217804 0.064791344 0.17298512
0.047210976 0.065305442 0.17486799
0.051494446 0.064595275 0.17497371
-0.020595936 0.074892968 0.17468528
-0.01812556 0.075003043 0.17501591
-0.0054548867 0.0757 0.17430522
0.0051644067 0.075522318 0.17462316
0.015225814 0.074502565 0.17461793
0.024563104 0.075446814 0.17459963
0.035218436 0.075867534 0.17476916
0.048759006 0.074994251 0.17498575
0.05136298 0.074705452 0.17507362
-0.020434836 0.082417183 0.17479903
-0.017264258 0.085104488 0.17463923
-0.00081713049 0.089388311 0.17453086
0.0050248471 0.085792422 0.17486274
0.014635945 0.081877142 0.17489021
0.025221191 0.082817316 0.17483045
0.033155791 0.086746104 0.17462903
0.048793186 0.085110813 0.17468685
0.051180884 0.08482188 0.17486036
-0.015113797 0.094973609 0.17467019
-0.002808036 0.095385283 0.17437592
0.001083319 0.091775917 0.17557605
0.037424821 0.094218619 0.17474023
0.047189347 0.095346399 0.17475078
0.050819557 0.092710696 0.17618005
-0.012849354 0.10496056 0.17485113
-0.0048602312 0.10529594 0.17388161
0.038266446 0.1055999 0.17411135
0.045827776 0.10500063 0.17441887
0.050321106 0.10348532 0.17458829
-0.011501851 0.11353205 0.17508605
-0.0063550598 0.11559607 0.17364497
0.00249729 0.1175386 0.17359838
0.011508241 0.11961073 0.17068073
0.028440496 0.11923428 0.17195375
0.036178578 0.11566893 0.17323564
0.044251885 0.11492492 0.17441164
0.05007197 0.11165319 0.17217594
-0.01089115 0.12398722 0.17935248
-0.0041387426 0.124008 0.1746922
0.0044923555 0.12600334 0.17311233
0.015304845 0.12690851 0.17329153
0.025108291 0.12599535 0.17264824
0.035259489 0.12541823 0.17388719
0.041627515 0.12207089 0.17521068
-0.010995901 0.13380611 0.17960885
-0.004679366 0.1340314 0.1794645
0.0065045073 0.13180056 0.17543067
0.013141411 0.1315826 0.17482179
0.025078773 0.13174401 0.17495283
0.032493714 0.1314082 0.1761235
0.041913703 0.13439968 0.17983046
0.0065687895 0.14027613 0.17989294
0.01067251 0.1413216 0.1798799
0.036140382 0.14008707 0.17985398
-0.021850394 -0.010415873 0.18098612
-0.018452611 -0.010881814 0.18103908
0.049286533 -0.010664557 0.18090114
0.051951516 -0.010836107 0.1808213
-0.022687757 -0.0039757756 0.18326356
-0.017459201 -0.0039465032 0.18358566
0.047231887 -0.0039350018 0.18359503
0.052439854 -0.0041821748 0.18354006
-0.023219189 0.0048353267 0.18521042
-0.016233981 0.0045347214 0.18607812
0.045765996 0.0045657824 0.18601564
0.053865366 0.005152558 0.18510798
-0.023956951 0.015051656 0.18480201
-0.014529064 0.015092025 0.18519558
0.044201072 0.014807614 0.18530309
0.054999616 0.01482423 0.18566543
0.060401525 0.015004396 0.18906172
-0.030387953 0.02785062 0.18580654
-0.025154419 0.025008552 0.18540548
-0.014147424 0.025019215 0.18495274
-0.0085843801 0.021294788 0.18422937
0.043474961 0.024987016 0.18531285
0.053845998 0.024909848 0.18541385
-0.030186335 0.033886652 0.18782656
-0.025031999 0.034845091 0.18613218
-0.014375293 0.03511725 0.18447775
-0.0095604239 0.035045221 0.18482523
0.042863209 0.034967452 0.18516505
0.05269628 0.035016779 0.18484303
-0.024487767 0.044714577 0.18677111
-0.01523279 0.045124471 0.18443549
-0.0094351694 0.045241963 0.18455486
0.042313207 0.044832725 0.18517698
0.05201333 0.044909097 0.18497115
-0.023682263 0.054415908 0.18711607
-0.016563822 0.055133373 0.18432158
-0.0078518474 0.055204108 0.18648203
0.005430148 0.058748275 0.18903378
0.016159412 0.059062857 0.18929081
0.024624759 0.05860744 0.18917067
0.035339836 0.056108087 0.18880779
0.044936996 0.054808423 0.18453567
0.051689167 0.054930173 0.18508255
-0.022302086 0.063949831 0.18670897
-0.017788023 0.065224417 0.18454045
-0.0080782212 0.065147378 0.18547806
0.0066973451 0.063589074 0.18836424
0.015733784 0.062524229 0.18860628
0.024368146 0.063925795 0.18805797
0.03691018 0.064417012 0.18729863
0.048268501 0.065405287 0.1844949
0.051432341 0.064787164 0.18502502
-0.020776104 0.074316829 0.18540989
-0.018064866 0.075109571 0.1846232
-0.0050742361 0.076042026 0.18422869
0.0050386996 0.076256156 0.18434219
0.015393617 0.075190201 0.18388985
0.024362639 0.075574577 0.18446451
0.035050049 0.075849108 0.18405353
0.049072757 0.075120434 0.18498345
0.051491525 0.074669026 0.18499599
-0.020421643 0.082254834 0.18506826
-0.017341122 0.085091718 0.18482444
-0.00043991208 0.089041099 0.1872395
0.0050730207 0.086007014 0.18476063
0.014908089 0.082112134 0.18501505
0.025304699 0.083256595 0.18494962
0.033309076 0.087156907 0.18448366
0.048967 0.085164554 0.18502057
0.051234804 0.084813252 0.18511614
-0.015341658 0.095056564 0.18490532
-0.0026192681 0.095484771 0.18468733
0.00092027115 0.091831878 0.1849075
0.036985949 0.094258204 0.18509834
0.047509074 0.095463082 0.18500422
0.050964858 0.09291973 0.18521696
-0.013079255 0.10504113 0.18496473
-0.0040204348 0.10509311 0.18487293
0.037950616 0.10531726 0.18556641
0.046292461 0.1050117 0.1849803
0.050142702 0.10259954 0.18526427
-0.011815449 0.11505768 0.18503724
-0.00572039 0.1147143 0.18456106
0.0019370118 0.11771337 0.18459523
0.029569305 0.11975515 0.1861949
0.03555809 0.11530356 0.18486743
0.045271739 0.11494958 0.18506531
-0.011628204 0.12495896 0.18508248
-0.0073595927 0.12569866 0.18304804
0.005245449 0.12361685 0.18416966
0.015886473 0.12721631 0.18479107
0.024668312 0.12456661 0.18509664
0.036284052 0.12641701 0.18227926
0.04407629 0.1250914 0.1851306
-0.011450144 0.13499524 0.18518142
-0.0061489162 0.13522619 0.18328345
0.0053320164 0.13591816 0.18288305
0.01278912 0.13371864 0.18472251
0.025098231 0.13522431 0.18404309
0.035610653 0.1355956 0.1832118
0.042204387 0.13438854 0.18531854
-0.01119761 0.14373091 0.1862912
-0.0055287424 0.14448716 0.18583615
0.0050888201 0.1441644 0.1859573
0.010903585 0.14253622 0.18656836
0.027181478 0.14382306 0.18617447
0.035480164 0.1444688 0.18600912
0.041448444 0.14359213 0.18649562
-0.011369608 0.15085697 0.18603644
-0.0091794729 0.15037295 0.18743652
-0.021417042 -0.0010981325 0.19028509
-0.019072086 -0.00052803755 0.19097166
0.04834111 -0.00094646495 0.19015557
0.051506184 -0.00039119026 0.19065523
-0.021944309 0.0070186695 0.19153944
-0.017540604 0.0068519525 0.191508
0.047367912 0.0068022655 0.19161522
0.051811516 0.0064460835 0.19175881
-0.021976691 0.015256186 0.19276194
-0.016686516 0.0151358 0.19328697
0.046592008 0.015251226 0.19327384
0.052492149 0.015268695 0.19305061
-0.02221475 0.025080256 0.19371249
-0.01601216 0.025192538 0.19491142
-0.0095269717 0.029396653 0.19278763
0.045975946 0.025134536 0.19493602
0.05363097 0.025232293 0.1937349
-0.022777326 0.035218202 0.19410701
-0.015535682 0.034996148 0.19625174
-0.0096847722 0.03671087 0.19281322
0.045375425 0.035021376 0.19619358
0.054271672 0.035079926 0.19440152
0.060129434 0.038495839 0.19552207
-0.023839148 0.045161784 0.19385967
-0.014797332 0.044755258 0.19720793
-0.0092992978 0.046195164 0.19503936
0.039200146 0.049675751 0.19264548
0.044312127 0.044705976 0.19674453
0.054247171 0.045020081 0.19548883
0.0602074 0.046302881 0.1963653
-0.030299783 0.056492914 0.19185697
-0.024428532 0.055192303 0.19394477
-0.014732271 0.053879701 0.19808786
-0.0053670448 0.055694096 0.19502935
0.0047063706 0.058212347 0.19443342
0.014837406 0.058875449 0.19422783
0.025460692 0.058251269 0.19426854
0.035468567 0.05569407 0.19456895
0.043284141 0.054141026 0.19710404
0.053798977 0.054835163 0.19629736
-0.030102938 0.064133123 0.19376896
-0.024746636 0.065124519 0.19429454
-0.017093956 0.064671546 0.19662116
-0.0047381334 0.064757064 0.19647998
0.0051165479 0.064554654 0.19591147
0.015052304 0.064469881 0.19600691
0.025023965 0.064681284 0.19613016
0.034952182 0.06473393 0.19620195
0.044975668 0.06510368 0.19593123
0.052669514 0.064639717 0.19614984
-0.030011447 0.071484655 0.19577211
-0.024677511 0.074950613 0.19509554
-0.018514223 0.075316541 0.19392329
-0.0040512285 0.073626481 0.19732501
0.0041888258 0.072779343 0.19744548
0.014948543 0.071086429 0.19788243
0.026222974 0.071865819 0.19788767
0.034819994 0.073500201 0.19729874
0.048721112 0.075334653 0.19460119
0.051631138 0.074509174 0.19547261
-0.024416942 0.084800787 0.19625676
-0.017779838 0.085433871 0.19325729
-0.00071661919 0.088885128 0.19620726
0.0051027574 0.085958622 0.19491501
0.014734196 0.082588859 0.19498019
0.025268877 0.083954625 0.19503266
0.032918192 0.087527469 0.19457699
0.048975855 0.085277922 0.1947431
0.051263601 0.084699109 0.19530056
-0.03049227 0.096548297 0.1995331
-0.024630332 0.093932189 0.19752356
-0.01595372 0.095422983 0.1945973
-0.0028936088 0.095139928 0.19507669
0.0012465566 0.091501892 0.19508174
0.036314666 0.094407506 0.19518167
0.047755271 0.095329501 0.1949555
0.051006157 0.09291397 0.19501512
-0.022086501 0.10003735 0.19970888
-0.01290916 0.10513608 0.1950078
-0.004656313 0.1050388 0.19512671
0.037813563 0.10512722 0.19565183
0.046432804 0.10511283 0.1949372
0.050175734 0.10355782 0.19546464
-0.011785912 0.11493662 0.19505382
-0.0053532575 0.11485844 0.19515103
0.0017650872 0.11758454 0.19516416
0.029592281 0.11968675 0.19510707
0.035218842 0.11538943 0.19510353
0.045551699 0.11499637 0.19506563
-0.011658319 0.12494476 0.19501361
-0.0094134212 0.12526506 0.1949629
0.0056012506 0.12267354 0.19528089
0.01567881 0.12702812 0.19511867
0.02460737 0.12433868 0.19533779
0.031698167 0.12146135 0.19504619
0.044865955 0.12530836 0.19504145
0.050121576 0.12079784 0.195189
-0.011499452 0.13495791 0.19510961
-0.0092632752 0.13504861 0.19492616
0.0092514688 0.1377252 0.19529723
0.013178912 0.13366659 0.19506913
0.023153674 0.13528924 0.19510923
0.039634712 0.13688952 0.1947836
0.042252749 0.13436396 0.19497983
-0.011230977 0.14456888 0.19497621
-0.0057828794 0.14638802 0.19513102
0.0053694998 0.14602698 0.19514678
0.010813349 0.14242364 0.19492532
0.026696827 0.14507332 0.19514789
0.035884853 0.14648814 0.195188
0.041310366 0.14453658 0.19493189
0.038426161 0.15030041 0.19539377
-0.016651154 0.029043019 0.20006876
0.050864458 0.027988195 0.20020479
-0.02076013 0.037335437 0.20037876
-0.016259883 0.036952976 0.20067479
0.047810696 0.037269559 0.20064086
0.051039148 0.03652383 0.20075893
-0.020931108 0.046093807 0.2009331
-0.016241042 0.045916852 0.20126708
-0.0091277659 0.04861331 0.20048666
0.046903361 0.045933176 0.20124497
0.051439457 0.046043921 0.20135233
-0.020941516 0.055295058 0.20114139
-0.01547562 0.055469058 0.20186393
-0.0091018341 0.055672128 0.20120823
0.046220947 0.055386133 0.2020835
0.052586544 0.056068748 0.20153552
-0.020965332 0.065246463 0.20166279
-0.015110666 0.065053403 0.20308881
-0.0090839919 0.065625682 0.20212933
0.0079687014 0.069733761 0.20095688
0.014777308 0.069608718 0.20169888
0.022711828 0.069725573 0.20201938
0.039786007 0.066205673 0.20126717
0.045549098 0.065030389 0.20353594
0.053454824 0.065477721 0.20187882
-0.021276304 0.075149983 0.20180143
-0.01527725 0.074854821 0.20452338
-0.0057667196 0.077206858 0.2042141
0.0050281659 0.074085392 0.20518404
0.01498122 0.071623079 0.2050887
0.025202079 0.072724991 0.20516592
0.035122633 0.077286288 0.20486704
0.045304161 0.074863434 0.20534571
0.053187739 0.075068854 0.20316534
-0.021866843 0.08503899 0.20178264
-0.015549282 0.08476872 0.2059916
-0.0059195221 0.082667015 0.2077606
0.0050849984 0.085866794 0.20536205
0.015057272 0.082788847 0.20521303
0.02508799 0.084452666 0.20524469
0.034568723 0.084899038 0.20672701
0.046361409 0.084304102 0.20699216
0.052614007 0.084970154 0.20501782
-0.03259271 0.097274505 0.20536104
-0.025131822 0.095841892 0.20390765
-0.016803972 0.093780816 0.20595865
-0.0032480776 0.095219299 0.20516996
0.0014962674 0.092152685 0.20491001
0.036017627 0.094654299 0.20530988
0.04799404 0.095314421 0.20510937
0.052174259 0.094493628 0.2068553
-0.032696776 0.10270856 0.20597877
-0.025219679 0.1028914 0.20517907
-0.014789119 0.10501155 0.20483354
-0.0048857066 0.10511655 0.20532398
0.037819277 0.10495424 0.20535916
0.046951767 0.10543535 0.20468003
0.05173346 0.10236264 0.20828314
-0.011668306 0.1144512 0.20483947
-0.0057489807 0.11556942 0.20553853
0.0015035596 0.11835457 0.20509495
0.029630344 0.11980885 0.2021448
0.035037003 0.1152943 0.20530881
0.045044247 0.11498947 0.20511445
-0.011517227 0.1248652 0.20245034
-0.0059583592 0.12541188 0.20565894
0.0048075295 0.12408674 0.20568353
0.015625332 0.12711181 0.20533612
0.025000153 0.12427319 0.20522761
0.036011335 0.12620316 0.20657647
0.043184515 0.12465172 0.20364268
-0.011450381 0.13507922 0.20214571
-0.0054741097 0.13517299 0.20282552
0.0052084634 0.13483486 0.20462614
0.013803811 0.13255611 0.20514272
0.025042325 0.13456018 0.20480289
0.035285316 0.13512579 0.20379053
0.042077076 0.13414301 0.20249017
-0.011302001 0.14239572 0.20160583
-0.0052039735 0.14277095 0.20160541
0.0047769966 0.14279835 0.20165853
0.010588837 0.14198172 0.20134981
0.026974007 0.14260364 0.20168965
0.035436258 0.14287692 0.20184839
0.04129624 0.14263611 0.20201974
0.012140021 0.069512479 0.21564981
0.023340648 0.06969934 0.21470442
-0.0012106831 0.079207808 0.2137661
0.00571049 0.075361326 0.21507701
0.015048593 0.07402914 0.21548709
0.024973882 0.074633911 0.21547094
0.032084353 0.078327239 0.2147169
0.040038913 0.079678595 0.2114533
-0.011802735 0.087855183 0.21228395
-0.0047370968 0.085284747 0.2153317
0.0045357523 0.084582403 0.21610045
0.014978759 0.08260721 0.21595961
0.025377192 0.08393573 0.21622363
0.035135664 0.084704138 0.21603228
0.042597931 0.086959757 0.21390101
0.051407933 0.089307338 0.21017468
-0.032676831 0.097416937 0.21479113
-0.02521123 0.096951343 0.21558109
-0.014639004 0.095732979 0.21559079
-0.0052817529 0.094562933 0.21656896
0.0012564289 0.091697842 0.21541275
0.029112935 0.091329694 0.21791238
0.036238782 0.094431341 0.21644886
0.044375755 0.095079884 0.2157705
0.051841386 0.096839711 0.21095213
-0.032888539 0.10295356 0.21496807
-0.025064515 0.1031829 0.21578299
-0.014586693 0.10482764 0.21618685
-0.006277693 0.10514282 0.21657245
0.03798081 0.10516354 0.2161513
0.045759898 0.10511436 0.21614942
0.051518552 0.10380355 0.21250653
-0.011638678 0.11414069 0.21496688
-0.0055505787 0.11551283 0.21597928
0.0012152637 0.11837273 0.21494398
0.029234651 0.11922839 0.2163246
0.036038227 0.11558135 0.21610366
0.044078689 0.11488541 0.21546026
-0.010353553 0.12065633 0.21397239
-0.0043210685 0.12428898 0.21486029
0.0045024478 0.12544224 0.21560143
0.015054299 0.12724201 0.21518379
0.025315337 0.12580916 0.21557508
0.035137556 0.12519605 0.21539837
0.041661173 0.12214447 0.21473628
-0.00057571771 0.13066636 0.21367545
0.0059416122 0.13214494 0.21421811
0.014113143 0.13183133 0.21385829
0.024957422 0.13242553 0.2141829
0.031943284 0.1311323 0.21414517
0.0027545765 0.07915844 0.22005615
0.015081169 0.076830342 0.22012898
0.024660811 0.076885514 0.22061339
0.032307804 0.078063197 0.22011575
-0.0030447245 0.086371459 0.22041318
0.0044987937 0.085499935 0.22037438
0.014226397 0.082883075 0.22036661
0.026121257 0.084010102 0.22016497
0.034174293 0.085372888 0.22034845
0.041254573 0.086755298 0.2202739
-0.031595849 0.098918229 0.22064222
-0.024291353 0.097964048 0.22044435
-0.015769646 0.097946718 0.22072421
-0.0048659137 0.095525898 0.22066949
0.00057156984 0.093127541 0.22056559
0.036032248 0.094135277 0.22055137
0.044380635 0.095610857 0.22047624
-0.03195174 0.10289886 0.22053054
-0.025095204 0.10325546 0.22049271
-0.014731319 0.10398473 0.22051257
-0.0059892354 0.10483437 0.22069119
0.038084436 0.104189 0.22056887
0.044659421 0.10467049 0.22057664
