# .PCD v0.7 - Point Cloud Data file format
VERSION 0.7
FIELDS x y z
SIZE 4 4 4
TYPE F F F
COUNT 1 1 1
WIDTH 1324
HEIGHT 1
VIEWPOINT 0 0 0 1 0 0 0
POINTS 1324
DATA ascii
-0.044496618 0.006185622 0.045324471
-0.035633124 0.0059201247 0.044978976
-0.026452418 0.0077847834 0.046196263
-0.017240267 0.0048013916 0.044778131
0.0083247963 0.00819802 0.043204166
0.01406803 0.0045309411 0.045553636
0.021179985 0.0032594539 0.049133606
-0.060528349 0.012768894 0.049287885
-0.052856728 0.01468012 0.046373136
-0.046654996 0.014267311 0.043585327
-0.033738952 0.014560427 0.043219861
-0.025184695 0.015359311 0.044155974
-0.015358247 0.015874481 0.044108368
-0.0049350015 0.016389659 0.044248905
0.0047560795 0.014389553 0.045313634
0.011117604 0.011497791 0.047606699
-0.051508825 0.020643456 0.046487354
-0.049104229 0.020454746 0.044590656
-0.031907279 0.020618482 0.041679602
-0.027522257 0.020604216 0.045437399
-0.0019182316 0.021025198 0.048780784
0.002238269 0.020686932 0.048708472
0.0020369987 -0.020251652 0.05052983
-0.012822133 -0.011283695 0.051244896
-0.0042628795 -0.014550709 0.051568147
0.0048377756 -0.014757236 0.051433276
0.016679879 -0.012331155 0.052760486
0.022013294 -0.011112067 0.054706495
-0.021640109 -0.0035154528 0.056739118
-0.015939463 -0.0053385515 0.054629494
-0.0052056829 -0.0032505624 0.05487955
0.0051733963 -0.0030408252 0.054748174
0.016059365 -0.0049316557 0.054451499
0.024298795 -0.0056912717 0.056154478
0.031713128 -0.0045483527 0.058797911
-0.070956498 0.0082887979 0.059467684
-0.064758562 0.0083688498 0.0585237
-0.054432154 0.0085748136 0.054328259
-0.044548362 0.0061951214 0.054037675
-0.035886899 0.0059984126 0.054239996
-0.023016661 0.0053805723 0.056120459
-0.018473247 0.0043638493 0.053119913
-0.003984211 0.00047479515 0.056746453
0.004137456 0.0015823728 0.057019874
0.016753571 0.0065178005 0.05249504
0.024409778 0.0051288498 0.055883173
0.031812649 0.0048437458 0.058944754
-0.07085678 0.014169774 0.059375819
-0.063602105 0.013890011 0.056503825
-0.055223387 0.014595983 0.054509569
-0.04621068 0.014756631 0.055914387
-0.034128327 0.014407449 0.056452453
-0.02524811 0.015950637 0.054694138
-0.015112616 0.017149802 0.05474462
-0.0064467108 0.018175045 0.05331739
0.0070030964 0.016791988 0.052993219
0.014120367 0.014389084 0.056491066
0.024541713 0.012957711 0.057858482
0.031336725 0.013490314 0.059155706
-0.065879717 0.020836759 0.059595034
-0.051534794 0.020648895 0.05367754
-0.047189325 0.020544209 0.05718096
-0.032074101 0.020592356 0.057849981
-0.027336506 0.020694071 0.054415207
-0.012201809 0.02288536 0.058551759
-0.0039183055 0.024053236 0.056334171
0.0046364269 0.024401654 0.056103732
0.01406678 0.024996877 0.058625285
0.02177405 0.024515288 0.059275825
-0.011365247 0.034380335 0.059538048
-0.0035739788 0.034568246 0.058826398
0.0050184801 0.034847867 0.058642551
0.013900865 0.034616705 0.058820698
0.02091511 0.03412845 0.05956858
-0.0025663257 0.04096223 0.059203401
0.0055381474 0.041339055 0.059167583
0.012535757 0.041162342 0.059412889
0.024149116 -0.010383217 0.060646519
0.031407133 -0.012465 0.062145896
-0.031074813 -0.0024773562 0.06842351
-0.02428944 -0.0034661652 0.065416209
-0.01537012 -0.0024018101 0.06472715
-0.0052393684 -0.0011000441 0.064494938
0.0050350269 -0.0010950785 0.063610047
0.015419232 -0.00142224 0.064330131
0.025716225 -0.0045183687 0.063957885
0.034897007 -0.0047807149 0.064868376
0.041689556 -0.0035771525 0.067920446
-0.073344775 0.0078076962 0.066089943
-0.065147586 0.0074981959 0.064453483
-0.056382023 0.0078090839 0.065602168
-0.042981625 0.0078098569 0.061960936
-0.033113115 0.0071897442 0.066867046
-0.026180226 0.0047436412 0.064239688
-0.012657687 0.0031232843 0.068000272
-0.0048910887 0.0041838624 0.066643126
0.0050293892 0.0044375346 0.065473162
0.014986381 0.0041136481 0.066272452
0.024632569 0.0045469287 0.066148318
0.035473898 0.0049745855 0.064038649
0.041601982 0.0045133405 0.067970946
-0.073796906 0.015103213 0.065472476
-0.066573061 0.01618574 0.061587483
-0.054090783 0.015494456 0.06405437
-0.045021042 0.014813156 0.064880028
-0.035479162 0.015573961 0.064709894
-0.025613425 0.016816489 0.064473853
-0.015472 0.01758798 0.063384205
-0.0045445352 0.015251198 0.067393191
0.0050276862 0.014987696 0.066228405
0.015539603 0.015508992 0.065371625
0.02531082 0.016210692 0.062935658
0.035112735 0.015213425 0.064898573
0.041373778 0.014065136 0.068038642
-0.072404757 0.022445953 0.066966727
-0.065012351 0.022886256 0.065252595
-0.057459448 0.022496475 0.066572338
-0.044041831 0.020711549 0.06183292
-0.03631809 0.02073678 0.061591547
-0.022318788 0.024573576 0.067850545
-0.015204133 0.02511047 0.064238958
-0.0057377582 0.025600195 0.064980045
0.0052633281 0.025061168 0.066184089
0.01573343 0.025194446 0.064059794
0.024983276 0.025002658 0.063935123
0.032806262 0.024817554 0.067548163
0.040025711 0.020292103 0.069906175
-0.022030987 0.034842666 0.068229817
-0.014990828 0.03556307 0.064882472
-0.0051410645 0.035941973 0.063905895
0.0049566468 0.036468573 0.06504117
0.015247646 0.035912558 0.063857272
0.025080174 0.035393611 0.064525917
0.032337412 0.034899727 0.06801828
-0.021650231 0.040808596 0.068697423
-0.01406105 0.041397613 0.067030326
-0.0048663276 0.041494258 0.065223552
0.0050311722 0.041493539 0.064503349
0.014935654 0.041451979 0.065105915
0.024191011 0.041416869 0.066861108
0.031552609 0.041291334 0.06895674
-0.033482023 -0.0037443063 0.075960793
-0.025503842 -0.0029443861 0.074628741
-0.016480399 -0.0012273375 0.072914861
-0.0085721239 -0.0010670749 0.070676148
0.018279541 -0.00067246391 0.070505127
0.026720794 -0.0010296131 0.072775155
0.035650443 -0.0027514505 0.074409641
0.044607073 -0.0041571148 0.075151742
0.052661665 -0.0031601312 0.078632161
-0.080124661 0.0093117356 0.072571695
-0.073725186 0.0078585139 0.074387804
-0.065221645 0.0073650912 0.07506007
-0.056001075 0.0076530068 0.074823357
-0.041988768 0.0091084559 0.076487266
-0.035216194 0.0053734006 0.074936099
-0.023054892 0.0039381036 0.076375917
-0.015898457 0.0044252258 0.074138552
-0.0078656217 0.0045175455 0.070942342
0.0022389591 0.0043936251 0.070306748
0.01827932 0.0052564405 0.070975564
0.026615908 0.0046594241 0.072930247
0.032633476 0.0040277657 0.076866329
0.045344301 0.0049809311 0.074556082
0.052492473 0.0047133062 0.078640744
-0.080212198 0.015213192 0.071796715
-0.074382082 0.015067373 0.074737027
-0.066570625 0.017198976 0.079367854
-0.053006582 0.016105527 0.075562052
-0.045029931 0.014460715 0.074989557
-0.035784781 0.015990492 0.074592993
-0.025177492 0.016895304 0.074861027
-0.015547204 0.015189941 0.074255385
-0.0071794558 0.014657599 0.071255744
0.0025713667 0.017047241 0.070011258
0.017758837 0.015743202 0.070901096
0.026159385 0.01532735 0.073124118
0.034603473 0.01616919 0.075340673
0.04458303 0.015119169 0.075143628
0.051833849 0.014128929 0.078713469
-0.072832607 0.022494456 0.074524388
-0.065180048 0.023208827 0.075515121
-0.057065349 0.022721613 0.074507795
-0.031357437 0.024363361 0.077687606
-0.026193479 0.025007263 0.074467205
-0.015229209 0.025029331 0.074361131
-0.0067933365 0.025151148 0.071404897
0.0047104955 0.026485145 0.07024654
0.017666439 0.024772145 0.071389847
0.026046176 0.025138108 0.073650375
0.036157973 0.025264122 0.074293539
0.041737121 0.024826758 0.077434056
-0.031191967 0.034698628 0.078104712
-0.025609538 0.035581358 0.074762672
-0.015095985 0.036111213 0.075114079
-0.0063097379 0.036166303 0.072072238
0.0050570653 0.03617302 0.071001351
0.016113838 0.036387656 0.071770333
0.025349537 0.036053367 0.074692093
0.035965648 0.035626709 0.074473135
0.041599471 0.034774441 0.077883355
-0.030629771 0.04078446 0.079184011
-0.023773251 0.041431956 0.075871184
-0.015929066 0.04149621 0.073842339
-0.0065020816 0.041224957 0.071242921
0.0040891906 0.040975843 0.070705891
0.016902708 0.041427784 0.071196981
0.026078239 0.041500248 0.073390849
0.033997707 0.041478451 0.075725205
0.04066243 0.041289724 0.078716576
0.050185397 -0.010244548 0.083475128
-0.04121507 -0.0033333974 0.086750589
-0.03558157 -0.0046012672 0.084991179
-0.026881428 -0.0017387645 0.084246233
0.037125427 -0.0010249143 0.084089376
0.0453979 -0.0041119889 0.084804714
0.055200092 -0.0042658928 0.08422067
0.064881295 -0.0041041803 0.086340703
0.072780497 -0.004072112 0.088499635
-0.071557164 0.0082799159 0.081411339
-0.065329015 0.0079394551 0.082388893
-0.057575434 0.0083231833 0.082455225
-0.041543663 0.0055337232 0.086358659
-0.038334545 0.004377801 0.084171295
-0.024841407 0.0044035492 0.084823243
-0.019717671 0.0050148568 0.080498829
0.0297921 0.0055456012 0.080466628
0.036657445 0.0045635812 0.084661692
0.044823136 0.0046084137 0.085392967
0.055809435 0.0051107896 0.082495883
0.065136634 0.0049454886 0.085979454
0.072333783 0.0048955567 0.088495702
-0.07128799 0.014836662 0.081683174
-0.064816311 0.01476752 0.084534347
-0.055094838 0.014586477 0.085688457
-0.045376562 0.014521589 0.084907584
-0.036840342 0.017448829 0.084237814
-0.024331106 0.015019947 0.085063688
-0.019283772 0.016179426 0.080665313
0.029551703 0.014883146 0.08076112
0.036136143 0.014834147 0.084804885
0.047111221 0.017256152 0.084577657
0.055146419 0.015376041 0.084310845
0.064634487 0.014664052 0.086862862
0.072024338 0.013895799 0.088648237
-0.071460441 0.021901671 0.081001744
-0.065292761 0.022096906 0.081361592
-0.058080077 0.021704791 0.081530258
-0.033572976 0.025066387 0.085053705
-0.024236465 0.024987884 0.084934078
-0.019312469 0.025101384 0.081233904
0.028496891 0.02485387 0.080165505
0.035626546 0.025003662 0.084880188
0.044507269 0.025159337 0.084773906
0.052729353 0.020963013 0.088222489
-0.032903448 0.035408031 0.085213393
-0.024176769 0.036212884 0.084982574
-0.018240865 0.036191199 0.0826215
0.028371235 0.03566052 0.081810579
0.034636989 0.036279898 0.084963366
0.043661904 0.035399947 0.085055992
-0.031714749 0.041355781 0.086348496
-0.025715858 0.041464794 0.084593348
-0.018776171 0.041087545 0.081293203
0.029357318 0.04143092 0.08161521
0.036323525 0.041517012 0.084347717
0.041960265 0.041477196 0.086054549
-0.035989404 -0.010247409 0.09508834
0.04895176 -0.010411918 0.096411407
0.07898587 -0.010109186 0.098273657
0.083646707 -0.010516565 0.098427393
-0.041373942 -0.0039933845 0.094822936
-0.036134005 -0.0046024797 0.094989628
-0.028361417 -0.0012122797 0.094770037
0.038702358 -0.00096250954 0.094350643
0.045604128 -0.0032089783 0.094898276
0.053169481 -0.0043332283 0.094493531
0.066014491 -0.0046320246 0.092853263
0.075554229 -0.0055404627 0.094107866
0.082861483 -0.0055895117 0.097192191
0.090376496 -0.008867085 0.098973013
-0.060948774 0.0091449618 0.092389584
-0.05427837 0.0095889717 0.096016012
-0.041782409 0.0053566378 0.0945815
-0.036859691 0.003872223 0.095812082
-0.027663769 0.0046877991 0.094786808
0.038664207 0.0049530226 0.094379894
0.042746056 0.0050577065 0.095892273
0.0554385 0.0062682433 0.095848277
0.064475715 0.0058465907 0.096540935
0.075772837 0.005100599 0.093466289
0.082645759 0.0049995231 0.09745232
-0.061107021 0.01359668 0.09152814
-0.054544955 0.014090242 0.094490103
-0.045569632 0.014664748 0.094950162
-0.037358176 0.018118277 0.095128112
-0.027426114 0.015295807 0.094936244
0.038491502 0.014905822 0.094234876
0.045553382 0.015205758 0.095439985
0.056182738 0.012648461 0.093241915
0.065948106 0.015357016 0.09289787
0.075142696 0.014842396 0.094673172
0.082333051 0.013665005 0.097806893
-0.049269557 0.020062 0.096001074
-0.035959072 0.025068084 0.095178463
-0.027206942 0.025063138 0.09472502
0.038333617 0.025069984 0.094443873
0.046322823 0.025186585 0.095023736
0.050495528 0.023869745 0.096131653
0.06803152 0.020641178 0.092894569
0.073960431 0.020889506 0.096145883
-0.03511133 0.035564285 0.095098577
-0.025987646 0.035876185 0.094997339
0.037116084 0.035964672 0.094964109
0.045907572 0.03550392 0.0950616
-0.032567851 0.041431338 0.095385365
-0.027388399 0.041406374 0.094594099
0.037926689 0.041365895 0.094507463
0.043015283 0.041452918 0.095116802
0.11878849 -0.031216402 0.10865702
0.12561703 -0.032703802 0.10865484
0.1343292 -0.032560848 0.10877419
0.14093713 -0.031104868 0.10879359
0.10710151 -0.023409571 0.10882261
0.11699559 -0.024393909 0.10859305
0.12499783 -0.025010014 0.10853563
0.13509835 -0.025021227 0.10860557
0.14238223 -0.024481691 0.10883052
0.079206347 -0.010155633 0.10206401
0.08685948 -0.011129191 0.10491569
0.094881348 -0.012587999 0.10736313
0.10455231 -0.01501419 0.10879437
0.11602253 -0.015556196 0.10883247
0.12500653 -0.015054272 0.10859689
0.13516016 -0.015014918 0.10862006
0.14231224 -0.015748434 0.10881176
-0.041067883 -0.003942647 0.10413998
-0.036272395 -0.0043783402 0.10515984
-0.028309096 -0.001302155 0.10553794
0.038991034 -0.000950708 0.10597081
0.045640081 -0.0032553687 0.10498989
0.052211292 -0.0045044729 0.10475446
0.077583522 -0.0054456661 0.10268676
0.085654229 -0.0059658284 0.10365453
0.094508819 -0.005090523 0.10703013
0.10440283 -0.0056649223 0.10900488
0.11479626 -0.0056273402 0.10917221
0.12532865 -0.0072652488 0.10887923
0.13408868 -0.0078253699 0.10883754
0.14096664 -0.0086651845 0.10889956
-0.050980806 0.0096226707 0.10417004
-0.041778125 0.0058578257 0.10458992
-0.037517779 0.0040551191 0.10533083
-0.027698604 0.004628832 0.10523626
0.038521834 0.0049623856 0.10559192
0.04215033 0.0047177826 0.10470735
0.055654701 0.0062393537 0.10508949
0.065060258 0.0062273629 0.10512193
0.074396506 0.0056912662 0.10561513
0.086148664 0.005326468 0.10373447
0.094263099 0.0049043382 0.10749672
0.10385925 0.0042898883 0.10910965
0.11420117 0.0034506011 0.1094069
0.12025014 0.0021800697 0.10969183
-0.051702831 0.01379125 0.10380176
-0.045890868 0.014606571 0.10520248
-0.037330303 0.017513124 0.10531438
-0.027608009 0.015010355 0.10506184
0.038327508 0.015329012 0.10554198
0.045834277 0.015067603 0.1047556
0.054127079 0.011446621 0.10531395
0.064976335 0.01056441 0.10487469
0.076700829 0.013116702 0.1032256
0.085214853 0.013888991 0.10459898
0.093112245 0.0122157 0.10792299
0.10183523 0.011129019 0.10912966
0.1141077 0.013510495 0.10939702
-0.040632367 0.020717457 0.10594884
-0.035833299 0.025211254 0.10508259
-0.027217261 0.024994044 0.10521521
0.03823103 0.025069082 0.10568877
0.046729445 0.025109947 0.10452427
0.050405502 0.02461708 0.10713602
-0.035079084 0.035562355 0.10510004
-0.02598015 0.035794899 0.10513897
0.037109021 0.035811763 0.10522864
0.046362955 0.03544509 0.10503623
0.050354403 0.032545108 0.10619498
-0.032477036 0.041424941 0.10495289
-0.027422562 0.041447494 0.10528793
0.037949312 0.041475106 0.10543965
0.043097917 0.041362494 0.10499304
0.099233799 -0.030292476 0.11764574
0.10557882 -0.030551426 0.11610781
0.1171954 -0.031225713 0.11529015
0.12511843 -0.033818055 0.11442138
0.13494551 -0.033303246 0.11455162
0.1411626 -0.031069556 0.11487219
0.098930843 -0.025571091 0.11729882
0.10516915 -0.026126785 0.11492045
0.11418168 -0.026699888 0.11378427
0.12394282 -0.026329264 0.11124961
0.13725409 -0.027151756 0.11235584
0.14276907 -0.024852416 0.11464837
-0.03246982 -0.011170566 0.11912312
0.088261724 -0.011778206 0.11526413
0.094986133 -0.014067776 0.11474891
0.104569 -0.015914679 0.11210024
0.11411951 -0.014729624 0.11086243
0.12504691 -0.014297342 0.11048423
0.1374899 -0.01255235 0.11317316
0.14263926 -0.015406912 0.11461677
-0.040671509 -0.0034946946 0.11267545
-0.035360519 -0.0047692899 0.1150062
-0.02670477 -0.001723713 0.11578407
-0.01968506 -0.00015461445 0.1199873
0.037498429 -0.0011017644 0.11580434
0.045680784 -0.0044218334 0.11502195
0.05166845 -0.0047155172 0.11447067
0.078786321 -0.00081500557 0.11479597
0.085779384 -0.0040914873 0.11534794
0.095333949 -0.005743634 0.11200645
0.10540058 -0.0047355476 0.11109991
0.11541186 -0.0044988925 0.11171749
0.12482151 -0.0042561381 0.11410958
0.13479063 -0.0073184627 0.11456365
0.14083472 -0.009294075 0.11395244
-0.050451115 0.0095195472 0.11608414
-0.04165234 0.006888492 0.11314351
-0.037682801 0.0048137112 0.11526325
-0.025231671 0.0044213277 0.11518525
-0.019509993 0.0056674033 0.1194849
0.029853411 0.0039640069 0.11996479
0.036503911 0.0045979288 0.11520512
0.045141082 0.0031765539 0.11423191
0.055429932 0.0060851625 0.11497366
0.065091521 0.0063148043 0.11487437
0.074984133 0.0057122274 0.11489512
0.084148191 0.0071322722 0.11505267
0.095718898 0.0070791435 0.11331134
0.10519768 0.0053290343 0.1117985
0.11518749 0.004758527 0.11393628
0.12132453 0.00087880029 0.11515294
-0.050784387 0.013630147 0.11421494
-0.045850664 0.014305064 0.11500296
-0.036958884 0.016916841 0.11540624
-0.024660582 0.015009028 0.11509905
-0.019240027 0.014255984 0.11874648
0.029980958 0.013683021 0.11996488
0.035909932 0.014950586 0.11520039
0.048652358 0.01540928 0.11458316
0.052692223 0.013297369 0.11547023
0.064937778 0.010569762 0.1145243
0.075000428 0.010565129 0.11486077
0.086150065 0.011760714 0.11379927
0.096193351 0.012596175 0.11420096
0.10497823 0.014993673 0.11588062
0.11412108 0.015110155 0.11528615
-0.033562694 0.025125567 0.11503725
-0.02441776 0.025114922 0.11512731
-0.019120846 0.025540289 0.11861996
0.029583834 0.027251028 0.11822391
0.035395537 0.025161369 0.11512919
0.048252679 0.026031183 0.11530573
0.050954916 0.024683984 0.11574136
0.11440471 0.020498926 0.11677089
-0.03287854 0.035378501 0.11466874
-0.024198385 0.03609699 0.11517226
-0.01835807 0.036133602 0.11787321
0.028604161 0.036555272 0.1180037
0.034556031 0.036100835 0.11505038
0.044846602 0.035136107 0.11502398
0.050483897 0.031070493 0.11289828
-0.031771041 0.041356776 0.11355329
-0.025898442 0.041426364 0.11545491
-0.019100629 0.040948678 0.11850805
0.029219095 0.041454758 0.11901589
0.036226977 0.041456621 0.11559659
0.041952226 0.041312404 0.11405481
0.099656761 -0.03029288 0.120997
0.10607789 -0.030547023 0.12179763
0.11780065 -0.031394962 0.124833
0.12517284 -0.033441734 0.12526159
0.13467301 -0.03305332 0.1250591
0.14091167 -0.031148713 0.12437849
0.09909194 -0.024228571 0.12120685
0.10532484 -0.025505221 0.12284037
0.11525905 -0.025532905 0.1256374
0.12491642 -0.025181955 0.12772503
0.13545676 -0.025490908 0.12746757
0.14250277 -0.024624061 0.12495194
-0.03175202 -0.01063865 0.12787578
-0.028326752 -0.010716963 0.12860149
0.04664544 -0.011058225 0.12756914
0.052025866 -0.010653406 0.1282258
0.066824868 -0.010976839 0.12845576
0.076204948 -0.01155924 0.12740599
0.085557625 -0.012469402 0.12588578
0.094999641 -0.014383036 0.12491142
0.10467269 -0.015460168 0.12486693
0.11522472 -0.015059967 0.12663031
0.12508172 -0.014993771 0.12774827
0.13564944 -0.014516817 0.12724084
0.14235517 -0.015607626 0.12493293
-0.033757314 -0.0056607276 0.12468237
-0.025699107 -0.0040272335 0.12525222
-0.016532317 -0.0012191295 0.1270842
-0.0091021899 -0.0009451285 0.12969378
0.017822981 -0.00094114244 0.12955555
0.026908673 -0.0011529517 0.12745737
0.034249462 -0.0011982012 0.12465364
0.045910019 -0.0060324878 0.12453981
0.051408898 -0.0057332586 0.12476369
0.066933423 -0.0054245978 0.12822826
0.075004965 -0.0059655174 0.12547955
0.085359983 -0.0050210417 0.12617378
0.095059343 -0.0049386802 0.12618433
0.10505205 -0.0049555656 0.12474062
0.11526709 -0.0048336107 0.12429842
0.12496428 -0.0056422031 0.12494521
0.13451186 -0.0075384704 0.12500204
0.14086506 -0.0093686199 0.12465668
-0.050552532 0.0096512735 0.12395826
-0.046572801 0.0095430305 0.12574613
-0.035485074 0.0052670375 0.12489624
-0.022064798 0.0040346845 0.12263338
-0.015974293 0.0048723104 0.12642111
-0.0087156612 0.0053472053 0.12929143
0.00068327785 0.0077715218 0.12982064
0.016566178 0.004658516 0.1296782
0.02622338 0.0048501459 0.1271404
0.033297978 0.0037123887 0.1238238
0.044757921 0.0017316198 0.12617758
0.055727489 0.005980765 0.12465391
0.064935125 0.0059048138 0.1245368
0.074456558 0.0055757584 0.12348786
0.085384183 0.0056655221 0.12699088
0.094910912 0.0054066195 0.12541327
0.10496737 0.0051091067 0.1239583
0.11452823 0.0045994814 0.12297972
0.12103155 0.00081802509 0.12227321
-0.051006462 0.013568487 0.12612018
-0.045767352 0.014400344 0.12501445
-0.035812166 0.016041953 0.12517925
-0.024588009 0.016671253 0.12450213
-0.015744645 0.015000568 0.12597296
-0.0081952773 0.015385075 0.12901521
0.016793897 0.015067686 0.12939143
0.026070904 0.015144458 0.12663856
0.03202717 0.014690684 0.12246129
0.049524624 0.015871733 0.12345412
0.052691951 0.014316601 0.12519538
0.066334896 0.01225705 0.12623164
0.075714462 0.014685088 0.12695195
0.084993564 0.013742298 0.12580065
0.094558313 0.012335342 0.12358166
0.10496011 0.013736079 0.12217166
0.11367652 0.013884049 0.1223209
-0.043342531 0.020393372 0.12116797
-0.03146841 0.024538141 0.12199129
-0.026030218 0.025144102 0.12485238
-0.015269375 0.02497278 0.12578259
-0.0075000534 0.025419084 0.12888108
0.017678211 0.024908559 0.12913918
0.025676332 0.02503697 0.12641901
0.03279148 0.025266895 0.12300213
0.046339709 0.026605342 0.12547724
0.051526863 0.023395738 0.12522425
0.11563858 0.021022916 0.12118351
-0.031218043 0.03473416 0.12181908
-0.025769666 0.03572179 0.12522125
-0.015092324 0.036014903 0.12482395
-0.0061854408 0.035958674 0.1282313
0.0051447065 0.036213346 0.12895647
0.016682465 0.036275867 0.12847561
0.025258139 0.035972681 0.12547524
0.035995033 0.036163591 0.12560944
0.042463757 0.033614997 0.12342329
-0.030711081 0.040729292 0.12126192
-0.023735819 0.041481011 0.12412007
-0.016046455 0.041491728 0.12630327
-0.0068921223 0.041326851 0.12888117
0.0057397271 0.040872473 0.12969844
0.01679989 0.041245952 0.12885855
0.026103074 0.041524984 0.12648384
0.034017522 0.041436858 0.12423407
0.040777497 0.041258402 0.12140005
0.12603208 -0.033509016 0.13048959
0.1381117 -0.032141834 0.13016364
0.045193344 -0.020244606 0.13907471
0.11976877 -0.020077705 0.13023502
0.12518579 -0.022559535 0.13011512
0.13369334 -0.022672772 0.13020229
0.1413016 -0.026050832 0.13011672
-0.031294838 -0.011654764 0.13508411
-0.026568569 -0.012658541 0.13619359
-0.019534493 -0.01163826 0.13901047
0.039728642 -0.011738181 0.13920698
0.046380412 -0.013768466 0.13553917
0.055200566 -0.013027439 0.13683124
0.064976074 -0.012368658 0.13553788
0.074637756 -0.011788717 0.13305344
0.08341375 -0.011720613 0.13153332
0.11897013 -0.019265741 0.13014457
0.12639964 -0.017546898 0.13013761
0.13577214 -0.015113617 0.1303041
0.14421755 -0.016667269 0.13141266
-0.032097325 -0.0053582233 0.13421436
-0.02492159 -0.0057059154 0.13503212
-0.014921938 -0.0014490006 0.13398702
-0.0051868721 -0.0013291572 0.13533027
0.0049612946 -0.0016654029 0.13678998
0.015155597 -0.0015008404 0.13608715
0.024527878 -0.0011408164 0.13351716
0.032184411 -0.0012932901 0.13132249
0.045162719 -0.0055516288 0.13421014
0.05472672 -0.005724174 0.13451268
0.065014943 -0.0063297632 0.1342568
0.075735971 -0.0051435335 0.13606909
0.082906581 -0.0060260738 0.1321812
0.12835047 -0.0081292987 0.13005003
0.13831916 -0.0088168681 0.13001063
-0.052199621 0.0083456319 0.13858575
-0.046668965 0.0085651577 0.13849491
-0.032932356 0.0052319076 0.13460851
-0.026769618 0.0025082969 0.13737895
-0.014035781 0.002710389 0.13401033
-0.0053185006 0.0041936473 0.1334381
0.0050162529 0.0047155567 0.13461006
0.015145451 0.004448595 0.13352935
0.023918934 0.0031886392 0.13396053
0.035098262 0.0030506405 0.13547598
0.042891979 0.0027186153 0.13509786
0.05577885 0.0047543468 0.13278368
0.066313446 0.0057899766 0.13636224
0.074745491 0.004985264 0.13405624
0.082614563 0.0047609764 0.13127641
-0.05252254 0.014043878 0.13579199
-0.045408428 0.014741248 0.13453032
-0.035629164 0.015053894 0.13516
-0.026859701 0.018014284 0.13535495
-0.011923202 0.014746172 0.13088387
-0.0048512011 0.014664234 0.13251357
0.0048031444 0.014971228 0.13379478
0.014809553 0.014976501 0.13267888
0.021451201 0.014686324 0.13102862
0.055255953 0.015921356 0.13546681
0.065847658 0.015678216 0.13583454
0.074223861 0.014711651 0.1332133
0.082027115 0.013195707 0.13111609
-0.051112991 0.020680752 0.13959199
-0.04852663 0.021048674 0.13973032
-0.03688848 0.021033406 0.1350438
-0.023409076 0.025495168 0.13527395
-0.015714839 0.027567063 0.1365886
-0.0047090491 0.024781892 0.13224357
0.0047986112 0.025070824 0.13331454
0.014699946 0.025016297 0.13220325
0.025095267 0.026943155 0.13551614
0.035978835 0.027286697 0.13621065
0.044861592 0.024565719 0.1349269
0.052106012 0.022103803 0.1352625
-0.022197433 0.033867095 0.133017
-0.015245199 0.035594758 0.1358199
-0.005121171 0.036747277 0.13530967
0.0049049994 0.036451358 0.13399121
0.015267482 0.036420275 0.13499627
0.025509415 0.035617933 0.13607787
0.033484485 0.033945665 0.13312787
0.040685356 0.030840583 0.13110875
-0.021337744 0.041073404 0.13124439
-0.014039301 0.041446716 0.13305342
-0.005002067 0.041461103 0.13488878
0.0050830073 0.041437931 0.13563499
0.015095248 0.041457582 0.13493207
0.024324354 0.041345712 0.13323787
0.031774931 0.041049376 0.13137238
0.046079151 -0.031034622 0.14902213
-0.023661766 -0.02230111 0.14769775
-0.01837896 -0.022614148 0.14822154
0.00597096 -0.020187944 0.14952181
0.046612479 -0.023610614 0.1467116
0.052729763 -0.022197364 0.14753903
-0.030795183 -0.012551853 0.14242503
-0.025587289 -0.015516844 0.14468335
-0.018058142 -0.014973397 0.14636903
-0.0010704051 -0.013076941 0.14790083
0.0052695544 -0.014560511 0.14872822
0.011842524 -0.012795117 0.14898771
0.039166629 -0.014925182 0.14123616
0.045574896 -0.016360078 0.14381741
0.055472098 -0.015957633 0.14466006
0.06208152 -0.013140317 0.14190628
-0.030927004 -0.0045770374 0.14287893
-0.02689424 -0.0052788579 0.14506406
-0.016858725 -0.0048736958 0.14558516
-0.0022850682 -0.0046146857 0.14456396
0.0050151232 -0.0060685514 0.14436813
0.01364816 -0.0051004468 0.14466125
0.023204587 -0.00099520606 0.14701758
0.035585191 -0.00054750888 0.14909001
0.043909602 -0.00517102 0.14481112
0.057460848 -0.0066847177 0.14694756
0.065801859 -0.0042967363 0.14543769
0.072389305 -0.004458765 0.14281604
-0.060488611 0.008471759 0.14784265
-0.05501483 0.0076885042 0.14511672
-0.045304976 0.0074790283 0.14498952
-0.033941515 0.0066706967 0.1444746
-0.028066253 0.0045637954 0.14574699
-0.013947617 0.0024832136 0.14493141
-0.0064464575 0.0019638275 0.14546618
0.017798148 0.0017305684 0.14586295
0.025297668 0.00303575 0.1453335
0.034955621 0.003528808 0.14516295
0.042410281 0.0025968906 0.14507635
0.058429424 0.0054620043 0.14768687
0.063390508 0.0052023702 0.14364968
-0.060569361 0.014600415 0.14795184
-0.056404438 0.015190826 0.14430006
-0.043861095 0.017112928 0.142634
-0.034759887 0.015473227 0.14479415
-0.026999539 0.017200347 0.14543281
-0.011484144 0.018696606 0.14973626
-0.004285851 0.017789444 0.14937797
0.0051127402 0.017788537 0.1494114
0.014749836 0.017994013 0.14938767
0.024779599 0.01765758 0.14945321
0.034670737 0.017776117 0.14941204
0.041125417 0.018085761 0.14960665
0.057202596 0.016562179 0.14593211
0.062716566 0.01489639 0.14310311
-0.060308419 0.021971518 0.1486953
-0.054498021 0.022657277 0.14607506
-0.045682162 0.022883603 0.14589098
-0.039110679 0.02213411 0.14819811
-0.022815472 0.023375055 0.14454003
-0.01491859 0.025415439 0.14537089
-0.0051101083 0.025905989 0.14651835
0.0049883281 0.025910908 0.14715672
0.015154405 0.025741944 0.14676423
0.025045201 0.025313124 0.14553252
0.034844633 0.023681747 0.14516307
0.044896331 0.022423988 0.14514685
0.052631158 0.021789487 0.14505509
-0.01286904 0.032014858 0.14123739
-0.0042954935 0.033923633 0.14200111
0.0050479113 0.034419343 0.142534
0.014468803 0.033901151 0.14211726
0.023204934 0.032488707 0.14147745
0.030891567 0.030323815 0.1406503
-0.003244051 0.041122418 0.14073667
0.0051722806 0.041157458 0.14107762
0.013760961 0.041279394 0.14066893
0.047187705 -0.061956599 0.15953031
0.050915718 -0.061269313 0.1595912
-0.020782769 -0.052025124 0.15913671
-0.01746553 -0.051890757 0.1596012
-0.0021211705 -0.0503425 0.15986381
0.0050873607 -0.05062478 0.15990794
0.01516806 -0.050754741 0.1598874
0.02704671 -0.050793003 0.15980735
0.03682863 -0.051655781 0.15943128
0.046359807 -0.053765975 0.15889989
0.051083248 -0.053321052 0.1591685
-0.021334186 -0.043188337 0.1589752
-0.016127395 -0.043867394 0.15887274
-0.0046757301 -0.043423388 0.15925992
0.0055471738 -0.043360397 0.15924519
0.014525848 -0.043455791 0.15920764
0.024705255 -0.043938287 0.15932462
0.035290126 -0.043077189 0.15910478
0.046357509 -0.043930974 0.15814726
0.05116114 -0.044296294 0.15818703
-0.022206787 -0.033886783 0.15716445
-0.016156867 -0.034501135 0.15731509
-0.0049404874 -0.034699824 0.15830141
0.0051220874 -0.034567442 0.15830569
0.015081313 -0.034725256 0.15834907
0.025159413 -0.034324083 0.15835743
0.034758005 -0.03433951 0.15853956
0.046372093 -0.034671422 0.15579551
0.051232036 -0.034813214 0.15645246
-0.023456309 -0.025086762 0.15466619
-0.015625304 -0.025388803 0.15493663
-0.0049992693 -0.02492734 0.15778731
0.004976531 -0.024359882 0.15714109
0.014936979 -0.024812531 0.15768267
0.025406949 -0.024584111 0.15811107
0.034790739 -0.024826797 0.15806814
0.046183702 -0.025891142 0.15460685
0.051788919 -0.024425438 0.15397649
-0.024677681 -0.015016983 0.15502228
-0.014173382 -0.01532856 0.15427002
-0.0046845563 -0.01525962 0.15609623
0.0048557338 -0.016426593 0.15295005
0.014850653 -0.015145894 0.15574133
0.025130179 -0.014901212 0.15727894
0.034891937 -0.014886385 0.15712754
0.044278238 -0.015312904 0.15568428
0.052103475 -0.014976916 0.15416536
0.060395226 -0.010239363 0.15007667
-0.030068651 -0.0042292774 0.15011013
-0.025327921 -0.0050171623 0.1550056
-0.012963838 -0.004867204 0.15500773
-0.0056721433 -0.0050020316 0.15436816
0.0040101865 -0.0090804845 0.1507445
0.01674341 -0.0051075295 0.15542664
0.025082225 -0.0048461147 0.15559465
0.034820981 -0.0049048536 0.15538691
0.042549651 -0.0051002372 0.15569288
0.055888947 -0.0048610973 0.15536514
0.063453518 -0.0039438484 0.15434444
0.070214018 -0.0032318532 0.15050229
-0.061207727 0.008190467 0.15488407
-0.055772949 0.0075850431 0.15500739
-0.04489458 0.0074418746 0.15511136
-0.037730828 0.0080715697 0.15414248
-0.026093096 0.0048395488 0.15517512
-0.013590535 0.0051065879 0.15613115
-0.0052099517 0.0059782523 0.15523742
0.0054704086 0.00882624 0.15711194
0.015252375 0.0055618226 0.15507433
0.024976822 0.0045079137 0.15353721
0.034844398 0.004521423 0.15347914
0.043020569 0.0050768321 0.15608037
0.055478752 0.0052925763 0.15477143
0.060579382 0.001904306 0.15086937
-0.061185233 0.014680064 0.15485664
-0.058342181 0.015323132 0.15556197
-0.041740306 0.018402187 0.15718424
-0.034469083 0.015603471 0.15538004
-0.026770782 0.016278131 0.15532377
-0.01456982 0.01539812 0.15495226
-0.0049811318 0.014875018 0.15225145
0.0049606953 0.013943943 0.15322131
0.014992037 0.014688788 0.1521091
0.024857387 0.014647026 0.15202358
0.034867901 0.014733104 0.15192968
0.044306993 0.015665099 0.15507035
0.054639425 0.01561032 0.15477249
0.060431387 0.013708949 0.15009263
-0.060670957 0.02176529 0.15360184
-0.055209603 0.02285092 0.15509015
-0.04509408 0.023040166 0.15523084
-0.038883261 0.022064084 0.15406039
-0.022781622 0.021524481 0.15472513
-0.016302587 0.021772444 0.15396011
-0.0047804806 0.022912214 0.15122496
0.0049758507 0.023000684 0.15126097
0.014841451 0.022513028 0.15141828
0.024760459 0.022252368 0.15118319
0.034776568 0.021640351 0.15118128
0.046430193 0.021563448 0.15363236
0.052589551 0.021432675 0.1547098
0.007626744 -0.13121632 0.16924305
0.012361583 -0.13102753 0.16910322
0.024997603 -0.13121957 0.16916391
0.030904464 -0.13083325 0.16872324
-0.0030605509 -0.12256496 0.16863494
0.0051584831 -0.12454869 0.16849953
0.014786417 -0.12524042 0.16854711
0.024975318 -0.12517579 0.16850311
0.034035757 -0.12361832 0.16872206
0.04102942 -0.12153349 0.16916728
-0.011264695 -0.11272468 0.16866191
-0.0050661494 -0.11459825 0.16822487
0.0028300232 -0.1163087 0.16829494
0.01333569 -0.11920637 0.16895962
0.028087696 -0.11897378 0.16817918
0.036421265 -0.11545584 0.16829444
0.042974297 -0.11396092 0.16863738
-0.011907595 -0.10468978 0.16825779
-0.0053539807 -0.10492487 0.16779664
0.00043502176 -0.10708845 0.16830198
0.038305558 -0.10531848 0.16805436
0.043823063 -0.1047327 0.16821851
0.050324053 -0.10209191 0.16944467
-0.012628305 -0.094690293 0.16806956
-0.0051278966 -0.094790593 0.16729341
0.0014965079 -0.092426114 0.16711186
0.037556648 -0.093995482 0.16747828
0.044481046 -0.094902121 0.16787834
0.050507054 -0.094063647 0.16891184
-0.020353589 -0.082117938 0.16890189
-0.014485633 -0.084442839 0.16757394
-0.0051084314 -0.085016921 0.16664666
0.0045232377 -0.084510818 0.16680104
0.014545595 -0.081849113 0.16689718
0.025665177 -0.082580641 0.16687518
0.034967054 -0.085042745 0.16695298
0.045255676 -0.084762715 0.16726886
0.051232796 -0.083192788 0.16783653
-0.020677388 -0.073972553 0.16776583
-0.015391139 -0.074800313 0.16671677
-0.0049311556 -0.074864551 0.16603646
0.0049651098 -0.074682854 0.16615464
0.014997899 -0.074695908 0.16620241
0.025021059 -0.074715726 0.16621672
0.03481359 -0.074788354 0.1662873
0.046012431 -0.075062841 0.1660077
0.051266581 -0.074722372 0.16668729
-0.020933351 -0.064406879 0.1665557
-0.015936444 -0.065004691 0.16553146
-0.0049941163 -0.064992078 0.16523492
0.0050582155 -0.065079607 0.16521844
0.015067833 -0.065147318 0.16520756
0.024920579 -0.065073527 0.1651862
0.034976445 -0.064957753 0.16524108
0.0461688 -0.065134943 0.16467141
0.051410682 -0.06481865 0.16576377
-0.021260817 -0.054582715 0.165406
-0.015989212 -0.055031497 0.16421174
-0.0051969308 -0.054935221 0.1641964
0.0050657718 -0.054989226 0.16409649
0.015106327 -0.054929197 0.16404304
0.025059504 -0.055036951 0.16402423
0.035189681 -0.055060361 0.16399118
0.045941334 -0.055121027 0.16358407
0.051472798 -0.054707311 0.1654411
-0.02160955 -0.044741537 0.16483088
-0.015677068 -0.045155328 0.16380906
-0.0049591977 -0.045038164 0.16345739
0.0051037739 -0.045086358 0.16345364
0.015009565 -0.045053847 0.16335781
0.025035711 -0.045082189 0.16309857
0.035038602 -0.045044925 0.16286449
0.045112241 -0.045417264 0.16330923
0.051570151 -0.044864945 0.16552518
-0.021856803 -0.034925144 0.16466753
-0.014390453 -0.03555515 0.164597
-0.0049045854 -0.035311975 0.16313739
0.0051213279 -0.035268202 0.16302364
0.015068877 -0.035316389 0.16295356
0.024866216 -0.035353236 0.16208462
0.035036102 -0.035624575 0.1615928
0.043946404 -0.035338979 0.16393071
0.051779073 -0.035088874 0.16554098
-0.022224514 -0.024982797 0.16493736
-0.01343781 -0.025122091 0.16605762
-0.0048265173 -0.02514079 0.1636132
0.0050311098 -0.025020396 0.16342583
0.015004322 -0.025029819 0.16321959
0.024103016 -0.025847169 0.16144405
0.035416685 -0.025906846 0.16118062
0.043373417 -0.025158899 0.16439907
0.052035693 -0.025112029 0.16539747
-0.02271926 -0.015024797 0.16497663
-0.013408083 -0.014719057 0.1652773
-0.0048532286 -0.014860922 0.16361994
0.005015214 -0.014821985 0.16329946
0.014810729 -0.014873366 0.16288064
0.023445275 -0.01715263 0.16122872
0.036320124 -0.016862459 0.16074952
0.043641474 -0.014933633 0.1646384
0.052302234 -0.015250707 0.16533417
-0.02337192 -0.0049906005 0.16509664
-0.014869506 -0.0054225889 0.16463269
-0.0044427961 -0.0050301785 0.16284762
0.0049544154 -0.0047833635 0.16271664
0.01356173 -0.0049370392 0.16239741
0.039976802 -0.0076479912 0.16014427
0.044299178 -0.0048618768 0.16487966
0.056334116 -0.0045881514 0.16514273
0.061236698 -0.0039459202 0.16304033
-0.060597874 0.0083210124 0.16069971
-0.053843196 0.0079994965 0.16217038
-0.046389412 0.0079363044 0.16227973
-0.036129549 0.009059919 0.16247931
-0.024205171 0.0050421217 0.16513862
-0.016119462 0.0050990595 0.16509002
-0.0028649429 0.0044590468 0.16236676
0.0050567482 0.0056264144 0.1622389
0.012210418 0.0042886096 0.1620748
0.045290634 0.0050868397 0.16501394
0.054068744 0.0051563429 0.16513065
-0.060666621 0.015447594 0.16061056
-0.054116331 0.014933141 0.16241689
-0.044993799 0.015000774 0.16297765
-0.035002816 0.014277363 0.16279556
-0.025912497 0.015102292 0.16507122
-0.017096225 0.015464086 0.16497952
-0.00062330067 0.010460701 0.16207114
0.0048865457 0.010779086 0.16198425
0.010712276 0.010737459 0.16326769
0.046894979 0.01556251 0.16510539
0.053071171 0.015693054 0.16505618
-0.060237981 0.020218492 0.16005117
-0.053059582 0.022075959 0.1614974
-0.046872217 0.022056557 0.16144821
-0.03928718 0.020078719 0.16071922
-0.02263579 0.021176521 0.16495132
-0.017958425 0.021125784 0.16528115
0.048436284 0.020738376 0.16189745
0.052068643 0.020828003 0.16248679
-0.011901349 -0.14159471 0.1799615
0.010492146 -0.1412181 0.17985672
0.036293447 -0.14012963 0.17994559
-0.011035787 -0.13386518 0.17967521
-0.0045501394 -0.13398719 0.17965557
0.0066110347 -0.13174392 0.17552076
0.013280855 -0.13144135 0.17499536
0.02513548 -0.13168345 0.17502908
0.03240649 -0.13141954 0.17652284
0.041649655 -0.13176848 0.17977309
-0.010840371 -0.1238781 0.17948292
-0.0041183233 -0.12398612 0.17480589
0.0044669486 -0.1260764 0.17313989
0.015336357 -0.12681033 0.17342263
0.025115965 -0.12597711 0.17264308
0.035305452 -0.12539892 0.17400585
0.041557368 -0.12215291 0.17519012
-0.011478961 -0.11349523 0.17509711
-0.0064320732 -0.11558069 0.17365988
0.0026197217 -0.11749474 0.17368697
0.011608649 -0.11979942 0.17047
0.028883154 -0.11917736 0.17185272
0.036111023 -0.11549997 0.17315641
0.044197958 -0.11497741 0.17447221
-0.01285783 -0.10497993 0.17479502
-0.0047371197 -0.1051729 0.17379713
0.038340688 -0.10546503 0.17410807
0.045924332 -0.10500895 0.17443934
0.050480179 -0.10298558 0.17412651
-0.015151257 -0.094965927 0.17471056
-0.0028058402 -0.09536384 0.17437123
0.00082653377 -0.091607645 0.17607155
0.037476137 -0.09412203 0.17468368
0.047157798 -0.095365688 0.17472956
0.050800949 -0.092763923 0.17615493
-0.020361157 -0.082263447 0.17489128
-0.017257225 -0.085127041 0.17468171
-0.00079413439 -0.089228265 0.17483401
0.0049723601 -0.085644402 0.17486109
0.014647327 -0.081650957 0.17492788
0.025295638 -0.08261358 0.17492342
0.033171099 -0.086604953 0.17461061
0.048781816 -0.085152082 0.17464624
0.051167611 -0.084821679 0.17488116
-0.020589352 -0.074724853 0.17483276
-0.018066496 -0.075002536 0.17501241
-0.0053504347 -0.075710706 0.17422949
0.0052521839 -0.075387694 0.17471291
0.015302538 -0.074406035 0.17463532
0.024567923 -0.075353451 0.17457998
0.035215784 -0.075700022 0.17476593
0.048620924 -0.074874707 0.17508246
0.051417369 -0.074751832 0.17499994
-0.020782724 -0.064703099 0.17469358
-0.017491583 -0.065035298 0.17513767
-0.0089841913 -0.064915203 0.17380944
0.0039166063 -0.06933865 0.17060953
0.015560925 -0.069905967 0.17012644
0.027956618 -0.06884557 0.17208397
0.039264679 -0.063888691 0.17293349
0.047396682 -0.06522879 0.17481422
0.051518328 -0.064658679 0.17493516
-0.020998785 -0.054599594 0.17480524
-0.016850943 -0.055084102 0.17508456
-0.0092939856 -0.05544455 0.17440502
0.0396704 -0.057432756 0.17274594
0.044949908 -0.054939486 0.17493674
0.051600154 -0.054925095 0.17503524
-0.021159127 -0.044877768 0.17476271
-0.01622607 -0.045014288 0.17507897
-0.009426428 -0.045462567 0.17607699
0.042704031 -0.044855397 0.17489877
0.051799107 -0.045038782 0.17512092
-0.021566333 -0.034787145 0.17468016
-0.016311426 -0.035200626 0.17522407
-0.0090024443 -0.035189472 0.17498177
0.042808 -0.03481872 0.17510706
0.052284643 -0.035096742 0.17488302
-0.021693638 -0.024700599 0.17478612
-0.0159095 -0.025429325 0.17543998
0.043457903 -0.024801906 0.1752739
0.052719738 -0.025051465 0.1749668
-0.022174465 -0.014717146 0.17502423
-0.015335343 -0.014907821 0.17531617
0.044189621 -0.014734702 0.17519866
0.053216796 -0.015132929 0.17484972
-0.02292046 -0.0049731676 0.17538196
-0.015427761 -0.0049004615 0.17507595
0.044719376 -0.004772055 0.17523099
0.055647369 -0.0048197899 0.17507362
0.060500398 -0.0038694404 0.17513016
-0.023645394 0.0056081414 0.17556168
-0.01646602 0.0055645052 0.17569624
0.045850541 0.0056819734 0.17569198
0.053517841 0.0053935633 0.17532721
-0.023123145 0.014323323 0.17384982
-0.017635815 0.014537161 0.17410053
0.047436148 0.012874023 0.17389768
0.052513629 0.013216407 0.17404248
-0.022510726 0.021075569 0.17201932
-0.017995866 0.021013478 0.17195921
-0.011209759 -0.1437581 0.18638298
-0.0055171079 -0.14437246 0.18585147
0.0050521051 -0.14401156 0.18588968
0.010950367 -0.14215004 0.18668754
0.027161427 -0.14370975 0.18617141
0.035463005 -0.14431161 0.1860023
0.041454401 -0.14347011 0.18646026
-0.011489637 -0.13493672 0.1851752
-0.0060710339 -0.13528772 0.18320595
0.0053333994 -0.13588984 0.18282941
0.012701615 -0.13376263 0.18470424
0.02509287 -0.13517226 0.18405482
0.035618093 -0.13556828 0.18312675
0.04215841 -0.13443136 0.18529963
-0.011689496 -0.12494459 0.18505296
-0.0073203542 -0.12573944 0.18301435
0.0053908946 -0.12369065 0.18403098
0.015847024 -0.12707905 0.1848679
0.02419134 -0.12466668 0.18491763
0.036170021 -0.12645113 0.18215147
0.044130068 -0.12512179 0.185156
-0.011880671 -0.11504591 0.18511109
-0.0059118797 -0.11472063 0.18443519
0.0021832471 -0.11748661 0.18480498
0.028873071 -0.11949039 0.18496087
0.035455205 -0.11511458 0.18485111
0.045295306 -0.11499453 0.18508874
-0.013056123 -0.10508286 0.18494636
-0.0039400505 -0.10512589 0.18481626
0.038002282 -0.10538273 0.18535215
0.046343435 -0.10503142 0.18496822
0.050074812 -0.10149081 0.18421401
-0.015373531 -0.09509597 0.18489356
-0.0026641944 -0.095503107 0.18474421
0.00095453684 -0.091658168 0.18473434
0.037076343 -0.094309799 0.18508676
0.047511376 -0.095492065 0.18499187
0.050959691 -0.09269511 0.18514539
-0.0203433 -0.081938691 0.18536486
-0.017333578 -0.085073709 0.18486558
-0.0006039773 -0.089226022 0.18623348
0.0050982269 -0.085820772 0.18475021
0.01477183 -0.081938311 0.18516704
0.025118638 -0.082985803 0.18494272
0.033351593 -0.087108254 0.18450102
0.048963342 -0.085161604 0.18502399
0.05125105 -0.084715538 0.18511249
-0.02069479 -0.074600711 0.18528447
-0.018036662 -0.074961297 0.18461303
-0.0051130634 -0.075866178 0.18445164
0.0049839164 -0.076256402 0.18414444
0.015381307 -0.075318485 0.18375261
0.024176834 -0.075723082 0.18421042
0.034954567 -0.075929023 0.1838523
0.049078003 -0.075129963 0.18506683
0.051496804 -0.074652247 0.18503812
-0.022256939 -0.064028628 0.18666022
-0.01778692 -0.06513609 0.18457143
-0.0080453707 -0.065546431 0.18575552
0.0066604288 -0.065459743 0.18844989
0.015216835 -0.06232135 0.18850955
0.024623977 -0.064015031 0.1881505
0.036205005 -0.064084768 0.18724465
0.048105706 -0.065559275 0.18436596
0.051452529 -0.064765453 0.18501608
-0.023665721 -0.054389887 0.18709056
-0.016663454 -0.055081032 0.18428518
-0.0077868057 -0.055557698 0.18654358
0.0044757808 -0.058070973 0.18898679
0.015299976 -0.059210222 0.1893224
0.02485862 -0.058480386 0.18914026
0.035345946 -0.055713624 0.18880266
0.045208551 -0.054823991 0.18458395
0.051726934 -0.054860827 0.18509664
-0.024511626 -0.044629868 0.1868185
-0.015273586 -0.045125723 0.1843999
-0.0096887173 -0.045122072 0.18467772
0.039634198 -0.049773321 0.18936855
0.042329509 -0.044722594 0.18518049
0.052013472 -0.044878721 0.18499389
-0.030204723 -0.033634782 0.18784265
-0.025031423 -0.03481238 0.18612781
-0.014338448 -0.035139114 0.18449658
-0.0092059299 -0.032974221 0.18485908
0.04292516 -0.03496182 0.18502919
0.052707605 -0.035018586 0.18479109
-0.030289378 -0.027396819 0.18597782
-0.025148211 -0.02492976 0.18538259
-0.014264615 -0.025062703 0.1849397
-0.0094598997 -0.029900491 0.18895468
0.043532196 -0.025067719 0.18525422
0.053862434 -0.024856113 0.18541013
-0.023980597 -0.015050234 0.18478571
-0.014586053 -0.01508242 0.18516231
0.044253178 -0.01489475 0.18524463
0.054985572 -0.014775765 0.18567018
0.060209103 -0.0166969 0.18926042
-0.023224985 -0.0048909001 0.18518649
-0.016273133 -0.0044835857 0.18605216
0.045775965 -0.0045863292 0.18603766
0.053903397 -0.0051998352 0.18506677
-0.022742096 0.003964975 0.18330719
-0.017521659 0.0040070019 0.18363965
0.047145821 0.0039157108 0.18368241
0.052419953 0.0042163897 0.18368627
-0.021644214 0.010628046 0.18091592
-0.018410344 0.011082051 0.18102016
0.04841454 0.010513267 0.18097505
0.051762715 0.010852973 0.1810036
-0.0076610148 -0.15010834 0.19395575
-0.011257114 -0.14447324 0.19490239
-0.005718933 -0.14626399 0.19517231
0.0053405319 -0.14593314 0.19512202
0.010826686 -0.14243534 0.1946726
0.026670309 -0.14497292 0.19512872
0.035903603 -0.14637873 0.19515875
0.041360121 -0.14444146 0.19489926
-0.011552794 -0.13494073 0.19514427
-0.0092592994 -0.1352064 0.19495375
0.0092721349 -0.13778619 0.19520822
0.013009435 -0.13378778 0.19500613
0.023103382 -0.13525312 0.1951137
0.039643522 -0.13690983 0.19489916
0.042276714 -0.13441685 0.19497669
-0.011755035 -0.12498926 0.19499989
-0.0094976807 -0.12518503 0.19497211
0.0058522611 -0.12242389 0.19535106
0.01573064 -0.12704171 0.19502307
0.024688406 -0.12391631 0.19529089
0.031570435 -0.12127674 0.19495629
0.044874419 -0.12524813 0.19506717
-0.011859924 -0.1150136 0.19505925
-0.0055021923 -0.11458503 0.19504146
0.001669215 -0.11750509 0.19531491
0.029611159 -0.11909705 0.19415542
0.035009701 -0.11536405 0.19511615
0.045588929 -0.11495336 0.19507422
-0.027592063 -0.1012066 0.19973677
-0.012931594 -0.10513277 0.19498587
-0.0045369104 -0.1049073 0.19509308
5.286932e-05 -0.10229196 0.19783255
0.037792061 -0.10526188 0.19564781
0.046483185 -0.10512234 0.19493528
0.050194722 -0.10311054 0.1949479
-0.030230764 -0.095221475 0.19884282
-0.024690604 -0.09378577 0.19752768
-0.016005279 -0.095384181 0.19461448
-0.0029847918 -0.095199846 0.19510947
0.00099352037 -0.091590628 0.19480017
0.027345313 -0.090665936 0.19811472
0.03653232 -0.094465137 0.19519484
0.047733638 -0.095353149 0.19496356
0.051029112 -0.092902049 0.19494961
-0.030045703 -0.085546702 0.19597226
-0.024430219 -0.084777907 0.19623725
-0.017791551 -0.08544381 0.19323078
-0.00085741689 -0.088926837 0.19605644
0.0050248951 -0.085879214 0.19497158
0.014801494 -0.082309507 0.1950607
0.025337618 -0.083689809 0.1950779
0.032867946 -0.087437958 0.19477573
0.048979618 -0.085251518 0.19479109
0.051241167 -0.084662452 0.19528444
-0.030103462 -0.071975231 0.19540533
-0.024691198 -0.074957736 0.19508334
-0.018451804 -0.075146519 0.1938898
-0.0040002102 -0.073610559 0.19731408
0.0041611064 -0.072732054 0.19733882
0.015098787 -0.071265906 0.19750212
0.026332038 -0.071820319 0.19777089
0.034765046 -0.073461942 0.19720145
0.048629865 -0.07528498 0.19468622
0.051655408 -0.074537352 0.19544612
-0.030566692 -0.064018227 0.19285093
-0.024772936 -0.065136768 0.19430739
-0.016960848 -0.064705722 0.19656327
-0.0047066663 -0.064653657 0.19642209
0.0051278123 -0.064612597 0.19595551
0.015011285 -0.064703368 0.19612385
0.024991853 -0.064765111 0.19617617
0.03497275 -0.064699426 0.19614838
0.045229655 -0.065275326 0.19582424
0.052682448 -0.064509243 0.19611688
-0.030262673 -0.056272577 0.19188234
-0.02445861 -0.055204224 0.19393632
-0.014809793 -0.053979728 0.19806667
-0.0053948886 -0.055514287 0.19504914
0.0047742613 -0.05806037 0.1944873
0.014957334 -0.058627784 0.19419055
0.025411414 -0.058039639 0.19427413
0.035424162 -0.055580974 0.19459625
0.043305866 -0.054174267 0.19717839
0.053812608 -0.054755196 0.19628721
-0.030554533 -0.04821986 0.19102935
-0.023784149 -0.045178778 0.19395421
-0.014724106 -0.044676859 0.197188
-0.0094219567 -0.047557082 0.19475293
0.039342761 -0.049072627 0.19243819
0.044325657 -0.044655595 0.19677241
0.054270953 -0.045023523 0.19550917
0.060271204 -0.045817617 0.19588165
-0.022780253 -0.035242189 0.19413759
-0.015492214 -0.035005506 0.19625348
-0.0093855122 -0.034646094 0.19500867
0.045329932 -0.035016157 0.19615991
0.054238111 -0.035069443 0.19442156
0.060382709 -0.039308012 0.19493373
-0.022232208 -0.025098089 0.1937107
-0.01600286 -0.025186168 0.19492216
-0.0095197428 -0.029299259 0.19273552
0.045993786 -0.025159584 0.19498964
0.053676151 -0.025251497 0.1937169
0.060077697 -0.023738384 0.19161355
-0.021994611 -0.0152435 0.19281806
-0.016694155 -0.015166371 0.19326138
0.046593662 -0.015238198 0.19328816
0.052547615 -0.015324863 0.19306578
-0.02188679 -0.0069528054 0.19157726
-0.0175319 -0.0067206118 0.19154929
0.047269035 -0.0067821806 0.19165035
0.051792115 -0.0063566216 0.19182636
-0.021563014 0.0008286126 0.19058609
-0.018513437 0.00056878012 0.19058287
0.049518786 0.0010641757 0.19052255
0.051387891 0.00051569444 0.19048844
-0.011363501 -0.14230935 0.20159784
-0.005165671 -0.1427546 0.20162247
0.0047930675 -0.14269699 0.20165654
