# .PCD v0.7 - Point Cloud Data file format
VERSION 0.7
FIELDS x y z rgba
SIZE 4 4 4 4
TYPE F F F U
COUNT 1 1 1 1
WIDTH 1009
HEIGHT 1
VIEWPOINT 0 0 0 1 0 0 0
POINTS 1009
DATA ascii
-0.0034883553 0.027209172 0.80100006 4284743687
-0.0020930131 0.027209172 0.80100006 4284481539
-0.00069767109 0.027209172 0.80100006 4284416002
0.00069767109 0.027209172 0.80100006 4284416001
0.0020930131 0.027209172 0.80100006 4284284928
0.0034796454 0.027141234 0.79900002 4284416000
0.0048715034 0.027141234 0.79900002 4284481536
0.0062790401 0.027209172 0.80100006 4285071360
0.0076743821 0.027209172 0.80100006 4285464576
0.0090697249 0.027209172 0.80100006 4285267969
0.010465067 0.027209172 0.80100006 4285267969
0.011860408 0.027209172 0.80100006 4285464587
0.013288849 0.02727711 0.80300003 4285595661
0.014687675 0.02727711 0.80300003 4285464585
0.0160865 0.02727711 0.80300003 4285792270
0.017528879 0.027345048 0.80500007 4285858065
0.018978221 0.027412986 0.80700004 4286120981
0.020384016 0.027412986 0.80700004 4286254102
0.021843811 0.027480923 0.80900002 4286517274
0.023253089 0.027480923 0.80900002 4286581800
0.024723338 0.027548863 0.81100005 4287502902
0.026200553 0.027616799 0.81300002 4287045442
0.027616799 0.027616799 0.81300002 4288229716
0.029104467 0.027684739 0.81500006 4287312698
0.030599104 0.027752675 0.81700003 4287576126
0.03202232 0.027752675 0.81700003 4288040802
0.033486467 0.027786644 0.81800002 4294751432
-0.027786644 0.029211601 0.81800002 4287500032
-0.026361689 0.029211601 0.81800002 4286710528
-0.024936732 0.029211601 0.81800002 4286124303
-0.023511777 0.029211601 0.81800002 4286387219
-0.022005817 0.029104467 0.81500006 4285732887
-0.02053557 0.029033044 0.81300002 4285272336
-0.019072289 0.028961625 0.81100005 4285270801
-0.017659528 0.028961625 0.81100005 4285007885
-0.016166633 0.028818781 0.80700004 4285008148
-0.014724256 0.028747357 0.80500007 4284876306
-0.013321946 0.028747357 0.80500007 4284744977
-0.011890023 0.028675934 0.80300003 4284876306
-0.010491196 0.028675934 0.80300003 4284744204
-0.00909237 0.028675934 0.80300003 4284481545
-0.0076935436 0.028675934 0.80300003 4284874776
-0.0062947175 0.028675934 0.80300003 4284809239
-0.0048958915 0.028675934 0.80300003 4284743688
-0.0034970655 0.028675934 0.80300003 4284678151
-0.0020982393 0.028675934 0.80300003 4284547079
-0.00069767109 0.028604515 0.80100006 4284547079
0.00069767109 0.028604515 0.80100006 4284350469
0.0020930131 0.028604515 0.80100006 4284088321
0.0034883553 0.028604515 0.80100006 4284284928
0.0048836977 0.028604515 0.80100006 4284350464
0.0062790401 0.028604515 0.80100006 4284940288
0.0076743821 0.028604515 0.80100006 4285267971
0.0090697249 0.028604515 0.80100006 4285071372
0.010465067 0.028604515 0.80100006 4285333520
0.011890023 0.028675934 0.80300003 4285202698
0.013288849 0.028675934 0.80300003 4285268491
0.014687675 0.028675934 0.80300003 4285595661
0.0160865 0.028675934 0.80300003 4285858576
0.017528879 0.028747357 0.80500007 4285989911
0.018978221 0.028818781 0.80700004 4286055960
0.020384016 0.028818781 0.80700004 4286253852
0.021843811 0.0288902 0.80900002 4286977575
0.023253089 0.0288902 0.80900002 4286585897
0.024723338 0.028961625 0.81100005 4287112241
0.026200553 0.029033044 0.81300002 4287112753
0.027616799 0.029033044 0.81300002 4287836732
0.029104467 0.029104467 0.81500006 4286853684
0.030599104 0.029175891 0.81700003 4287642944
0.03202232 0.029175891 0.81700003 4289159549
0.033486467 0.029211601 0.81800002 4294950361
-0.026361689 0.030636556 0.81800002 4285728000
-0.024936732 0.030636556 0.81800002 4286254102
-0.023511777 0.030636556 0.81800002 4286517274
-0.022005817 0.030524198 0.81500006 4286059021
-0.02053557 0.03044929 0.81300002 4285927692
-0.019072289 0.030374385 0.81100005 4285403156
-0.017615976 0.030299481 0.80900002 4285337107
-0.016206698 0.030299481 0.80900002 4285074455
-0.014760839 0.030224573 0.80700004 4285074455
-0.013355045 0.030224573 0.80700004 4285008396
-0.011919637 0.030149668 0.80500007 4284876810
-0.010517326 0.030149668 0.80500007 4284744206
-0.0091150161 0.030149668 0.80500007 4284547084
-0.007712706 0.030149668 0.80500007 4284678168
-0.0063103959 0.030149668 0.80500007 4284678168
-0.0049080853 0.030149668 0.80500007 4284678154
-0.0034970655 0.030074764 0.80300003 4284678154
-0.0020982393 0.030074764 0.80300003 4284612609
-0.00069941307 0.030074764 0.80300003 4284612609
0.00069941307 0.030074764 0.80300003 4284481537
0.0020982393 0.030074764 0.80300003 4284547586
0.0034883553 0.029999856 0.80100006 4284612608
0.0048836977 0.029999856 0.80100006 4284612608
0.0062947175 0.030074764 0.80300003 4284743702
0.0076935436 0.030074764 0.80300003 4284874776
0.00909237 0.030074764 0.80300003 4285071372
0.010491196 0.030074764 0.80300003 4285333520
0.011890023 0.030074764 0.80300003 4285203211
0.013321946 0.030149668 0.80500007 4285334797
0.014724256 0.030149668 0.80500007 4285335310
0.016126567 0.030149668 0.80500007 4285401359
0.017572427 0.030224573 0.80700004 4286055960
0.018978221 0.030224573 0.80700004 4286318875
0.020384016 0.030224573 0.80700004 4286319646
0.021843811 0.030299481 0.80900002 4287043368
0.023310576 0.030374385 0.81100005 4286716202
0.024784306 0.03044929 0.81300002 4287571511
0.026265008 0.030524198 0.81500006 4287244845
0.027684739 0.030524198 0.81500006 4287836982
0.029175891 0.030599104 0.81700003 4287249472
0.030599104 0.030599104 0.81700003 4290933880
0.032061514 0.030636556 0.81800002 4290412485
-0.026329461 0.03202232 0.81700003 4285335296
-0.024936732 0.032061514 0.81800002 4286251008
-0.023511777 0.032061514 0.81800002 4286513920
-0.022005817 0.031943928 0.81500006 4286057475
-0.020586088 0.031943928 0.81500006 4286254854
-0.019072289 0.03178715 0.81100005 4285403404
-0.017615976 0.031708755 0.80900002 4285206282
-0.016206698 0.031708755 0.80900002 4285074703
-0.01479742 0.031708755 0.80900002 4285140496
-0.013355045 0.031630371 0.80700004 4285073699
-0.01194925 0.031630371 0.80700004 4284810783
-0.010543456 0.031630371 0.80700004 4284743709
-0.0091376621 0.031630371 0.80700004 4284743709
-0.0077318684 0.031630371 0.80700004 4284744204
-0.0063103959 0.031551979 0.80500007 4284678411
-0.0049080853 0.031551979 0.80500007 4284743691
-0.0034970655 0.031473588 0.80300003 4284809740
-0.0020982393 0.031473588 0.80300003 4284547595
-0.00069941307 0.031473588 0.80300003 4284416009
0.00069941307 0.031473588 0.80300003 4284481802
0.0020982393 0.031473588 0.80300003 4284481802
0.0034970655 0.031473588 0.80300003 4284612617
0.0048958915 0.031473588 0.80300003 4284612617
0.0062947175 0.031473588 0.80300003 4284874764
0.007712706 0.031551979 0.80500007 4284940301
0.0091150161 0.031551979 0.80500007 4285136904
0.010517326 0.031551979 0.80500007 4285268491
0.011919637 0.031551979 0.80500007 4285269004
0.013355045 0.031630371 0.80700004 4285466639
0.014760839 0.031630371 0.80700004 4285532955
0.016166633 0.031630371 0.80700004 4285796384
0.017572427 0.031630371 0.80700004 4286057754
0.019025255 0.031708755 0.80900002 4286057754
0.020434532 0.031708755 0.80900002 4286385952
0.021843811 0.031708755 0.80900002 4286846503
0.023368061 0.031865541 0.81300002 4286978091
0.024845278 0.031943928 0.81500006 4288030522
0.026265008 0.031943928 0.81500006 4287115055
0.027684739 0.031943928 0.81500006 4287180848
0.029175891 0.03202232 0.81700003 4287643718
0.030599104 0.03202232 0.81700003 4293499039
-0.023511777 0.033486467 0.81800002 4286251008
-0.022005817 0.033363659 0.81500006 4286121984
-0.020586088 0.033363659 0.81500006 4286121984
-0.019072289 0.03319991 0.81100005 4285534464
-0.017615976 0.033118036 0.80900002 4285468672
-0.016206698 0.033118036 0.80900002 4285206282
-0.01479742 0.033118036 0.80900002 4285337611
-0.013388142 0.033118036 0.80900002 4285206054
-0.01194925 0.033036161 0.80700004 4284811296
-0.010543456 0.033036161 0.80700004 4284809500
-0.0091376621 0.033036161 0.80700004 4284875293
-0.0077318684 0.033036161 0.80700004 4284744206
-0.0063103959 0.032954291 0.80500007 4284744206
-0.0049080853 0.032954291 0.80500007 4284548108
-0.0034970655 0.032872412 0.80300003 4284548108
-0.0020982393 0.032872412 0.80300003 4284547595
-0.00069941307 0.032872412 0.80300003 4284481802
0.00069941307 0.032872412 0.80300003 4284481802
0.0020982393 0.032872412 0.80300003 4284613388
0.0034970655 0.032872412 0.80300003 4284743691
0.0049080853 0.032954291 0.80500007 4284678154
0.0063103959 0.032954291 0.80500007 4284744204
0.007712706 0.032954291 0.80500007 4284810254
0.0091376621 0.033036161 0.80700004 4285005854
0.010543456 0.033036161 0.80700004 4285268513
0.01194925 0.033036161 0.80700004 4285335062
0.013355045 0.033036161 0.80700004 4285400855
0.014760839 0.033036161 0.80700004 4285467162
0.016166633 0.033036161 0.80700004 4285598748
0.017572427 0.033036161 0.80700004 4286254616
0.019025255 0.033118036 0.80900002 4286254616
0.020434532 0.033118036 0.80900002 4286450225
0.021843811 0.033118036 0.80900002 4286976569
0.023368061 0.033281785 0.81300002 4286848581
0.024845278 0.033363659 0.81500006 4288230234
0.026329461 0.033445533 0.81700003 4287708224
0.027752675 0.033445533 0.81700003 4288892497
0.029175891 0.033445533 0.81700003 4288960860
-0.022059821 0.034868747 0.81700003 4286252544
-0.020586088 0.034783389 0.81500006 4285989632
-0.019119322 0.034698032 0.81300002 4285859072
-0.017659528 0.034612674 0.81100005 4286121984
-0.016246766 0.034612674 0.81100005 4285271552
-0.014834002 0.034612674 0.81100005 4285337602
-0.013388142 0.034527313 0.80900002 4285140248
-0.011978864 0.034527313 0.80900002 4285074455
-0.010569585 0.034527313 0.80900002 4284876306
-0.0091603082 0.034527313 0.80900002 4284876306
-0.0077510295 0.034527313 0.80900002 4284876306
-0.0063417517 0.034527313 0.80900002 4284942099
-0.0049080853 0.034356602 0.80500007 4284613902
-0.0035057757 0.034356602 0.80500007 4284548108
-0.0021034654 0.034356602 0.80500007 4284548108
-0.00070115511 0.034356602 0.80500007 4284416779
0.00070115511 0.034356602 0.80500007 4284613388
0.0021034654 0.034356602 0.80500007 4284547595
0.0035057757 0.034356602 0.80500007 4284744204
0.0049080853 0.034356602 0.80500007 4284876047
0.0063260738 0.034441959 0.80700004 4284876306
0.0077318684 0.034441959 0.80700004 4285008148
0.0091376621 0.034441959 0.80700004 4285008148
0.010543456 0.034441959 0.80700004 4285139735
0.01194925 0.034441959 0.80700004 4285205530
0.013388142 0.034527313 0.80900002 4285139737
0.01479742 0.034527313 0.80900002 4285792550
0.016206698 0.034527313 0.80900002 4286253101
0.017615976 0.034527313 0.80900002 4286123550
0.019025255 0.034527313 0.80900002 4286518307
0.020434532 0.034527313 0.80900002 4286648869
0.023425549 0.034783389 0.81500006 4287113799
0.024906248 0.034868747 0.81700003 4288298330
0.026329461 0.034868747 0.81700003 4287907388
0.027752675 0.034868747 0.81700003 4288696647
-0.017703077 0.036114275 0.81300002 4285792256
-0.016286831 0.036114275 0.81300002 4285530624
-0.014870584 0.036114275 0.81300002 4285793792
-0.013421241 0.036025438 0.81100005 4285335301
-0.012008478 0.036025438 0.81100005 4285269508
-0.010595717 0.036025438 0.81100005 4284876810
-0.0091829542 0.036025438 0.81100005 4284876810
-0.0077510295 0.035936594 0.80900002 4284876306
-0.0063417517 0.035936594 0.80900002 4284744977
-0.0049080853 0.035758913 0.80500007 4284744206
-0.0035057757 0.035758913 0.80500007 4284744206
-0.0021034654 0.035758913 0.80500007 4284548108
-0.00070115511 0.035758913 0.80500007 4284613902
0.00070115511 0.035758913 0.80500007 4284614406
0.0021034654 0.035758913 0.80500007 4284548612
0.0035057757 0.035758913 0.80500007 4284743691
0.0049080853 0.035758913 0.80500007 4285006863
0.0063260738 0.03584775 0.80700004 4284744977
0.0077318684 0.03584775 0.80700004 4284876306
0.0091376621 0.03584775 0.80700004 4284942099
0.010543456 0.03584775 0.80700004 4285139735
0.011978864 0.035936594 0.80900002 4285467412
0.013388142 0.035936594 0.80900002 4285336083
0.01479742 0.035936594 0.80900002 4285726762
0.016206698 0.035936594 0.80900002 4286515766
0.017615976 0.035936594 0.80900002 4286319920
0.019072289 0.036025438 0.81100005 4287043900
0.022005817 0.03620312 0.81500006 4287507262
0.023483032 0.036291961 0.81700003 4287312966
0.024906248 0.036291961 0.81700003 4288563033
0.026361689 0.036336381 0.81800002 4288956481
-0.016326897 0.03762285 0.81500006 4285792256
-0.014870584 0.037530523 0.81300002 4285726720
-0.013454339 0.037530523 0.81300002 4285138176
-0.012038092 0.037530523 0.81300002 4285203968
-0.010595717 0.037438195 0.81100005 4285073156
-0.0091829542 0.037438195 0.81100005 4285007363
-0.0077701919 0.037438195 0.81100005 4284876297
-0.0063417517 0.037345868 0.80900002 4284876297
-0.0049324734 0.037345868 0.80900002 4284876297
-0.0035144854 0.037253547 0.80700004 4284876297
-0.002108691 0.037253547 0.80700004 4284745992
-0.00070289709 0.037253547 0.80700004 4284680199
0.00070115511 0.03716122 0.80500007 4284745992
0.0021034654 0.03716122 0.80500007 4284680199
0.0035144854 0.037253547 0.80700004 4284810504
0.0049202796 0.037253547 0.80700004 4284744710
0.0063260738 0.037253547 0.80700004 4285072658
0.0077318684 0.037253547 0.80700004 4285138451
0.0091603082 0.037345868 0.80900002 4285205007
0.010569585 0.037345868 0.80900002 4285205007
0.011978864 0.037345868 0.80900002 4285467412
0.013388142 0.037345868 0.80900002 4285270289
0.01479742 0.037345868 0.80900002 4286122266
0.016206698 0.037345868 0.80900002 4286450975
0.017659528 0.037438195 0.81100005 4286387491
0.020586088 0.03762285 0.81500006 4286784042
0.022059821 0.037715174 0.81700003 4287310386
0.023511777 0.037761338 0.81800002 4287508785
0.024936732 0.037761338 0.81800002 4288627009
-0.014907167 0.039042581 0.81500006 4285595648
-0.013454339 0.038946766 0.81300002 4285333504
-0.012038092 0.038946766 0.81300002 4285464576
-0.010621847 0.038946766 0.81300002 4285203202
-0.0092056002 0.038946766 0.81300002 4285268995
-0.0077701919 0.038850959 0.81100005 4285072393
-0.0063417517 0.038755149 0.80900002 4285072393
-0.0049324734 0.038755149 0.80900002 4285073156
-0.0035144854 0.038659338 0.80700004 4285139205
-0.002108691 0.038659338 0.80700004 4284942603
-0.00070289709 0.038659338 0.80700004 4284876810
0.00070289709 0.038659338 0.80700004 4284876810
0.002108691 0.038659338 0.80700004 4284942603
0.0035144854 0.038659338 0.80700004 4285138451
0.0049202796 0.038659338 0.80700004 4285204244
0.0063260738 0.038659338 0.80700004 4285270801
0.0077510295 0.038755149 0.80900002 4285270801
0.0091603082 0.038755149 0.80900002 4285467412
0.010569585 0.038755149 0.80900002 4285599254
0.011978864 0.038755149 0.80900002 4285798680
0.013421241 0.038850959 0.81100005 4285798680
0.01921339 0.039138388 0.81700003 4287113004
0.020661863 0.039186295 0.81800002 4287179817
0.02208682 0.039186295 0.81800002 4287969334
0.023511777 0.039186295 0.81800002 4288035112
-0.01494375 0.040561602 0.81700003 4285857792
-0.013487437 0.040462308 0.81500006 4285530112
-0.012067707 0.040462308 0.81500006 4285530112
-0.010621847 0.040363014 0.81300002 4285399040
-0.0092056002 0.040363014 0.81300002 4285661184
-0.0077893534 0.040363014 0.81300002 4285138176
-0.0063574295 0.04026372 0.81100005 4285138176
-0.0049324734 0.040164426 0.80900002 4285073156
-0.0035231954 0.040164426 0.80900002 4285073156
-0.0021139171 0.040164426 0.80900002 4285073156
-0.00070463907 0.040164426 0.80900002 4285073156
0.00070289709 0.040065132 0.80700004 4285072906
0.002108691 0.040065132 0.80700004 4285138699
0.0035231954 0.040164426 0.80900002 4285073156
0.0049324734 0.040164426 0.80900002 4285270791
0.0063417517 0.040164426 0.80900002 4285467412
0.0077510295 0.040164426 0.80900002 4285730840
0.0091603082 0.040164426 0.80900002 4285535256
0.010569585 0.040164426 0.80900002 4285535256
0.012008478 0.04026372 0.81100005 4285863453
0.016366962 0.040561602 0.81700003 4286719014
0.017811952 0.040611248 0.81800002 4286850341
0.019236907 0.040611248 0.81800002 4286916134
0.020661863 0.040611248 0.81800002 4287311392
0.02208682 0.040611248 0.81800002 4287771943
-0.01494375 0.041984819 0.81700003 4285792256
-0.013520534 0.041984819 0.81700003 4285857792
-0.012067707 0.041882042 0.81500006 4285726720
-0.010647976 0.041882042 0.81500006 4285595648
-0.0092282463 0.041882042 0.81500006 4285530112
-0.0077893534 0.041779261 0.81300002 4285464576
-0.0063731079 0.041779261 0.81300002 4285464576
-0.0049446677 0.041676484 0.81100005 4285464576
-0.0035319056 0.041676484 0.81100005 4285661184
-0.0021243691 0.041779261 0.81300002 4285203202
-0.00070812309 0.041779261 0.81300002 4285268995
0.00070638111 0.041676484 0.81100005 4285269508
0.0021191433 0.041676484 0.81100005 4285269508
0.0035319056 0.041676484 0.81100005 4285336834
0.0049446677 0.041676484 0.81100005 4285336834
0.0063574295 0.041676484 0.81100005 4285666312
0.0077701919 0.041676484 0.81100005 4285469190
0.0091829542 0.041676484 0.81100005 4285992211
0.010595717 0.041676484 0.81100005 4286058004
0.013520534 0.041984819 0.81700003 4286979108
0.01494375 0.041984819 0.81700003 4286651670
0.016386995 0.042036206 0.81800002 4286783512
0.017855503 0.042138986 0.82000005 4287046419
0.019283943 0.042138986 0.82000005 4286980625
0.020712381 0.042138986 0.82000005 4287306776
0.02208682 0.042036206 0.81800002 4287569949
-0.013520534 0.043408033 0.81700003 4285726720
-0.012097321 0.043408033 0.81700003 4285857792
-0.010674106 0.043408033 0.81700003 4285726720
-0.0092508914 0.043408033 0.81700003 4285726720
-0.0078085158 0.043301772 0.81500006 4285661184
-0.0063887858 0.043301772 0.81500006 4285661184
-0.0049568615 0.043195508 0.81300002 4285399040
-0.0035406153 0.043195508 0.81300002 4285399040
-0.0021243691 0.043195508 0.81300002 4285399040
-0.00070986507 0.043301772 0.81500006 4285464576
0.00070812309 0.043195508 0.81300002 4285661184
0.0021191433 0.043089248 0.81100005 4285661184
0.0035319056 0.043089248 0.81100005 4285662465
0.0049568615 0.043195508 0.81300002 4285860100
0.0063731079 0.043195508 0.81300002 4285794560
0.0077893534 0.043195508 0.81300002 4286057473
0.0092056002 0.043195508 0.81300002 4286123268
0.010647976 0.043301772 0.81500006 4286057475
0.012097321 0.043408033 0.81700003 4286321163
0.013537084 0.043461163 0.81800002 4286715920
0.014998622 0.043567427 0.82000005 4286650379
0.016427062 0.043567427 0.82000005 4286716172
0.017855503 0.043567427 0.82000005 4286912520
0.019283943 0.043567427 0.82000005 4286451969
-0.012112127 0.044886116 0.81800002 4285464576
-0.010687171 0.044886116 0.81800002 4285726720
-0.0092622144 0.044886116 0.81800002 4285661184
-0.0078276778 0.044831246 0.81700003 4285661184
-0.0064044637 0.044831246 0.81700003 4285595648
-0.0049812496 0.044831246 0.81700003 4285595648
-0.0035580352 0.044831246 0.81700003 4285530112
-0.0021348214 0.044831246 0.81700003 4285595648
-0.00071160705 0.044831246 0.81700003 4285595648
0.00070986507 0.044721503 0.81500006 4285726720
0.0021243691 0.044611752 0.81300002 4285792256
0.0035406153 0.044611752 0.81300002 4285793536
0.0049690558 0.044721503 0.81500006 4285793536
0.0063887858 0.044721503 0.81500006 4285990144
0.0078085158 0.044721503 0.81500006 4285990144
0.0092508914 0.044831246 0.81700003 4286122496
0.010674106 0.044831246 0.81700003 4286122496
0.012112127 0.044886116 0.81800002 4286384384
0.013537084 0.044886116 0.81800002 4286384384
0.014998622 0.044995867 0.82000005 4286383872
0.016427062 0.044995867 0.82000005 4286647040
0.017855503 0.044995867 0.82000005 4286645504
-0.0078372583 0.046311073 0.81800002 4285661184
-0.0064044637 0.04625446 0.81700003 4285661184
-0.0049812496 0.04625446 0.81700003 4285595648
-0.0035623903 0.046311073 0.81800002 4285464576
-0.0021374342 0.046311073 0.81800002 4285661184
-0.00071247807 0.046311073 0.81800002 4285857792
0.00071160705 0.04625446 0.81700003 4285857792
0.0021295953 0.04614123 0.81500006 4285988864
0.0035493255 0.04614123 0.81500006 4285857792
0.0049812496 0.04625446 0.81700003 4285857792
0.0064044637 0.04625446 0.81700003 4285857792
0.0078276778 0.04625446 0.81700003 4285857792
0.0092622144 0.046311073 0.81800002 4286185472
0.010687171 0.046311073 0.81800002 4286185472
0.012112127 0.046311073 0.81800002 4286316544
0.013570182 0.046424307 0.82000005 4286447616
0.014998622 0.046424307 0.82000005 4286514688
0.016386995 0.046311073 0.81800002 4287106560
0.017811952 0.046311073 0.81800002 4286777856
-0.0064044637 0.047677673 0.81700003 4285005824
-0.0049812496 0.047677673 0.81700003 4285333504
-0.0035580352 0.047677673 0.81700003 4285464576
-0.0021348214 0.047677673 0.81700003 4285595648
-0.00071247807 0.04773603 0.81800002 4285661184
0.00071247807 0.04773603 0.81800002 4285661184
0.0021374342 0.04773603 0.81800002 4285726720
0.0035580352 0.047677673 0.81700003 4285857792
0.0049812496 0.047677673 0.81700003 4285726720
0.0064123026 0.04773603 0.81800002 4285726720
0.0078372583 0.04773603 0.81800002 4285857792
0.0092622144 0.04773603 0.81800002 4285923328
0.010687171 0.04773603 0.81800002 4285923328
0.012097321 0.047677673 0.81700003 4285988864
0.013520534 0.047677673 0.81700003 4286251008
0.014962039 0.04773603 0.81800002 4286186752
0.016386995 0.04773603 0.81800002 4286844672
-0.0035580352 0.049100887 0.81700003 4284940288
-0.0021348214 0.049100887 0.81700003 4285464576
-0.00071247807 0.049160987 0.81800002 4285595648
0.00071247807 0.049160987 0.81800002 4285595648
0.0021374342 0.049160987 0.81800002 4285726720
0.0035580352 0.049100887 0.81700003 4285857792
0.0049812496 0.049100887 0.81700003 4285726720
0.0064123026 0.049160987 0.81800002 4285464576
0.0078372583 0.049160987 0.81800002 4285792256
0.0092622144 0.049160987 0.81800002 4285792256
0.010687171 0.049160987 0.81800002 4285595648
0.012097321 0.049100887 0.81700003 4285661184
0.013520534 0.049100887 0.81700003 4286317312
0.0035623903 0.050585944 0.81800002 4284022784
0.0049873465 0.050585944 0.81800002 4284022784
0.0064123026 0.050585944 0.81800002 4283891712
0.0078372583 0.050585944 0.81800002 4284153856
-0.019200401 -0.010621573 0.81625903 4278190080
-0.018380459 -0.01118701 0.81802785 4278190080
-0.018140158 -0.010126767 0.81709051 4278190080
-0.017659554 -0.0080062766 0.81521595 4278190080
-0.017419254 -0.0069460324 0.8142786 4278190080
-0.017320214 -0.010692203 0.81885934 4278190080
-0.015500815 -0.0097023668 0.81601971 4278190080
-0.015261097 -0.0086446963 0.8150847 4278190080
-0.015021379 -0.0075870245 0.81414962 4278190080
-0.01478166 -0.0065293531 0.8132146 4278190080
-0.014541943 -0.0054716822 0.81227958 4278190080
-0.014302225 -0.0044140108 0.81134456 4278190080
-0.014062506 -0.0033563396 0.81040955 4278190080
-0.013822788 -0.0022986685 0.80947453 4278190080
-0.01224898 -0.0023922031 0.80759263 4278190080
-0.011292441 0.0018281884 0.80386162 4278190080
-0.011053306 0.0028832862 0.80292886 4278190080
-0.015402016 -0.013439445 0.8205893 4278190080
-0.015162298 -0.012381775 0.81965429 4278190080
-0.01492258 -0.011324103 0.81871927 4278190080
-0.014682862 -0.010266433 0.81778425 4278190080
-0.014443143 -0.0092087602 0.81684923 4278190080
-0.014203425 -0.0081510898 0.81591415 4278190080
-0.013963708 -0.0070934184 0.81497914 4278190080
-0.013723989 -0.006035747 0.81404412 4278190080
-0.013484271 -0.0049780761 0.8131091 4278190080
-0.013244553 -0.0039204047 0.81217408 4278190080
-0.011672152 -0.0040099937 0.81028563 4278190080
-0.011433017 -0.0029548961 0.80935287 4278190080
-0.011193882 -0.0018997981 0.80842012 4278190080
-0.010954747 -0.00084470009 0.80748737 4278190080
-0.010715612 0.00021039777 0.80655462 4278190080
-0.0091466708 0.0001053338 0.80467981 4278190080
-0.0089081191 0.0011578582 0.80374932 4278190080
-0.0086695673 0.0022103833 0.80281889 4278190080
-0.0077670082 0.0026789834 0.80142081 4278190080
-0.007953912 0.0053679561 0.80002743 4278190080
-0.012149523 -0.017296378 0.82132339 4278190080
-0.012530133 -0.011958372 0.81857514 4278190080
-0.012290997 -0.010903274 0.81764239 4278190080
-0.012051863 -0.0098481756 0.81670964 4278190080
-0.011812728 -0.0087930784 0.81577688 4278190080
-0.011573593 -0.0077379802 0.81484413 4278190080
-0.011334458 -0.0066828821 0.81391138 4278190080
-0.011095324 -0.0056277844 0.81297863 4278190080
-0.010856189 -0.0045726867 0.81204587 4278190080
-0.010617054 -0.0035175886 0.81111312 4278190080
-0.010377919 -0.0024624909 0.81018037 4278190080
-0.0088098012 -0.0025610353 0.80829674 4278190080
-0.0085712494 -0.0015085109 0.80736625 4278190080
-0.0083326986 -0.0004559865 0.80643576 4278190080
-0.0080941468 0.0005965376 0.80550528 4278190080
-0.0071922895 0.0010671114 0.80410391 4278190080
-0.0069540292 0.0021183495 0.80317461 4278190080
-0.0067157694 0.0031695876 0.80224526 4278190080
-0.0064775092 0.0042208247 0.8013159 4278190080
-0.0062392494 0.0052720634 0.80038661 4278190080
-0.0060009896 0.0063233003 0.79945725 4278190080
-0.0092384312 -0.012108374 0.81700981 4278190080
-0.0096656885 -0.010490026 0.81656599 4278190080
-0.0094271377 -0.0094375014 0.81563556 4278190080
-0.0082343798 -0.0041748798 0.81098318 4278190080
-0.0079958281 -0.0031223553 0.81005269 4278190080
-0.0077572763 -0.0020698309 0.8091222 4278190080
-0.0075187245 -0.0010173065 0.80819172 4278190080
-0.0072801732 3.5217941e-05 0.80726123 4278190080
-0.0070416215 0.001087742 0.8063308 4278190080
-0.0061410521 0.0015577149 0.80492842 4278190080
-0.0059027919 0.0026089528 0.80399907 4278190080
-0.0056645321 0.0036601909 0.80306971 4278190080
-0.0054262718 0.0047114282 0.80214041 4278190080
-0.005188012 0.0057626669 0.80121106 4278190080
-0.0049497522 0.0068139038 0.8002817 4278190080
-0.004711492 0.0078651421 0.79935235 4278190080
-0.0093784928 -0.016873959 0.82248098 4278190080
-0.0077106734 -0.0095152957 0.81597561 4278190080
-0.0074724131 -0.0084640579 0.81504625 4278190080
-0.0069958935 -0.0063615828 0.8131876 4278190080
-0.0067576333 -0.005310345 0.81225824 4278190080
-0.0065193735 -0.0042591072 0.81132889 4278190080
-0.0062811137 -0.0032078694 0.81039959 4278190080
-0.0060428535 -0.002156632 0.80947024 4278190080
-0.0058045937 -0.0011053941 0.80854088 4278190080
-0.0055663339 -5.4156386e-05 0.80761153 4278190080
-0.0053280736 0.00099708128 0.80668223 4278190080
-0.0035306732 0.0019306798 0.80387998 4278190080
-0.0032929962 0.0029793449 0.80295295 4278190080
-0.0030553197 0.0040280088 0.80202585 4278190080
-0.0028176429 0.0050766733 0.80109882 4278190080
-0.0025799663 0.0061253374 0.80017173 4278190080
-0.0023422895 0.007174002 0.7992447 4278190080
-0.0094690528 -0.017927812 0.82566077 4278190080
-0.0085655153 -0.017434595 0.82423478 4278190080
-0.0059446553 -0.0058709793 0.81401205 4278190080
-0.0057063955 -0.004819741 0.8130827 4278190080
-0.0054681357 -0.0037685034 0.8121534 4278190080
-0.003432716 -0.0017745747 0.8084107 4278190080
-0.0031950392 -0.00072591053 0.80748361 4278190080
-0.0029573627 0.00032275371 0.80655658 4278190080
-0.0027196859 0.0013714182 0.80562949 4278190080
-0.0024820091 0.0024200822 0.80470246 4278190080
-0.0088936314 -0.019541658 0.82834721 4278190080
-0.0079907971 -0.019046467 0.82691789 4278190080
-0.0064245556 -0.019112466 0.82499325 4278190080
-0.0061868788 -0.018063802 0.82406616 4278190080
-0.0049984949 -0.012820479 0.81943083 4278190080
-0.0047608186 -0.011771816 0.8185038 4278190080
-0.0045231418 -0.010723151 0.81757671 4278190080
-0.004285465 -0.0096744867 0.81664968 4278190080
-0.0040477882 -0.0086258221 0.81572258 4278190080
-0.0035724349 -0.0065284939 0.81386846 4278190080
-0.0033347581 -0.0054798294 0.81294137 4278190080
-0.0030970816 -0.0044311653 0.81201434 4278190080
-0.0028594048 -0.0033825007 0.81108725 4278190080
-0.0013030388 -0.0034922827 0.80920124 4278190080
-0.00082885183 -0.0014001008 0.80735165 4278190080
-0.00035466492 0.00069208111 0.80550206 4278190080
-0.00011757143 0.0017381723 0.80457729 4278190080
0.0023807131 0.0057844813 0.79901713 4278190080
-0.0080796592 -0.02010298 0.83010316 4278190080
-0.00717782 -0.019607101 0.82867169 4278190080
-0.0069395597 -0.018555863 0.8277424 4278190080
-0.005375891 -0.018623063 0.82581568 4278190080
-0.0038133499 -0.018695446 0.82389349 4278190080
-0.0035762566 -0.017649354 0.82296872 4278190080
-0.003339163 -0.016603263 0.8220439 4278190080
-0.0023907893 -0.0124189 0.81834477 4278190080
-0.0034744774 -0.010233749 0.81839919 4278190080
-0.00049404177 -0.0040501724 0.81094646 4278190080
-0.00025694832 -0.0030040813 0.81002164 4278190080
-1.9854882e-05 -0.0019579905 0.80909687 4278190080
-0.0075042378 -0.021716824 0.8327896 4278190080
-0.0072656861 -0.020664299 0.83185911 4278190080
-0.0063648419 -0.020167733 0.8304255 4278190080
-0.00480258 -0.020230988 0.82849222 4278190080
-0.0032414459 -0.020299425 0.82656348 4278190080
-0.0030043521 -0.019253334 0.82563871 4278190080
-0.0027672588 -0.018207243 0.82471395 4278190080
-0.0012084969 -0.018285939 0.82279432 4278190080
-0.0013446982 -0.011930698 0.81916517 4278190080
-0.0011076047 -0.010884606 0.8182404 4278190080
0.0013931154 -0.0068072458 0.81264663 4278190080
0.0048317499 0.0014081225 0.80339468 4278190080
-0.006028384 -0.022830844 0.83403802 4278190080
-0.0057901242 -0.021779606 0.83310866 4278190080
-0.0055518639 -0.020728368 0.83217931 4278190080
-0.0039915927 -0.020790253 0.83024174 4278190080
-0.0024324483 -0.020857314 0.8283087 4278190080
-0.00087450974 -0.020929489 0.82638025 4278190080
-0.0006379995 -0.019885972 0.82545775 4278190080
-0.00040148961 -0.018842457 0.82453525 4278190080
0.0011541554 -0.018924959 0.8226158 4278190080
0.0013900823 -0.017884014 0.82169557 4278190080
0.0019636124 -0.0084072808 0.81531006 4278190080
0.0029096531 -0.0042332103 0.81162006 4278190080
0.0033826737 -0.0021461751 0.80977499 4278190080
0.005636767 0.00085297792 0.80513132 4278190080
0.0071801245 0.00071646739 0.80325967 4278190080
0.0076508117 0.0027932087 0.80142379 4278190080
0.0081214989 0.00486995 0.79958785 4278190080
-0.0052154064 -0.023391478 0.83579183 4278190080
-0.0049771462 -0.02234024 0.83486247 4278190080
-0.0047388864 -0.021289002 0.83393312 4278190080
-0.0031806049 -0.021349512 0.83199126 4278190080
-0.0016234507 -0.021415202 0.83005393 4278190080
-6.7502326e-05 -0.021486007 0.82812119 4278190080
0.0014873189 -0.021561991 0.82619292 4278190080
0.0017232456 -0.020521048 0.82527268 4278190080
0.0019591728 -0.019480104 0.82435244 4278190080
0.0021950996 -0.018439159 0.82343221 4278190080
0.0037469654 -0.018527977 0.82151538 4278190080
0.0039823088 -0.017489607 0.82059741 4278190080
0.004554369 -0.0080297189 0.81422985 4278190080
0.0047902958 -0.0069887745 0.81330961 4278190080
0.0052621495 -0.0049068867 0.81146914 4278190080
0.0057340036 -0.0028249982 0.80962867 4278190080
0.007747808 -0.00087567524 0.80590999 4278190080
0.0079831518 0.00016269545 0.80499202 4278190080
0.0095233517 2.2410322e-05 0.80312073 4278190080
0.0099928724 0.0020940041 0.80128932 4278190080
-0.0050623189 -0.023400784 0.83805746 4278190080
-0.0041641686 -0.022900874 0.83661628 4278190080
-0.0039259084 -0.021849636 0.83568692 4278190080
-0.0036876486 -0.020798398 0.83475763 4278190080
-0.0021319406 -0.020860109 0.83281374 4278190080
-0.00057735981 -0.020927001 0.83087438 4278190080
0.00097601517 -0.020999007 0.82893956 4278190080
0.0025282628 -0.021076191 0.82700932 4278190080
0.0027641896 -0.020035248 0.82608908 4278190080
0.0030001169 -0.018994303 0.82516885 4278190080
0.0045499923 -0.019081749 0.82324773 4278190080
0.0047853356 -0.018043378 0.82232976 4278190080
0.0050206794 -0.017005008 0.82141179 4278190080
0.0052560233 -0.015966637 0.82049382 4278190080
0.0071387729 -0.0076596714 0.81315011 4278190080
0.0073741162 -0.0066213007 0.81223214 4278190080
0.00760946 -0.0055829305 0.81131423 4278190080
0.0078448039 -0.0045445594 0.81039625 4278190080
0.0080801472 -0.0035061887 0.80947828 4278190080
0.0083154915 -0.0024678181 0.80856031 4278190080
0.010559149 0.00050580804 0.80393308 4278190080
-0.0040097944 -0.02290958 0.83888292 4278190080
-0.003112931 -0.022410272 0.83744073 4278190080
-0.0028746708 -0.021359032 0.83651143 4278190080
-0.001320953 -0.021419372 0.83456326 4278190080
-0.0010832762 -0.020370707 0.83363616 4278190080
0.0017830225 -0.021555522 0.83068049 4278190080
0.0033332799 -0.021631338 0.82874596 4278190080
0.0035692069 -0.020590391 0.82782573 4278190080
0.0038051337 -0.019549448 0.82690549 4278190080
0.0040410608 -0.018508503 0.82598525 4278190080
0.0055883629 -0.01859715 0.82406211 4278190080
0.0058237067 -0.01755878 0.82314414 4278190080
0.0060590501 -0.016520409 0.82222617 4278190080
0.0076040193 -0.016619349 0.82031214 4278190080
0.0084124869 -0.0061367024 0.81304651 4278190080
0.0086478302 -0.0050983317 0.81212854 4278190080
0.010186384 -0.0052255783 0.81023955 4278190080
0.010421145 -0.0041897814 0.80932385 4278190080
0.012426341 -0.0022583352 0.80561483 4278190080
0.012660518 -0.0012251115 0.80470139 4278190080
0.012894696 -0.00019188713 0.80378801 4278190080
0.01336305 0.0018745604 0.80196112 4278190080
0.013597227 0.0029077835 0.80104774 4278190080
-0.0029572702 -0.022418376 0.83970839 4278190080
-0.0020616932 -0.021919668 0.83826524 4278190080
-0.001823433 -0.020868428 0.83733588 4278190080
-0.00027228866 -0.02092997 0.83538568 4278190080
0.0012777286 -0.020996688 0.83344001 4278190080
0.00282654 -0.021068523 0.83149892 4278190080
0.0043742238 -0.021145537 0.82956237 4278190080
0.0046101511 -0.020104593 0.82864213 4278190080
0.0048460779 -0.01906365 0.82772189 4278190080
0.0063913898 -0.019150922 0.82579446 4278190080
0.0066267336 -0.018112551 0.82487649 4278190080
0.0081702964 -0.018207544 0.82295585 4278190080
0.0084050568 -0.017171748 0.82204014 4278190080
0.0099469079 -0.017274497 0.82012635 4278190080
0.011721147 -0.016351707 0.81730598 4278190080
0.01075266 -0.0068137753 0.81288326 4278190080
0.010987421 -0.0057779779 0.81196761 4278190080
0.012757034 -0.0048758104 0.80916536 4278190080
0.01299121 -0.0038425864 0.80825198 4278190080
0.013225388 -0.0028093627 0.80733854 4278190080
0.015225057 -0.00089195051 0.80363888 4278190080
-0.0034559807 -0.021875979 0.84249634 4278190080
-0.0019047458 -0.021927172 0.84053385 4278190080
-0.0010104557 -0.021429064 0.83908969 4278190080
0.00053869898 -0.021489231 0.8371352 4278190080
0.002086726 -0.021554578 0.83518523 4278190080
0.0036335473 -0.02162504 0.83323985 4278190080
0.0051792413 -0.02170068 0.83129901 4278190080
0.0054151681 -0.020659737 0.83037877 4278190080
0.005651095 -0.019618792 0.82945853 4278190080
0.0071944171 -0.019704694 0.82752675 4278190080
0.0074297604 -0.018666323 0.82660884 4278190080
0.0076651042 -0.017627953 0.82569087 4278190080
0.0092060938 -0.017724147 0.8237682 4278190080
0.010745955 -0.017825523 0.82185012 4278190080
0.01228461 -0.017932013 0.81993657 4278190080
0.012518204 -0.016901363 0.81902546 4278190080
0.012751798 -0.015870713 0.81811428 4278190080
0.012985392 -0.014840061 0.81720316 4278190080
0.014153361 -0.009686809 0.81264746 4278190080
0.014386956 -0.0086561581 0.81173635 4278190080
0.014854143 -0.0065948572 0.80991405 4278190080
0.015087737 -0.0055642067 0.80900288 4278190080
0.015321331 -0.0045335558 0.80809176 4278190080
0.015554925 -0.0035029056 0.80718064 4278190080
0.01578852 -0.0024722547 0.80626947 4278190080
0.016022112 -0.0014416043 0.80535835 4278190080
0.016255707 -0.00041095476 0.80444723 4278190080
0.016489301 0.00061969622 0.80353606 4278190080
0.016722895 0.0016503466 0.80262494 4278190080
0.015897851 0.0049054008 0.80175501 4278190080
0.015544625 0.01024238 0.79904461 4278190080
0.014725415 0.013523168 0.79815197 4278190080
-0.0024008828 -0.021383574 0.84332383 4278190080
-0.00085222133 -0.021435967 0.84135932 4278190080
0.0013496869 -0.022048492 0.83888471 4278190080
0.0028957236 -0.022112466 0.83693045 4278190080
0.0044405549 -0.022181557 0.83498079 4278190080
0.0046770647 -0.021138038 0.83405828 4278190080
0.0062201852 -0.021214882 0.83211535 4278190080
0.006456112 -0.020173937 0.83119512 4278190080
0.0066920393 -0.019132992 0.83027488 4278190080
0.0082327873 -0.019220095 0.82834113 4278190080
0.0084681315 -0.018181724 0.82742321 4278190080
0.0087034749 -0.017143354 0.82650524 4278190080
0.01024189 -0.01724075 0.82458055 4278190080
0.011779178 -0.017343327 0.82266045 4278190080
0.013315261 -0.017451016 0.82074487 4278190080
0.013548855 -0.016420366 0.81983376 4278190080
0.015083226 -0.016535809 0.81792498 4278190080
0.014716825 -0.011267113 0.81527805 4278190080
0.015184012 -0.0092058126 0.81345576 4278190080
0.015417606 -0.0081751626 0.81254464 4278190080
0.0156512 -0.0071445117 0.81163353 4278190080
0.015884794 -0.0061138612 0.81072235 4278190080
0.016118389 -0.0050832108 0.80981123 4278190080
0.017646343 -0.0052269627 0.80792749 4278190080
0.017879354 -0.0041988855 0.80701864 4278190080
0.018345375 -0.0021427318 0.80520087 4278190080
0.017286357 7.0041046e-05 0.80525553 4278190080
0.017519951 0.0011006921 0.80434442 4278190080
0.017753545 0.0021313424 0.80343324 4278190080
0.016580421 0.010725778 0.79985696 4278190080
0.015528441 0.012969396 0.79988426 4278190080
0.014949481 0.017300049 0.79806656 4278190080
0.013900962 0.019559143 0.79808027 4278190080
-0.0015849192 -0.021946263 0.84508407 4278190080
-0.001345785 -0.020891169 0.84415132 4278190080
0.00020030308 -0.020944763 0.84218484 4278190080
0.0023983512 -0.021559089 0.83970714 4278190080
0.0039418144 -0.021624265 0.83775085 4278190080
0.005484072 -0.021694556 0.83579916 4278190080
0.0057205823 -0.020651039 0.83487666 4278190080
0.0072611296 -0.020729082 0.83293176 4278190080
0.0088004712 -0.020812238 0.83099145 4278190080
0.0090358146 -0.019773867 0.83007348 4278190080
0.0092711579 -0.018735496 0.8291555 4278190080
0.0095065022 -0.017697126 0.82823753 4278190080
0.011042927 -0.017793151 0.82630861 4278190080
0.011277688 -0.016757352 0.8253929 4278190080
0.012812402 -0.016861131 0.82347077 4278190080
0.014345911 -0.01697002 0.82155323 4278190080
0.015878292 -0.017084092 0.81964016 4278190080
0.016111303 -0.016056016 0.81873131 4278190080
0.016344314 -0.015027938 0.81782246 4278190080
0.017509367 -0.0098875528 0.81327814 4278190080
0.017742377 -0.0088594761 0.81236923 4278190080
0.017975388 -0.0078313993 0.81146038 4278190080
0.018208399 -0.0068033221 0.81055152 4278190080
0.018441409 -0.0057752449 0.80964267 4278190080
0.01867442 -0.0047471682 0.80873382 4278190080
0.018907432 -0.0037190907 0.80782491 4278190080
0.019140441 -0.002691014 0.80691606 4278190080
0.019373452 -0.0016629371 0.80600721 4278190080
0.019606464 -0.00063486025 0.80509835 4278190080
0.019839473 0.00039321725 0.8041895 4278190080
0.018784195 0.0026123382 0.8042416 4278190080
0.01901779 0.0036429898 0.80333042 4278190080
0.0179643 0.0058697942 0.80337566 4278190080
0.017381459 0.010173378 0.80158502 4278190080
0.016566813 0.013453995 0.80069864 4278190080
0.016802156 0.014492366 0.79978067 4278190080
0.01494448 0.020046143 0.79889864 4278190080
-0.00052982132 -0.021453857 0.84591156 4278190080
-0.00029068708 -0.020398764 0.84497881 4278190080
0.0019049977 -0.02100849 0.8424924 4278190080
0.0034470153 -0.021069687 0.84052962 4278190080
0.0049879048 -0.021136064 0.83857131 4278190080
0.0065275896 -0.021207556 0.83661759 4278190080
0.0080661466 -0.021284226 0.8346684 4278190080
0.008302073 -0.020243281 0.83374816 4278190080
0.0098388419 -0.020327639 0.83180583 4278190080
0.010074185 -0.019289268 0.83088785 4278190080
0.011609204 -0.019381346 0.82895237 4278190080
0.011843964 -0.01834555 0.82803667 4278190080
0.012078725 -0.017309753 0.82712096 4278190080
0.013611449 -0.017412158 0.82519454 4278190080
0.015142968 -0.017519675 0.82327265 4278190080
0.015376562 -0.016489025 0.82236153 4278190080
0.016906369 -0.016604297 0.82044643 4278190080
0.017139381 -0.01557622 0.81953758 4278190080
0.01737239 -0.014548143 0.81862873 4278190080
0.017605402 -0.013520067 0.81771988 4278190080
0.018304434 -0.010435835 0.81499326 4278190080
0.018537445 -0.0094077587 0.81408441 4278190080
0.018770454 -0.008379681 0.81317556 4278190080
0.019003466 -0.0073516043 0.81226671 4278190080
0.019236477 -0.0063235271 0.81135786 4278190080
0.019469487 -0.0052954503 0.81044894 4278190080
0.020347085 -0.004855758 0.80905181 4278190080
0.020579806 -0.0038289672 0.80814409 4278190080
0.020812524 -0.0028021771 0.80723637 4278190080
0.021045243 -0.0017753867 0.80632859 4278190080
0.020634539 -0.00015506533 0.80590463 4278190080
0.020867551 0.00087301218 0.80499578 4278190080
0.019814845 0.0030933337 0.8050499 4278190080
0.02004844 0.0041239853 0.80413878 4278190080
0.018997524 0.0063519906 0.80418605 4278190080
0.019231701 0.0073852157 0.8032726 4278190080
0.018417256 0.010656775 0.80239737 4278190080
0.018652016 0.011692572 0.80148172 4278190080
0.017605184 0.013938594 0.80151302 4278190080
0.017840527 0.014976964 0.80059505 4278190080
0.01807587 0.016015334 0.79967713 4278190080
0.015987998 0.020533144 0.79971707 4278190080
0.0018282487 -0.022067403 0.84569675 4278190080
0.0020667999 -0.02101488 0.84476626 4278190080
0.0042580031 -0.021628948 0.84227914 4278190080
0.0044956799 -0.020580284 0.84135205 4278190080
0.0060339966 -0.020647863 0.83939177 4278190080
0.0075711072 -0.020720555 0.83743602 4278190080
0.0091070905 -0.020798426 0.8354848 4278190080
0.0093430178 -0.019757481 0.83456457 4278190080
0.010877213 -0.019843042 0.8326202 4278190080
0.011112556 -0.018804671 0.83170223 4278190080
0.012645001 -0.018897949 0.82976472 4278190080
0.012879761 -0.017862152 0.82884902 4278190080
0.013114522 -0.016826354 0.82793331 4278190080
0.014644673 -0.016929962 0.82600486 4278190080
0.016173618 -0.017038679 0.824081 4278190080
0.017701436 -0.01715258 0.82216161 4278190080
0.017934447 -0.016124504 0.82125276 4278190080
0.018167457 -0.015096426 0.82034391 4278190080
0.018400468 -0.014068349 0.81943506 4278190080
0.018633479 -0.013040272 0.81852615 4278190080
0.018866489 -0.012012195 0.8176173 4278190080
0.0190995 -0.010984118 0.81670845 4278190080
0.019332511 -0.0099560404 0.81579959 4278190080
0.019565521 -0.0089279637 0.81489074 4278190080
0.019798532 -0.0078998869 0.81398183 4278190080
0.020031543 -0.0068718097 0.81307298 4278190080
0.020908438 -0.0064301444 0.81167257 4278190080
0.021141157 -0.0054033538 0.81076479 4278190080
0.021373875 -0.0043765637 0.80985707 4278190080
0.021606594 -0.0033497731 0.80894935 4278190080
0.021839313 -0.002322983 0.80804163 4278190080
0.022072032 -0.0012961926 0.80713391 4278190080
0.022304753 -0.00026940217 0.80622619 4278190080
0.021895628 0.0013528068 0.80580211 4278190080
0.022128638 0.0023808843 0.8048932 4278190080
0.020264925 0.0078674126 0.80408293 4278190080
0.020499101 0.0089006349 0.80316955 4278190080
0.020733278 0.00993386 0.80225611 4278190080
0.019922575 0.013211768 0.80137837 4278190080
0.0035309531 -0.022129759 0.84600002 4278190080
0.0037692129 -0.021078521 0.84507072 4278190080
0.0053066672 -0.021139545 0.84310156 4278190080
0.005544344 -0.020090882 0.84217453 4278190080
0.0070800874 -0.02015966 0.84021217 4278190080
0.0086146249 -0.020233555 0.83825445 4278190080
0.010148034 -0.020312626 0.83630121 4278190080
0.010383961 -0.019271683 0.83538097 4278190080
0.011915583 -0.019358443 0.83343458 4278190080
0.012150927 -0.018320072 0.83251661 4278190080
0.012386271 -0.017281702 0.83159864 4278190080
0.013915558 -0.017378755 0.82966137 4278190080
0.014150319 -0.016342957 0.82874566 4278190080
0.015677897 -0.016447764 0.82681519 4278190080
0.01720427 -0.016557684 0.8248893 4278190080
0.018729514 -0.016672784 0.82296795 4278190080
0.018962523 -0.015644709 0.82205909 4278190080
0.019195534 -0.014616631 0.82115018 4278190080
0.019428546 -0.013588554 0.82024133 4278190080
0.019661555 -0.012560477 0.81933248 4278190080
0.019894566 -0.0115324 0.81842363 4278190080
0.020127578 -0.010504323 0.81751478 4278190080
0.020360587 -0.0094762463 0.81660587 4278190080
0.020593598 -0.0084481686 0.81569701 4278190080
0.020826608 -0.0074200919 0.81478816 4278190080
0.021702509 -0.0069777407 0.81338555 4278190080
0.021935228 -0.0059509501 0.81247783 4278190080
0.022167947 -0.00492416 0.81157011 4278190080
0.022400666 -0.0038973696 0.81066239 4278190080
0.022633385 -0.0028705788 0.80975467 4278190080
0.022866104 -0.0018437888 0.80884695 4278190080
0.023098823 -0.0008169983 0.80793923 4278190080
0.023331542 0.00020979212 0.80703145 4278190080
0.023564262 0.0012365825 0.80612373 4278190080
0.023156716 0.0028606791 0.80569953 4278190080
0.021766502 0.010416057 0.80306643 4278190080
0.020958371 0.013695166 0.80219072 4278190080
0.021193132 0.014730961 0.80127501 4278190080
0.020152612 0.016984532 0.80130583 4278190080
0.018075032 0.021507146 0.80135387 4278190080
0.0045821914 -0.021639155 0.84682453 4278190080
0.0048204511 -0.020587917 0.84589517 4278190080
0.0063553322 -0.020650143 0.84392399 4278190080
0.006593009 -0.019601477 0.84299695 4278190080
0.0081261778 -0.019671459 0.84103262 4278190080
0.009658142 -0.019746553 0.83907282 4278190080
0.011188978 -0.019826826 0.83711761 4278190080
0.01271861 -0.019912213 0.83516693 4278190080
0.012953954 -0.018873844 0.83424896 4278190080
0.013189297 -0.017835474 0.83333099 4278190080
0.014716596 -0.017931154 0.83138943 4278190080
0.014951357 -0.016895358 0.83047372 4278190080
0.015186117 -0.015859559 0.82955807 4278190080
0.016711121 -0.015965568 0.82762557 4278190080
0.018234918 -0.01607669 0.8256976 4278190080
0.018468512 -0.015046038 0.82478648 4278190080
0.019990601 -0.015164914 0.82286537 4278190080
0.02022361 -0.014136837 0.82195652 4278190080
0.020456621 -0.01310876 0.82104766 4278190080
0.020689633 -0.012080682 0.82013875 4278190080
0.020922642 -0.011052606 0.8192299 4278190080
0.021798424 -0.010605708 0.81782174 4278190080
0.022031143 -0.0095789172 0.81691402 4278190080
0.022263862 -0.0085521266 0.8160063 4278190080
0.022496581 -0.0075253365 0.81509858 4278190080
0.0227293 -0.0064985463 0.81419086 4278190080
0.022962019 -0.0054717558 0.81328315 4278190080
0.023194738 -0.0044449656 0.81237543 4278190080
0.023427457 -0.0034181753 0.81146771 4278190080
0.023660176 -0.0023913847 0.81055993 4278190080
0.023892894 -0.0013645944 0.80965221 4278190080
0.024125613 -0.00033780403 0.80874449 4278190080
0.024358332 0.00068898639 0.80783677 4278190080
0.024591051 0.0017157769 0.80692905 4278190080
0.024184791 0.0033404736 0.8065058 4278190080
0.023373986 0.0065976218 0.80565256 4278190080
0.022799727 0.010898254 0.80387682 4278190080
0.02199417 0.014178564 0.80300307 4278190080
0.02222893 0.015214359 0.80208737 4278190080
0.0056334287 -0.021148551 0.84764898 4278190080
0.0058716885 -0.020097315 0.84671962 4278190080
0.0074039963 -0.02016074 0.84474647 4278190080
0.0076416731 -0.019112077 0.84381938 4278190080
0.0091722691 -0.019183258 0.84185302 4278190080
0.01070166 -0.019259552 0.83989125 4278190080
0.012229923 -0.019341027 0.83793396 4278190080
0.013756981 -0.019427614 0.83598131 4278190080
0.013992324 -0.018389245 0.83506334 4278190080
0.014227668 -0.017350875 0.83414537 4278190080
0.015752392 -0.017447757 0.83220178 4278190080
0.015987152 -0.01641196 0.83128607 4278190080
0.016221913 -0.015376162 0.83037043 4278190080
0.017744344 -0.015483371 0.8284359 4278190080
0.01926557 -0.015595693 0.82650596 4278190080
0.019499164 -0.014565041 0.82559478 4278190080
0.021018678 -0.014685119 0.8236717 4278190080
0.021251688 -0.013657042 0.82276279 4278190080
0.021484699 -0.012628965 0.82185394 4278190080
0.02171771 -0.011600887 0.82094508 4278190080
0.02195072 -0.010572811 0.82003623 4278190080
0.022825213 -0.010126513 0.81862706 4278190080
0.023057934 -0.0090997228 0.81771934 4278190080
0.023290653 -0.0080729323 0.81681162 4278190080
0.023523372 -0.0070461421 0.8159039 4278190080
0.023756091 -0.006019352 0.81499612 4278190080
0.023988809 -0.0049925614 0.8140884 4278190080
0.024221528 -0.0039657713 0.81318069 4278190080
0.024454247 -0.0029389812 0.81227297 4278190080
0.024686966 -0.0019121902 0.81136525 4278190080
0.024919685 -0.00088540016 0.81045753 4278190080
0.025152404 0.00014139025 0.80954981 4278190080
0.025385123 0.0011681807 0.80864209 4278190080
0.025617842 0.0021949711 0.80773437 4278190080
0.023029966 0.014661961 0.80381542 4278190080
0.0079773068 -0.021768667 0.84742302 4278190080
0.0082149841 -0.020720001 0.84649599 4278190080
0.0084526604 -0.019671338 0.8455689 4278190080
0.0086903377 -0.018622672 0.84464186 4278190080
0.01021836 -0.018695056 0.84267348 4278190080
