# .PCD v0.7 - Point Cloud Data file format
VERSION 0.7
FIELDS x y z
SIZE 4 4 4
TYPE F F F
COUNT 1 1 1
WIDTH 1303
HEIGHT 1
VIEWPOINT 0 0 0 1 0 0 0
POINTS 1303
DATA ascii
-0.0018997889 0.041567009 0.81076813
-0.001606417 0.041564126 0.81057721
-0.0013350844 0.041537713 0.81036043
-0.0010945731 0.041484177 0.8101173
-0.00089801336 0.041399956 0.8098501
-0.00081701536 0.041340947 0.80969882
-0.0033560242 0.03854996 0.80658489
-0.0030423193 0.038723312 0.80667937
-0.0027449867 0.038901325 0.80679214
-0.0024615556 0.039084405 0.80692226
-0.0021920826 0.039272163 0.80706918
-0.0019373834 0.03946409 0.8072325
-0.0016987529 0.039659608 0.80741215
-0.00147794 0.039858069 0.80760801
-0.0012772166 0.040058684 0.80782026
-0.0010995069 0.040260445 0.80804908
-0.00094857923 0.04046198 0.80829448
-0.00082930765 0.040661354 0.80855632
-0.00074799475 0.040855687 0.80883372
-0.00071270124 0.041040555 0.80912423
-0.000733272 0.041208576 0.80942166
-0.00077142863 0.041287988 0.80958027
-0.0039968397 0.038244817 0.80647475
-0.0043398207 0.038105473 0.80645645
-0.0046816384 0.037979141 0.80645937
-0.005023825 0.037864316 0.80648202
-0.0053658825 0.03776088 0.80652386
-0.0057068439 0.037669167 0.80658484
-0.0060454686 0.037589811 0.80666524
-0.0063802279 0.037523724 0.80676568
-0.0067092092 0.037472107 0.80688691
-0.0070299567 0.037436515 0.80703008
-0.0073392224 0.037418917 0.80719644
-0.0076325941 0.0374218 0.80738735
-0.007903927 0.037448213 0.80760413
-0.0081444383 0.037501749 0.80784726
-0.0083409976 0.03758597 0.80811447
-0.0084219957 0.037644982 0.80826575
-0.0058829868 0.04043597 0.81137967
-0.0061966917 0.040262613 0.8112852
-0.0064940243 0.0400846 0.81117243
-0.0067774556 0.039901521 0.81104231
-0.0070469286 0.039713763 0.81089538
-0.0073016277 0.039521839 0.81073207
-0.0075402581 0.039326318 0.81055242
-0.007761071 0.039127856 0.81035656
-0.0079617947 0.038927242 0.81014425
-0.0081395041 0.038725484 0.80991548
-0.0082904315 0.038523946 0.80967003
-0.0084097032 0.038324572 0.80940825
-0.008491016 0.038130239 0.80913085
-0.0085263103 0.037945371 0.80884033
-0.0085057393 0.037777349 0.80854291
-0.0084675821 0.037697937 0.8083843
-0.0052253008 0.040709693 0.81140161
-0.0048936037 0.040844452 0.81141931
-0.0045630317 0.04096663 0.81141651
-0.0042321035 0.041077677 0.81139457
-0.0039012991 0.041177709 0.81135416
-0.003571555 0.041266408 0.81129515
-0.0032440713 0.041343153 0.81121737
-0.0029203256 0.041407064 0.81112027
-0.0026021674 0.041456982 0.81100297
-0.0022919727 0.041491404 0.81086451
-0.0019928818 0.041508421 0.81070364
-0.0017091619 0.041505635 0.81051904
-0.0014467562 0.04148009 0.81030935
-0.0012141572 0.041428316 0.81007421
-0.0010240646 0.041346867 0.80981582
-0.0009457313 0.041289795 0.80966955
-0.0034012073 0.038590632 0.80665803
-0.0030978234 0.038758282 0.8067494
-0.0028102731 0.038930438 0.80685848
-0.0025361667 0.039107494 0.80698431
-0.0022755591 0.039289076 0.8071264
-0.0020292394 0.039474688 0.80728436
-0.0017984598 0.039663773 0.8074581
-0.0015849116 0.039855704 0.80764753
-0.001390792 0.040049721 0.8078528
-0.0012189288 0.040244844 0.80807412
-0.0010729666 0.040439751 0.8083114
-0.00095761922 0.040632561 0.80856466
-0.00087898161 0.040820502 0.80883288
-0.00084484887 0.04099929 0.80911386
-0.0008647432 0.041161783 0.80940151
-0.00090164435 0.04123858 0.80955487
-0.0040209405 0.03829553 0.80655158
-0.0043526371 0.038160771 0.80653381
-0.0046832096 0.038038593 0.80653667
-0.0050141378 0.037927549 0.80655855
-0.0053449422 0.037827514 0.80659902
-0.0056746863 0.037738819 0.80665803
-0.00600217 0.037662074 0.80673575
-0.0063259155 0.037598159 0.80683291
-0.0066440739 0.03754824 0.80695015
-0.0069542686 0.037513819 0.80708861
-0.0072533595 0.037496801 0.80724949
-0.0075370795 0.037499588 0.80743414
-0.0077994852 0.037525132 0.80764377
-0.0080320844 0.037576906 0.80787891
-0.0082221767 0.037658356 0.80813736
-0.0083005102 0.037715428 0.80828363
-0.005845034 0.040414594 0.81129509
-0.0061484179 0.040246941 0.81120372
-0.0064359684 0.040074784 0.8110947
-0.0067100744 0.039897729 0.81096882
-0.0069706822 0.039716147 0.81082672
-0.0072170016 0.039530538 0.81066877
-0.0074477815 0.03934145 0.81049508
-0.0076613296 0.039149519 0.81030566
-0.0078554489 0.038955502 0.81010032
-0.0080273123 0.038760383 0.80987906
-0.0081732748 0.038565475 0.80964172
-0.0082886219 0.038372662 0.80938852
-0.00836726 0.038184721 0.8091203
-0.008401392 0.038005937 0.80883932
-0.008381498 0.037843443 0.80855167
-0.0083445972 0.037766643 0.80839825
-0.0052082865 0.040677894 0.81131363
-0.0048878742 0.04080807 0.81133074
-0.0045685479 0.040926091 0.81132799
-0.004248878 0.041033361 0.81130683
-0.0039293277 0.041129991 0.81126779
-0.0036108019 0.041215669 0.81121081
-0.0032944593 0.041289803 0.81113565
-0.0029817275 0.041351542 0.81104183
-0.0026743931 0.041399762 0.81092858
-0.0023747513 0.041433014 0.81079483
-0.0020858354 0.04144945 0.81063944
-0.001811768 0.041446757 0.81046104
-0.0015582893 0.041422084 0.81025857
-0.0013336035 0.041372072 0.81003141
-0.0011499778 0.04129339 0.80978179
-0.0010743092 0.041238263 0.80964053
-0.0034462495 0.038630925 0.80673146
-0.0031531865 0.038792871 0.80681974
-0.0028754186 0.038959172 0.80692506
-0.0026106376 0.039130203 0.80704665
-0.002358896 0.039305609 0.80718386
-0.0021209563 0.039484903 0.80733645
-0.0018980278 0.039667558 0.80750424
-0.0016917448 0.039852962 0.80768728
-0.001504229 0.040040374 0.80788559
-0.0013382128 0.040228859 0.80809933
-0.0011972162 0.040417135 0.80832857
-0.0010857931 0.040603388 0.80857319
-0.0010098306 0.040784936 0.80883229
-0.00097685913 0.040957637 0.80910373
-0.0009960765 0.041114602 0.8093816
-0.0010317222 0.041188791 0.80952978
-0.0040448988 0.038345862 0.80662858
-0.0043653115 0.038215689 0.80661142
-0.0046846373 0.038097668 0.80661416
-0.0050043077 0.037990399 0.80663532
-0.0053238575 0.037893768 0.80667442
-0.0056423834 0.03780809 0.8067314
-0.0059587262 0.037733957 0.80680656
-0.0062714578 0.037672218 0.80690038
-0.0065787924 0.037623998 0.80701363
-0.0068784342 0.037590746 0.80714738
-0.00716735 0.03757431 0.80730277
-0.0074414173 0.037577 0.80748111
-0.0076948963 0.037601676 0.80768365
-0.0079195816 0.037651688 0.8079108
-0.0081032077 0.037730366 0.80816042
-0.0081788758 0.037785497 0.80830169
-0.005806936 0.040392835 0.81121075
-0.006099999 0.040230889 0.81112248
-0.0063777668 0.040064588 0.81101716
-0.0066425479 0.039893553 0.81089556
-0.0068942895 0.039718151 0.81075835
-0.0071322289 0.039538853 0.81060576
-0.0073551578 0.039356202 0.81043792
-0.0075614406 0.039170798 0.81025493
-0.0077489563 0.038983382 0.81005663
-0.0079149725 0.038794901 0.80984288
-0.0080559691 0.038606625 0.80961365
-0.0081673926 0.038420372 0.80936903
-0.008243355 0.038238823 0.80910993
-0.0082763266 0.038066123 0.80883849
-0.0082571087 0.037909154 0.80856061
-0.0082214633 0.037834968 0.80841243
-0.0051911296 0.040645719 0.81122583
-0.0048820022 0.040771306 0.8112424
-0.0045739226 0.040885173 0.81123978
-0.0042655114 0.040988661 0.81121933
-0.0039572157 0.04108189 0.8111816
-0.0036499084 0.041164551 0.81112665
-0.0033447074 0.041236073 0.81105417
-0.0030429901 0.041295636 0.81096369
-0.0027464801 0.041342162 0.81085438
-0.0024573915 0.04137424 0.81072533
-0.0021786517 0.041390099 0.81057543
-0.0019142366 0.041387502 0.81040335
-0.0016696856 0.041363694 0.81020796
-0.0014529132 0.041315444 0.8099888
-0.0012757549 0.041239534 0.80974799
-0.0012027514 0.041186348 0.80961168
-0.0034911514 0.038670842 0.80680507
-0.0032084102 0.038827084 0.80689025
-0.0029404254 0.038987525 0.80699188
-0.0026849699 0.039152537 0.80710918
-0.0024420947 0.039321762 0.80724156
-0.0022125354 0.039494742 0.80738878
-0.0019974585 0.039670963 0.80755067
-0.0017984406 0.039849836 0.80772722
-0.0016175292 0.040030651 0.80791855
-0.0014573599 0.040212497 0.80812478
-0.0013213296 0.040394142 0.80834597
-0.0012138305 0.040573835 0.80858195
-0.0011405437 0.040748987 0.80883193
-0.0011087334 0.040915608 0.80909377
-0.001127274 0.041067045 0.80936188
-0.0011616643 0.041138619 0.80950481
-0.0040687164 0.038395818 0.80670583
-0.0043778438 0.038270228 0.80668932
-0.0046859235 0.038156364 0.80669194
-0.0049943347 0.038052876 0.80671233
-0.0053026304 0.037959646 0.80675006
-0.0056099375 0.037876986 0.80680501
-0.0059151389 0.037805464 0.80687749
-0.0062168557 0.037745897 0.80696803
-0.006513366 0.037699375 0.80707735
-0.0068024546 0.037667297 0.80720633
-0.0070811943 0.037651438 0.8073563
-0.0073456094 0.037654035 0.80752838
-0.0075901602 0.037677843 0.80772376
-0.007806933 0.037726093 0.80794287
-0.0079840915 0.037802 0.80818373
-0.0080570951 0.037855189 0.80832005
-0.0057686944 0.040370695 0.81112665
-0.0060514356 0.040214453 0.81104147
-0.0063194204 0.040054008 0.81093985
-0.0065748761 0.039889 0.81082255
-0.0068177511 0.039719775 0.8106901
-0.0070473105 0.039546791 0.81054294
-0.0072623878 0.039370574 0.81038105
-0.0074614054 0.039191701 0.81020451
-0.0076423166 0.039010886 0.81001318
-0.007802486 0.03882904 0.80980694
-0.0079385163 0.038647395 0.80958575
-0.0080460152 0.038467702 0.80934978
-0.0081193028 0.03829255 0.80909979
-0.0081511131 0.038125928 0.80883789
-0.0081325723 0.037974492 0.80856985
-0.0080981823 0.037902918 0.80842686
-0.0051738322 0.040613163 0.81113833
-0.0048759901 0.040734168 0.81115425
-0.004579158 0.040843878 0.81115168
-0.0042820061 0.040943589 0.81113201
-0.0039849654 0.041033413 0.81109571
-0.0036888772 0.041113056 0.81104273
-0.0033948182 0.041181967 0.81097293
-0.0031041161 0.041239358 0.81088567
-0.002818431 0.041284181 0.81078041
-0.0025398962 0.04131509 0.81065607
-0.0022713323 0.041330371 0.81051165
-0.0020165707 0.041327868 0.81034583
-0.0017809476 0.041304931 0.8101576
-0.001572089 0.041258439 0.80994642
-0.0014013982 0.041185305 0.80971444
-0.00133106 0.041134059 0.80958307
-0.0035359161 0.038710386 0.80687892
-0.0032634973 0.038860925 0.806961
-0.0030052958 0.039015509 0.80705887
-0.0027591663 0.039174493 0.80717194
-0.002525158 0.039337542 0.80729949
-0.0023039791 0.039504211 0.80744135
-0.002096754 0.039673995 0.80759728
-0.001905002 0.039846338 0.80776739
-0.0017306954 0.040020552 0.80795175
-0.0015763734 0.040195759 0.80815047
-0.001445309 0.040370774 0.80836356
-0.0013417347 0.040543906 0.80859095
-0.0012711233 0.040712662 0.80883181
-0.0012404744 0.0408732 0.80908406
-0.0012583381 0.041019108 0.80934238
-0.0012914728 0.041088071 0.80948013
-0.0040923958 0.038445406 0.80678332
-0.0043902379 0.038324401 0.8067674
-0.0046870694 0.038214691 0.80676991
-0.0049842214 0.03811498 0.80678958
-0.0052812621 0.038025156 0.80682594
-0.0055773505 0.037945513 0.80687886
-0.0058714091 0.037876602 0.80694872
-0.0061621116 0.03781921 0.80703592
-0.0064477967 0.037774388 0.80714124
-0.0067263315 0.037743479 0.80726558
-0.0069948952 0.037728198 0.80741
-0.0072496571 0.037730701 0.80757582
-0.0074852803 0.037753638 0.80776405
-0.0076941387 0.03780013 0.80797517
-0.0078648292 0.037873264 0.80820721
-0.0079351673 0.037924509 0.80833858
-0.0057303114 0.040348183 0.81104273
-0.0060027302 0.040197644 0.81096065
-0.0062609315 0.04004306 0.81086272
-0.0065070614 0.039884076 0.81074971
-0.0067410697 0.039721027 0.81062216
-0.0069622486 0.039554358 0.8104803
-0.0071694735 0.039384574 0.81032431
-0.0073612258 0.039212231 0.8101542
-0.0075355321 0.039038017 0.8099699
-0.0076898541 0.03886281 0.80977118
-0.0078209182 0.038687795 0.80955809
-0.0079244925 0.038514663 0.8093307
-0.0079951044 0.038345907 0.80908984
-0.0080257533 0.038185369 0.80883753
-0.0080078896 0.038039461 0.80857927
-0.007974755 0.037970498 0.80844152
-0.0051563936 0.040580235 0.81105101
-0.0048698378 0.040696658 0.81106633
-0.0045842538 0.040802207 0.81106389
-0.0042983619 0.040898141 0.81104493
-0.0040125772 0.04098456 0.81101
-0.0037277082 0.041061185 0.81095904
-0.0034447922 0.041127488 0.81089187
-0.0031651056 0.041182704 0.81080794
-0.0028902458 0.041225828 0.81070662
-0.0026222656 0.041255563 0.81058705
-0.0023638783 0.041270263 0.81044805
-0.0021187705 0.041267857 0.81028855
-0.0018920756 0.041245788 0.81010741
-0.0016911316 0.041201063 0.80990428
-0.0015269087 0.041130695 0.80968106
-0.0014592357 0.041081391 0.8095547
-0.0035805434 0.038749561 0.80695301
-0.0033184472 0.038894396 0.80703193
-0.0030700299 0.039043121 0.80712616
-0.0028332272 0.039196081 0.80723488
-0.002608086 0.039352953 0.80735761
-0.0023952881 0.039513305 0.8074941
-0.0021959157 0.039676659 0.80764419
-0.0020114295 0.039842468 0.8078078
-0.0018437277 0.04001008 0.80798519
-0.0016952535 0.040178649 0.80817634
-0.0015691556 0.040347029 0.80838138
-0.001469506 0.040513601 0.80860013
-0.0014015702 0.040675964 0.80883187
-0.0013720829 0.040830418 0.80907458
-0.0013892695 0.040970799 0.80932313
-0.0014211485 0.041037146 0.80945563
-0.0041159363 0.03849462 0.80686104
-0.0044024922 0.038378201 0.80684566
-0.0046880762 0.038272649 0.80684811
-0.0049739685 0.038176715 0.80686706
-0.0052597532 0.038090296 0.80690199
-0.005544622 0.038013671 0.80695295
-0.0058275377 0.037947372 0.80702019
-0.0061072246 0.037892155 0.80710405
-0.0063820845 0.037849028 0.80720538
-0.0066500646 0.037819292 0.80732501
-0.0069084517 0.037804592 0.80746394
-0.0071535595 0.037806999 0.80762351
-0.0073802546 0.037829068 0.80780458
-0.0075811986 0.037873797 0.80800772
-0.0077454215 0.03794416 0.808231
-0.0078130942 0.037993465 0.80835736
-0.0056917868 0.040325295 0.81095898
-0.0059538828 0.040180463 0.81088006
-0.0062023001 0.040031735 0.81078589
-0.0064391028 0.039878774 0.81067711
-0.006664244 0.039721902 0.81055439
-0.0068770419 0.039561555 0.81041789
-0.0070764143 0.039398201 0.81026787
-0.0072609005 0.039232388 0.81010419
-0.0074286023 0.039064776 0.80992687
-0.0075770766 0.03889621 0.80973566
-0.0077031744 0.038727827 0.80953062
-0.007802824 0.038561255 0.80931187
-0.0078707598 0.038398892 0.80908012
-0.0079002474 0.038244437 0.80883741
-0.0078830607 0.038104057 0.80858892
-0.0078511816 0.03803771 0.80845636
-0.0051388163 0.040546939 0.81096387
-0.0048635467 0.040658772 0.81097859
-0.0045892112 0.040760167 0.81097627
-0.00431458 0.040852319 0.81095809
-0.0040400517 0.040935338 0.81092453
-0.0037664031 0.041008942 0.81087554
-0.0034946303 0.041072633 0.81081098
-0.0032259598 0.041125674 0.8107304
-0.0029619262 0.041167099 0.81063306
-0.0027045014 0.041195665 0.81051821
-0.0024562913 0.041209787 0.81038469
-0.0022208374 0.041207474 0.81023145
-0.0020030718 0.041186277 0.81005746
-0.0018100423 0.041143309 0.80986232
-0.0016522878 0.041075718 0.80964792
-0.0015872803 0.041028354 0.8095265
-0.0036250346 0.038788367 0.80702734
-0.0033732618 0.038927499 0.80710316
-0.0031346292 0.039070368 0.80719364
-0.0029071535 0.039217304 0.80729806
-0.0026908801 0.039367992 0.80741602
-0.0024864639 0.039522029 0.80754709
-0.0022949441 0.03967895 0.80769122
-0.0021177244 0.039838228 0.80784845
-0.0019566279 0.039999239 0.8080188
-0.0018140022 0.040161166 0.80820245
-0.0016928709 0.040322915 0.80839944
-0.0015971462 0.040482927 0.80860955
-0.0015318862 0.040638898 0.80883217
-0.0015035601 0.040787268 0.80906534
-0.0015200699 0.040922116 0.80930406
-0.0015506934 0.040985852 0.80943137
-0.0041393396 0.03854347 0.80693895
-0.0044146087 0.038431633 0.80692422
-0.0046889447 0.038330242 0.80692655
-0.0049635759 0.038238086 0.80694473
-0.0052381041 0.038155071 0.80697834
-0.0055117528 0.038081463 0.80702728
-0.0057835253 0.038017776 0.80709183
-0.006052196 0.037964731 0.80717242
-0.0063162297 0.037923306 0.80726975
-0.0065736542 0.037894741 0.80738461
-0.0068218643 0.037880618 0.80751812
-0.0070573185 0.037882932 0.80767137
-0.007275084 0.037904132 0.80784535
-0.0074681132 0.037947096 0.8080405
-0.0076258681 0.038014691 0.80825496
-0.0076908753 0.038062051 0.80837631
-0.005653121 0.040302038 0.81087554
-0.0059048939 0.04016291 0.81079966
-0.0061435266 0.040020041 0.81070918
-0.0063710026 0.039873105 0.81060475
-0.0065872758 0.039722413 0.81048685
-0.0067916918 0.039568376 0.81035572
-0.0069832117 0.039411459 0.8102116
-0.0071604312 0.039252177 0.81005436
-0.0073215277 0.03909117 0.80988401
-0.0074641537 0.038929239 0.80970037
-0.0075852848 0.038767491 0.80950344
-0.0076810098 0.038607478 0.80929327
-0.0077462695 0.038451511 0.80907065
-0.0077745956 0.038303141 0.80883747
-0.0077580861 0.038168289 0.80859876
-0.0077274623 0.038104557 0.8084715
-0.0051210998 0.04051327 0.81087697
-0.0048571182 0.040620517 0.81089109
-0.0045940317 0.040717755 0.81088883
-0.0043306616 0.04080613 0.81087142
-0.0040673902 0.040885743 0.81083924
-0.0038049628 0.04095633 0.81079227
-0.0035443343 0.041017409 0.8107304
-0.0032866807 0.041068275 0.81065309
-0.0030334739 0.041108001 0.81055975
-0.0027866047 0.041135397 0.81044954
-0.0025485726 0.041148938 0.81032157
-0.0023227734 0.041146722 0.81017458
-0.0021139372 0.041126393 0.81000775
-0.0019288232 0.041085187 0.80982059
-0.0017775374 0.041020364 0.80961496
-0.0017151955 0.040974945 0.80949855
-0.0036693914 0.038826808 0.80710185
-0.0034279425 0.038960233 0.80717456
-0.0031990949 0.039097246 0.80726135
-0.0029809468 0.039238155 0.80736148
-0.0027735417 0.03938267 0.80747455
-0.0025775079 0.039530389 0.80760032
-0.0023938413 0.039680872 0.80773854
-0.0022238886 0.03983362 0.80788928
-0.0020693981 0.03998803 0.80805266
-0.0019326204 0.040143318 0.80822879
-0.0018164562 0.040298436 0.80841768
-0.0017246567 0.040451884 0.8086192
-0.0016620727 0.040601458 0.80883271
-0.0016349083 0.040743742 0.80905628
-0.0016507411 0.040873066 0.80928522
-0.0016801088 0.040934186 0.80940729
-0.0041626072 0.038591955 0.80701709
-0.0044265888 0.038484704 0.80700296
-0.0046896753 0.03838747 0.80700523
-0.0049530454 0.038299095 0.80702263
-0.0052163168 0.038219482 0.80705488
-0.0054787439 0.038148891 0.80710179
-0.0057393727 0.038087815 0.80716372
-0.0059970263 0.03803695 0.80724096
-0.0062502334 0.03799722 0.8073343
-0.0064971023 0.037969828 0.80744451
-0.0067351344 0.037956282 0.80757254
-0.0069609336 0.037958503 0.80771947
-0.0071697696 0.037978832 0.8078863
-0.0073548839 0.038020037 0.80807346
-0.0075061698 0.038084857 0.8082791
-0.0075685116 0.038130276 0.80839556
-0.0056143156 0.040278412 0.81079227
-0.0058557643 0.040144987 0.81071955
-0.0060846121 0.040007979 0.81063277
-0.0063027604 0.039867066 0.81053257
-0.0065101655 0.039722554 0.8104195
-0.0067061991 0.039574835 0.81029379
-0.0068898657 0.039424352 0.81015557
-0.0070598186 0.039271601 0.81000477
-0.0072143092 0.039117195 0.80984139
-0.0073510865 0.038961906 0.80966526
-0.0074672508 0.038806789 0.80947638
-0.0075590503 0.03865334 0.80927485
-0.0076216343 0.038503766 0.80906141
-0.0076487986 0.038361479 0.80883777
-0.0076329662 0.038232159 0.80860883
-0.0076035983 0.038171038 0.80848676
-0.0051032458 0.040479235 0.8107903
-0.0048505529 0.040581897 0.81080383
-0.0045987163 0.040674977 0.81080168
-0.0043466082 0.040759571 0.810785
-0.0040945946 0.040835779 0.81075412
-0.0038433892 0.040903352 0.81070924
-0.0035939056 0.040961817 0.81064993
-0.0033472695 0.041010506 0.81057596
-0.0031048902 0.041048538 0.81048661
-0.0028685776 0.04107476 0.81038117
-0.0026407239 0.041087724 0.81025863
-0.0024245805 0.041085601 0.81011796
-0.0022246744 0.04106614 0.80995822
-0.0020474761 0.041026697 0.80977911
-0.0019026594 0.040964648 0.80958223
-0.0018429836 0.04092117 0.80947077
-0.0037136148 0.038864892 0.80717659
-0.0034824908 0.03899261 0.80724621
-0.003263429 0.039123762 0.80732924
-0.0030546093 0.039258648 0.80742514
-0.0028560734 0.039396983 0.80753338
-0.0026684219 0.039538383 0.80765373
-0.0024926094 0.039682433 0.80778605
-0.0023299241 0.039828651 0.80793035
-0.0021820399 0.039976455 0.80808675
-0.0020511111 0.040125102 0.80825531
-0.0019399141 0.040273588 0.80843616
-0.0018520402 0.040420476 0.80862904
-0.0017921324 0.040563654 0.80883342
-0.0017661295 0.040699854 0.80904746
-0.0017812852 0.040823646 0.80926663
-0.0018093972 0.040882152 0.80938345
-0.0041857399 0.038640078 0.80709547
-0.0044384333 0.038537417 0.80708194
-0.0046902699 0.038444337 0.80708408
-0.004942378 0.038359739 0.80710077
-0.0051943911 0.038283534 0.80713159
-0.0054455968 0.038215961 0.80717653
-0.0056950804 0.038157497 0.80723578
-0.0059417165 0.038108807 0.80730981
-0.006184096 0.038070776 0.80739909
-0.0064204084 0.038044553 0.80750459
-0.006648262 0.038031589 0.80762714
-0.0068644057 0.038033713 0.80776781
-0.0070643118 0.038053174 0.80792755
-0.0072415099 0.038092617 0.80810666
-0.0073863268 0.038154665 0.80830353
-0.0074460027 0.038198143 0.80841494
-0.0055753714 0.040254422 0.81070918
-0.0058064954 0.040126704 0.81063956
-0.0060255569 0.039995551 0.81055647
-0.0062343767 0.039860666 0.81046063
-0.0064329128 0.039722331 0.81035239
-0.006620564 0.03958093 0.81023204
-0.0067963768 0.03943688 0.81009972
-0.0069590621 0.039290663 0.80995536
-0.0071069463 0.039142858 0.80979896
-0.0072378749 0.038994212 0.80963039
-0.007349072 0.038845725 0.80944961
-0.007436946 0.038698837 0.80925667
-0.0074968538 0.038555659 0.80905235
-0.0075228564 0.038419459 0.80883831
-0.0075077009 0.038295668 0.80861914
-0.007479589 0.038237162 0.80850232
-0.005085256 0.04044484 0.81070381
-0.0048438516 0.040542915 0.81071675
-0.0046032658 0.040631834 0.81071466
-0.0043624206 0.040712651 0.81069875
-0.0041216663 0.040785454 0.8106693
-0.0038816833 0.040850006 0.81062633
-0.0036433451 0.040905859 0.81056976
-0.0034077277 0.040952377 0.81049907
-0.0031761767 0.040988706 0.81041372
-0.0029504213 0.041013759 0.81031293
-0.0027327472 0.041026141 0.81019586
-0.00252626 0.041024111 0.81006151
-0.0023352846 0.041005522 0.80990893
-0.0021660028 0.040967841 0.8097378
-0.002027656 0.040908564 0.80954969
-0.001970646 0.040867031 0.80944324
-0.0037577066 0.038902614 0.80725151
-0.003536908 0.039024629 0.80731803
-0.0033276328 0.039149921 0.80739743
-0.0031281421 0.039278779 0.80748898
-0.0029384757 0.039410934 0.80759239
-0.0027592077 0.039546017 0.80770737
-0.0025912498 0.039683633 0.80783379
-0.0024358323 0.039823316 0.80797166
-0.0022945548 0.039964519 0.80812109
-0.0021694754 0.040106528 0.80828214
-0.002063246 0.040248375 0.80845481
-0.001979298 0.040388703 0.80863911
-0.0019220664 0.040525485 0.80883437
-0.0018972254 0.040655602 0.80903882
-0.0019117041 0.040773861 0.80924821
-0.00193856 0.040829755 0.80935985
-0.0042087394 0.038687844 0.80717403
-0.0044501438 0.038589768 0.80716109
-0.0046907295 0.038500849 0.80716318
-0.0049315747 0.038420033 0.80717915
-0.005172329 0.038347229 0.8072086
-0.0054123122 0.038282678 0.80725151
-0.0056506502 0.038226824 0.80730808
-0.0058862674 0.038180307 0.80737877
-0.0061178184 0.038143978 0.80746412
-0.0063435738 0.038118925 0.80756491
-0.0065612481 0.038106542 0.80768198
-0.0067677354 0.038108569 0.80781639
-0.0069587105 0.038127162 0.80796891
-0.0071279923 0.038164843 0.80814004
-0.0072663394 0.03822412 0.80832815
-0.0073233494 0.038265653 0.80843461
-0.0055362885 0.040230069 0.81062633
-0.0057570874 0.040108055 0.81055981
-0.0059663625 0.039982762 0.81048048
-0.0061658532 0.039853901 0.81038886
-0.0063555194 0.03972175 0.81028545
-0.0065347874 0.039586663 0.81017047
-0.0067027458 0.039449051 0.81004405
-0.006858163 0.039309364 0.80990618
-0.0069994405 0.039168164 0.80975682
-0.0071245199 0.039026156 0.80959576
-0.0072307494 0.038884304 0.80942303
-0.0073146974 0.03874398 0.80923873
-0.007371929 0.038607199 0.80904353
-0.0073967697 0.038477082 0.80883902
-0.0073822914 0.038358822 0.80862969
-0.0073554353 0.038302928 0.80851805
-0.0050671301 0.040410079 0.81061751
-0.0048370156 0.040503569 0.81062984
-0.0046076817 0.04058833 0.81062788
-0.0043781009 0.040665369 0.81061268
-0.0041486057 0.040734768 0.8105846
-0.0039198464 0.040796299 0.81054372
-0.0036926551 0.04084954 0.81048971
-0.0034680571 0.040893883 0.81042236
-0.0032473356 0.040928513 0.810341
-0.0030321381 0.040952392 0.81024498
-0.0028246446 0.040964197 0.81013334
-0.0026278142 0.040962264 0.81000525
-0.0024457707 0.040944543 0.80985981
-0.0022844055 0.040908623 0.80969667
-0.0021525288 0.040852118 0.80951738
-0.0020981852 0.040812526 0.80941594
-0.0038016681 0.038939983 0.80732673
-0.0035911959 0.03905629 0.80739009
-0.0033917082 0.039175726 0.80746573
-0.0032015473 0.039298557 0.80755305
-0.0030207513 0.039424531 0.80765164
-0.0028498676 0.039553296 0.80776125
-0.0026897644 0.039684474 0.80788171
-0.0025416156 0.039817628 0.80801314
-0.0024069457 0.039952226 0.8081556
-0.0022877157 0.040087592 0.80830908
-0.0021864548 0.040222809 0.80847377
-0.0021064328 0.040356569 0.80864942
-0.002051878 0.040486954 0.80883551
-0.0020281984 0.040610984 0.80903041
-0.0020419999 0.040723715 0.80922997
-0.0020675999 0.040776994 0.80933642
-0.0042316071 0.038735259 0.80725282
-0.0044617211 0.038641769 0.80724055
-0.004691055 0.038557008 0.80724251
-0.0049206358 0.038479973 0.80725771
-0.0051501309 0.038410574 0.80728579
-0.0053788903 0.03834904 0.80732667
-0.0056060818 0.038295798 0.80738062
-0.0058306796 0.03825146 0.80744803
-0.0060514011 0.038216826 0.80752939
-0.0062665986 0.038192946 0.80762541
-0.0064740921 0.038181141 0.80773705
-0.0066709225 0.038183074 0.80786514
-0.0068529663 0.038200796 0.80801058
-0.0070143314 0.038236715 0.80817372
-0.0071462081 0.03829322 0.80835295
-0.0072005517 0.038332812 0.80845445
-0.0054970686 0.040205356 0.81054366
-0.005707541 0.040089048 0.8104803
-0.0059070284 0.039969616 0.8104046
-0.0060971896 0.039846782 0.81031728
-0.0062779854 0.039720811 0.81021875
-0.0064488691 0.039592043 0.81010914
-0.0066089723 0.039460864 0.80998862
-0.0067571211 0.039327711 0.80985725
-0.0068917912 0.039193112 0.80971479
-0.007011021 0.039057747 0.80956131
-0.0071122819 0.038922533 0.80939662
-0.0071923039 0.038788769 0.80922097
-0.0072468589 0.038658384 0.80903488
-0.0072705382 0.038534354 0.80883998
-0.007256737 0.038421623 0.80864042
-0.0072311368 0.038368344 0.80853397
-0.0050488696 0.040374964 0.81053144
-0.0048300466 0.040463865 0.81054318
-0.0046119653 0.040544469 0.81054127
-0.0043936493 0.040617727 0.81052685
-0.0041754153 0.04068372 0.81050014
-0.0039578807 0.040742233 0.81046122
-0.0037418369 0.04079286 0.8104099
-0.0035282592 0.040835027 0.81034583
-0.003318368 0.040867958 0.81026852
-0.0031137296 0.040890664 0.81017715
-0.0029164173 0.040901892 0.81007105
-0.002729245 0.040900052 0.80994922
-0.0025561338 0.040883202 0.80981094
-0.0024026865 0.040849045 0.80965579
-0.0022772809 0.040795311 0.80948532
-0.0022256037 0.040757664 0.80938882
-0.0038455008 0.038977001 0.80740213
-0.0036453558 0.039087601 0.80746239
-0.0034556566 0.039201174 0.80753434
-0.0032748266 0.03931798 0.80761737
-0.0031029016 0.039437771 0.80771106
-0.0029404026 0.039560221 0.80781531
-0.0027881556 0.039684962 0.80792987
-0.002647276 0.039811581 0.80805486
-0.0025192138 0.039939575 0.80819029
-0.0024058344 0.040068299 0.80833626
-0.0023095419 0.040196881 0.80849284
-0.0022334466 0.040324081 0.80865991
-0.0021815686 0.040448066 0.80883688
-0.0021590509 0.040566012 0.80902225
-0.0021721753 0.040673211 0.80921197
-0.0021965192 0.040723875 0.80931318
-0.0042543435 0.038782321 0.80733186
-0.0044731665 0.038693421 0.80732018
-0.0046912474 0.03861282 0.80732203
-0.0049095638 0.038539562 0.80733645
-0.0051277978 0.038473569 0.80736315
-0.0053453324 0.038415056 0.80740207
-0.005561376 0.038364425 0.80745339
-0.0057749539 0.038322259 0.80751747
-0.0059848451 0.038289327 0.80759484
-0.0061894832 0.038266622 0.80768615
-0.006386796 0.038255394 0.80779231
-0.0065739681 0.038257234 0.80791408
-0.0067470791 0.038274083 0.80805242
-0.0069005266 0.03830824 0.80820751
-0.007025932 0.038361974 0.80837798
-0.0070776092 0.038399622 0.80847448
-0.0054577123 0.040180285 0.81046122
-0.0056578573 0.040069684 0.8104009
-0.0058475565 0.039956111 0.81032902
-0.0060283868 0.039839305 0.81024593
-0.0062003112 0.039719515 0.81015223
-0.0063628103 0.039597064 0.81004804
-0.0065150573 0.039472323 0.80993342
-0.0066559371 0.039345704 0.80980843
-0.006783999 0.03921771 0.80967301
-0.0068973787 0.039088987 0.80952704
-0.0069936709 0.038960405 0.80937046
-0.0070697665 0.038833205 0.80920345
-0.0071216444 0.03870922 0.80902648
-0.007144162 0.038591273 0.80884111
-0.0071310378 0.038484074 0.80865133
-0.0071066939 0.03843341 0.80855012
-0.0050304756 0.040339492 0.81044561
-0.0048229448 0.040423807 0.81045669
-0.0046161176 0.04050025 0.81045491
-0.0044090678 0.040569726 0.8104412
-0.0042020953 0.040632315 0.81041586
-0.0039957869 0.040687807 0.81037897
-0.003790892 0.040735826 0.81033033
-0.0035883361 0.040775813 0.81026953
-0.0033892761 0.040807046 0.81019616
-0.0031951983 0.040828582 0.81010956
-0.0030080681 0.040839229 0.81000888
-0.0028305547 0.040837485 0.80989337
-0.002666377 0.040821504 0.80976224
-0.0025208485 0.040789109 0.80961508
-0.002401914 0.04073815 0.80945343
-0.0023529038 0.040702444 0.80936188
-0.0038892063 0.039013673 0.80747771
-0.0036993898 0.039118566 0.80753487
-0.0035194801 0.039226279 0.80760312
-0.0033479815 0.039337054 0.80768186
-0.003184929 0.039450664 0.80777073
-0.0030308156 0.039566793 0.80786961
-0.0028864252 0.0396851 0.80797827
-0.0027528158 0.039805185 0.80809677
-0.0026313623 0.03992657 0.80822521
-0.0025238337 0.040048651 0.80836368
-0.0024325105 0.040170599 0.80851215
-0.0023603416 0.040291235 0.80867058
-0.002311141 0.040408824 0.80883843
-0.0022897855 0.040520683 0.8090142
-0.0023022324 0.04062235 0.80919421
-0.0023253202 0.040670399 0.80929017
-0.0042769508 0.03882904 0.80741107
-0.0044844816 0.038744725 0.80739999
-0.0046913084 0.038668282 0.80740178
-0.0048983586 0.038598806 0.80741549
-0.0051053306 0.038536217 0.80744076
-0.0053116395 0.038480725 0.80747771
-0.0055165342 0.038432706 0.80752635
-0.0057190903 0.038392719 0.80758715
-0.0059181503 0.038361486 0.80766046
-0.0061122281 0.03833995 0.80774713
-0.0062993583 0.038329303 0.80784774
-0.0064768717 0.038331047 0.80796331
-0.0066410494 0.038347028 0.80809444
-0.0067865779 0.038379423 0.80824155
-0.006905512 0.038430382 0.80840325
-0.0069545223 0.038466088 0.80849475
-0.0054182201 0.040154859 0.81037897
-0.0056080362 0.040049966 0.81032181
-0.0057879463 0.039942253 0.81025356
-0.0059594447 0.039831474 0.81017482
-0.0061224974 0.039717868 0.81008589
-0.0062766108 0.039601736 0.80998707
-0.0064210012 0.039483432 0.80987841
-0.0065546106 0.039363347 0.80975986
-0.0066760639 0.039241958 0.80963147
-0.0067835925 0.039119881 0.80949301
-0.0068749157 0.038997933 0.80934447
-0.0069470848 0.038877297 0.8091861
-0.0069962852 0.038759708 0.80901825
-0.0070176409 0.038647849 0.80884242
-0.0070051937 0.038546182 0.80866247
-0.0069821062 0.038498133 0.80856651
-0.0050119488 0.04030367 0.8103599
-0.0048157116 0.040383395 0.81037039
-0.00462014 0.040455677 0.81036872
-0.0044243573 0.040521372 0.81035578
-0.0042286483 0.040580556 0.81033182
-0.0040335665 0.04063303 0.81029695
-0.0038398223 0.04067843 0.81025094
-0.0036482892 0.040716246 0.81019348
-0.0034600617 0.040745776 0.8101241
-0.0032765456 0.040766142 0.81004214
-0.0030995989 0.040776208 0.80994701
-0.0029317457 0.040774561 0.80983776
-0.0027765024 0.040759448 0.80971372
-0.0026388932 0.040728819 0.8095746
-0.0025264313 0.040680632 0.80942172
-0.002480088 0.040646866 0.80933517
-0.0039327862 0.039049998 0.80755353
-0.0037532996 0.039149184 0.80760759
-0.0035831803 0.039251033 0.80767214
-0.0034210146 0.039355785 0.80774659
-0.0032668351 0.039463211 0.80783063
-0.0031211085 0.039573021 0.80792409
-0.0029845757 0.039684888 0.80802685
-0.0028582371 0.039798435 0.80813891
-0.0027433929 0.039913218 0.80826038
-0.002641716 0.040028654 0.80839127
-0.0025553626 0.040143967 0.8085317
-0.0024871214 0.040258035 0.80868149
-0.0024405981 0.040369224 0.80884022
-0.0024204047 0.040474996 0.80900645
-0.0024321743 0.040571131 0.80917662
-0.0024540054 0.040616568 0.80926734
-0.0042994302 0.038875412 0.80749053
-0.0044956673 0.038795687 0.80748004
-0.004691239 0.038723405 0.80748171
-0.0048870211 0.038657706 0.8074947
-0.0050827302 0.038598526 0.8075186
-0.005277812 0.038546052 0.80755353
-0.0054715564 0.038500648 0.80759954
-0.0056630895 0.038462836 0.807657
-0.0058513167 0.038433302 0.80772638
-0.0060348329 0.03841294 0.80780828
-0.00621178 0.03840287 0.80790347
-0.0063796327 0.038404521 0.80801266
-0.0065348763 0.038419634 0.8081367
-0.0066724853 0.038450263 0.80827582
-0.0067849471 0.03849845 0.8084287
-0.0068312907 0.038532212 0.80851525
-0.0053785923 0.040129084 0.81029689
-0.0055580791 0.040029898 0.81024283
-0.0057281982 0.039928049 0.81017834
-0.0058903643 0.039823297 0.81010389
-0.0060445438 0.039715871 0.81001979
-0.0061902702 0.039606061 0.80992633
-0.006326803 0.039494194 0.80982357
-0.0064531416 0.039380644 0.80971152
-0.0065679858 0.039265864 0.80959004
-0.0066696624 0.039150424 0.80945915
-0.0067560161 0.039035115 0.80931872
-0.0068242573 0.038921043 0.80916893
-0.0068707806 0.038809855 0.80901021
-0.006890974 0.038704082 0.80884403
-0.0068792044 0.038607951 0.8086738
-0.0068573733 0.038562514 0.80858308
-0.0049932897 0.040267494 0.81027442
-0.0048083477 0.040342633 0.81028432
-0.0046240329 0.040410753 0.81028271
-0.0044395197 0.040472668 0.81027049
-0.0042550755 0.040528443 0.81024796
-0.0040712222 0.040577896 0.81021506
-0.0038886294 0.040620688 0.81017172
-0.0037081207 0.040656324 0.81011754
-0.0035307275 0.040684156 0.81005216
-0.0033577741 0.040703349 0.80997497
-0.0031910122 0.040712837 0.80988526
-0.0030328203 0.04071128 0.80978233
-0.0028865125 0.040697038 0.80966544
-0.002756824 0.040668171 0.80953431
-0.0026508353 0.04062276 0.80939025
-0.0026071593 0.040590938 0.80930871
-0.0039762426 0.039085984 0.80762959
-0.0038070867 0.039179459 0.80768055
-0.0036467593 0.039275449 0.80774134
-0.0034939277 0.039374169 0.8078115
-0.0033486225 0.039475411 0.80789071
-0.0032112836 0.0395789 0.80797881
-0.0030826095 0.039684329 0.80807567
-0.0029635429 0.039791342 0.80818129
-0.0028553091 0.039899517 0.80829573
-0.0027594843 0.04000831 0.80841911
-0.0026781012 0.040116984 0.80855143
-0.0026137878 0.040224489 0.80869263
-0.0025699425 0.040329278 0.80884218
-0.0025509112 0.040428963 0.80899882
-0.0025620034 0.040519562 0.80915922
-0.0025825782 0.040562384 0.80924475
-0.0043217828 0.038921446 0.80757022
-0.0045067249 0.03884631 0.80756032
-0.0046910397 0.038778186 0.80756187
-0.0048755533 0.038716272 0.80757409
-0.0050599976 0.038660496 0.80759668
-0.0052438504 0.038611043 0.80762959
-0.0054264432 0.038568255 0.80767292
-0.0056069521 0.038532618 0.8077271
-0.0057843453 0.038504783 0.80779248
-0.0059572984 0.038485594 0.80786967
-0.0061240606 0.038476106 0.80795938
-0.0062822523 0.038477659 0.80806231
-0.0064285602 0.038491901 0.8081792
-0.0065582488 0.038520768 0.80831027
-0.0066642375 0.038566183 0.80845439
-0.0067079132 0.038598001 0.80853593
-0.0053388299 0.040102959 0.81021506
-0.0055079861 0.04000948 0.81016409
-0.0056683132 0.039913494 0.8101033
-0.0058211451 0.039814774 0.81003308
-0.0059664501 0.039713528 0.80995387
-0.006103789 0.039610039 0.80986583
-0.0062324633 0.039504614 0.80976897
-0.0063515296 0.039397597 0.80966336
-0.0064597637 0.039289422 0.80954885
-0.0065555885 0.039180629 0.80942547
-0.0066369711 0.039071959 0.80929315
-0.006701285 0.03896445 0.80915201
-0.0067451303 0.038859662 0.8090024
-0.0067641614 0.03875998 0.80884576
-0.0067530693 0.038669378 0.80868536
-0.0067324946 0.038626559 0.80859983
-0.0049745012 0.040230975 0.81018913
-0.0048008556 0.04030152 0.81019837
-0.0046277996 0.040365484 0.81019694
-0.0044545569 0.040423617 0.81018543
-0.0042813788 0.040475983 0.81016427
-0.0041087558 0.040522419 0.8101334
-0.0039373166 0.040562592 0.81009269
-0.003767834 0.040596053 0.81004184
-0.0036012763 0.040622186 0.80998045
-0.0034388877 0.040640205 0.80990797
-0.0032823118 0.040649112 0.80982375
-0.0031337831 0.040647656 0.80972707
-0.0029964121 0.040634282 0.80961734
-0.0028746454 0.040607177 0.8094942
-0.002775131 0.040564537 0.80935895
-0.0027341228 0.04053466 0.80928236
-0.004019578 0.039121635 0.80770582
-0.0038607549 0.039209399 0.80775368
-0.0037102206 0.039299525 0.80781078
-0.0035667245 0.039392214 0.80787665
-0.003430295 0.039487273 0.80795103
-0.0033013453 0.039584443 0.8080337
-0.0031805311 0.039683431 0.80812466
-0.0030687372 0.039783906 0.80822384
-0.0029671146 0.039885476 0.80833131
-0.0028771432 0.039987624 0.80844712
-0.0028007312 0.040089659 0.8085714
-0.0027403464 0.040190596 0.80870396
-0.0026991791 0.040288985 0.80884439
-0.0026813103 0.040382579 0.80899143
-0.0026917253 0.040467646 0.80914205
-0.002711043 0.040507849 0.80922234
-0.0043440117 0.038967147 0.80765009
-0.0045176568 0.038896602 0.80764079
-0.0046907132 0.038832638 0.80764228
-0.004863956 0.038774505 0.80765373
-0.005037134 0.038722139 0.80767494
-0.0052097565 0.038675707 0.80770582
-0.0053811963 0.03863553 0.80774653
-0.0055506788 0.038602069 0.80779737
-0.0057172365 0.038575936 0.80785877
-0.0058796252 0.038557917 0.80793124
-0.006036201 0.03854901 0.80801547
-0.0061847297 0.038550466 0.80811214
-0.0063221008 0.03856384 0.80822188
-0.0064438675 0.038590945 0.80834496
-0.0065433816 0.038633585 0.80848026
-0.0065843901 0.038663462 0.8085568
-0.0052989349 0.040076487 0.81013334
-0.005457758 0.039988723 0.81008554
-0.0056082923 0.039898597 0.81002843
-0.0057517882 0.039805908 0.80996257
-0.0058882176 0.03971085 0.80988818
-0.0060171676 0.039613679 0.80980545
-0.0061379815 0.039514691 0.80971456
-0.0062497756 0.039414216 0.80961537
-0.0063513983 0.039312646 0.80950791
-0.0064413697 0.039210498 0.80939204
-0.0065177814 0.039108466 0.80926782
-0.0065781665 0.039007526 0.80913526
-0.0066193338 0.038909137 0.80899483
-0.0066372026 0.038815543 0.80884773
-0.0066267876 0.038730476 0.80869716
-0.0066074696 0.038690273 0.80861682
-0.0049555828 0.040194113 0.81010401
-0.0047932365 0.040260069 0.81011266
-0.0046314406 0.040319867 0.81011128
-0.0044694701 0.040374219 0.81010056
-0.0043075606 0.040423181 0.81008077
-0.0041461703 0.040466592 0.81005192
-0.003985886 0.040504154 0.81001383
-0.0038274312 0.040535435 0.80996627
-0.0036717113 0.040559869 0.80990887
-0.0035198887 0.040576715 0.8098411
-0.0033735011 0.040585045 0.80976242
-0.0032346367 0.040583681 0.809672
-0.0031062043 0.040571176 0.80956942
-0.0029923606 0.040545836 0.80945432
-0.0028993213 0.040505972 0.80932784
-0.0028609817 0.04047804 0.80925626
-0.0040627951 0.039156955 0.80778229
-0.0039143059 0.039239008 0.807827
-0.0037735668 0.03932327 0.8078804
-0.0036394077 0.039409928 0.80794197
-0.0035118554 0.039498802 0.80801153
-0.0033912961 0.039589647 0.80808884
-0.0032783428 0.039682195 0.80817384
-0.0031738235 0.039776135 0.80826658
-0.0030788132 0.039871093 0.80836707
-0.0029946961 0.039966594 0.80847538
-0.002923256 0.040061992 0.80859154
-0.0028668002 0.040156361 0.80871546
-0.0028283116 0.040248346 0.80884677
-0.0028116056 0.040335853 0.80898428
-0.0028213428 0.040415384 0.80912507
-0.0028394037 0.040452972 0.80920017
-0.0043661185 0.039012522 0.8077302
-0.0045284647 0.038946562 0.8077215
-0.0046902606 0.038886763 0.80772287
-0.0048522307 0.038832415 0.8077336
-0.0050141406 0.038783453 0.80775338
-0.0051755309 0.038740043 0.80778229
-0.0053358153 0.03870248 0.80782032
-0.00549427 0.038671196 0.80786788
-0.0056499899 0.038646765 0.80792528
-0.0058018123 0.038629916 0.80799305
-0.0059481999 0.03862159 0.80807179
-0.0060870643 0.038622953 0.80816215
-0.0062154969 0.038635455 0.80826473
-0.0063293404 0.038660794 0.80837983
-0.00642238 0.038700659 0.80850631
-0.0064607197 0.038728595 0.8085779
-0.0052589062 0.04004968 0.81005186
-0.0054073953 0.039967623 0.81000715
-0.0055481344 0.03988336 0.80995375
-0.0056822938 0.039796703 0.80989218
-0.0058098459 0.039707828 0.80982262
-0.0059304051 0.039616983 0.80974531
-0.0060433582 0.039524436 0.80966032
-0.0061478778 0.039430499 0.80956757
-0.006242888 0.039335538 0.80946708
-0.0063270051 0.039240036 0.80935878
-0.006398445 0.039144643 0.80924261
-0.0064549008 0.03905027 0.80911869
-0.0064933896 0.038958285 0.80898744
-0.0065100957 0.038870782 0.80884987
-0.0065003587 0.03879125 0.80870908
-0.0064822976 0.038753659 0.80863404
-0.0049365349 0.040156908 0.81001908
-0.0047854898 0.040218271 0.81002712
-0.0046349564 0.040273909 0.81002581
-0.0044842609 0.040324476 0.81001586
-0.0043336218 0.040370028 0.80999744
-0.0041834656 0.040410418 0.80997056
-0.004034339 0.040445365 0.80993515
-0.0038869141 0.040474471 0.80989093
-0.0037420336 0.040497202 0.80983752
-0.0036007797 0.040512875 0.80977446
-0.0034645821 0.040520623 0.8097012
-0.003335384 0.040519357 0.80961716
-0.0032158918 0.040507723 0.80952168
-0.0031099729 0.040484145 0.80941463
-0.00302341 0.040447056 0.80929691
-0.0029877392 0.040421069 0.80923033
-0.0041058939 0.039191946 0.807859
-0.0039677415 0.039268289 0.80790061
-0.0038367992 0.039346684 0.80795026
-0.0037119789 0.03942731 0.80800754
-0.0035933054 0.039509997 0.80807227
-0.0034811383 0.03959452 0.80814421
-0.0033760478 0.039680623 0.80822331
-0.003278804 0.039768025 0.80830956
-0.0031904073 0.039856374 0.80840302
-0.0031121457 0.039945226 0.80850381
-0.0030456786 0.040033981 0.80861187
-0.0029931525 0.040121783 0.8087272
-0.0029573434 0.040207367 0.80884933
-0.0029418003 0.04028878 0.80897731
-0.0029508595 0.040362775 0.80910826
-0.0029676631 0.040397748 0.80917811
-0.0043881033 0.039057564 0.80781049
-0.0045391484 0.038996197 0.80780238
-0.0046896818 0.038940564 0.80780369
-0.0048403773 0.038889997 0.80781364
-0.0049910164 0.038844444 0.80783212
-0.0051411726 0.038804054 0.80785894
-0.0052902992 0.038769107 0.80789435
-0.0054377243 0.038740002 0.80793858
-0.0055826046 0.03871727 0.80799198
-0.0057238583 0.038701594 0.80805504
-0.0058600558 0.038693845 0.8081283
-0.005989254 0.038695116 0.8082124
-0.0061087464 0.038706746 0.80830783
-0.0062146652 0.038730323 0.80841494
-0.006301228 0.038767412 0.8085326
-0.006336899 0.038793404 0.80859923
-0.0052187443 0.040022526 0.80997056
-0.0053568967 0.039946184 0.80992895
-0.0054878392 0.039867789 0.8098793
-0.0056126593 0.039787162 0.80982196
-0.0057313326 0.039704476 0.80975729
-0.0058434997 0.039619952 0.80968535
-0.0059485901 0.039533846 0.80960625
-0.0060458342 0.039446447 0.80952001
-0.0061342306 0.039358098 0.80942649
-0.0062124925 0.039269246 0.80932575
-0.0062789596 0.039180491 0.80921763
-0.0063314857 0.03909269 0.80910236
-0.006367295 0.039007105 0.80898023
-0.0063828379 0.038925692 0.80885226
-0.0063737789 0.038851697 0.80872124
-0.0063569751 0.038816724 0.80865139
-0.0049173599 0.040119365 0.80993426
-0.0047776182 0.040176138 0.80994177
-0.0046383501 0.040227611 0.80994058
-0.004498932 0.040274393 0.80993134
-0.0043595661 0.040316537 0.80991429
-0.0042206468 0.040353905 0.80988944
-0.0040826797 0.040386237 0.80985665
-0.0039462876 0.040413164 0.80981576
-0.0038122495 0.040434193 0.80976635
-0.0036815661 0.040448695 0.809708
-0.003555561 0.040455863 0.80964023
-0.0034360315 0.040454689 0.80956244
-0.0033254814 0.040443927 0.80947417
-0.0032274891 0.040422115 0.80937511
-0.0031474042 0.040387802 0.80926621
-0.0031144025 0.040363759 0.80920458
-0.0041488805 0.039226618 0.80793583
-0.0040210662 0.039297245 0.80797434
-0.0038999231 0.039369777 0.80802029
-0.0037844437 0.039444368 0.80807334
-0.0036746513 0.039520867 0.80813318
-0.0035708782 0.039599065 0.8081997
-0.0034736521 0.039678726 0.8082729
-0.0033836856 0.039759584 0.80835271
-0.0033019041 0.03984132 0.8084392
-0.0032294991 0.039923526 0.80853242
-0.0031680062 0.040005639 0.80863243
-0.0031194109 0.040086869 0.80873913
-0.0030862815 0.040166046 0.80885208
-0.0030719016 0.040241368 0.80897045
-0.0030802828 0.040309828 0.80909169
-0.0030958289 0.040342182 0.8091563
-0.0044099702 0.039102294 0.80789101
-0.0045497119 0.03904552 0.8078835
-0.0046889801 0.038994044 0.80788469
-0.0048283986 0.038947262 0.80789393
-0.0049677645 0.038905118 0.80791098
-0.0051066834 0.038867753 0.80793583
-0.0052446504 0.038835421 0.80796862
-0.0053810426 0.038808495 0.80800951
-0.0055150809 0.038787462 0.80805892
-0.0056457641 0.038772963 0.80811727
-0.0057717692 0.038765792 0.80818504
-0.0058912989 0.038766965 0.80826283
-0.0060018487 0.038777728 0.80835116
-0.0060998411 0.038799539 0.80845022
-0.006179926 0.038833857 0.80855906
-0.0062129279 0.0388579 0.80862069
-0.0051784501 0.039995041 0.80988944
-0.0053062639 0.039924409 0.80985093
-0.0054274071 0.039851882 0.80980498
-0.0055428864 0.03977729 0.80975199
-0.0056526791 0.039700791 0.80969208
-0.0057564522 0.039622594 0.80962557
-0.0058536781 0.039542932 0.80955237
-0.0059436448 0.039462071 0.80947256
-0.0060254261 0.039380334 0.80938607
-0.0060978313 0.039298132 0.80929285
-0.0061593242 0.039216019 0.8091929
-0.0062079192 0.039134786 0.8090862
-0.0062410487 0.039055608 0.80897319
-0.0062554288 0.038980287 0.80885482
-0.0062470473 0.038911831 0.80873364
-0.0062315012 0.038879476 0.80866897
-0.0048980583 0.04008149 0.80984968
-0.0047696228 0.040133666 0.80985659
-0.0046416232 0.040180977 0.80985546
-0.0045134854 0.040223975 0.809847
-0.0043853954 0.040262707 0.80983132
-0.0042577162 0.04029705 0.80980849
-0.004130912 0.040326767 0.80977839
-0.0040055555 0.040351517 0.80974078
-0.0038823623 0.040370844 0.80969536
-0.0037622526 0.040384173 0.80964172
-0.0036464424 0.04039076 0.80957943
-0.0035365841 0.040389683 0.80950797
-0.0034349787 0.040379792 0.80942678
-0.0033449146 0.040359743 0.80933571
-0.0032713094 0.040328205 0.80923569
-0.0032409781 0.04030611 0.80917901
-0.0041917562 0.039260972 0.80801296
-0.0040742839 0.039325889 0.80804837
-0.0039629424 0.03939255 0.80809057
-0.0038568063 0.039461106 0.80813932
-0.0037558971 0.039531413 0.80819434
-0.0036605205 0.039603285 0.80825549
-0.0035711608 0.039676502 0.80832273
-0.0034884734 0.039750818 0.8083961
-0.0034133089 0.039825942 0.80847555
-0.0033467622 0.039901495 0.80856127
-0.0032902446 0.039976966 0.80865318
-0.0032455814 0.040051624 0.80875123
-0.0032151323 0.040124394 0.80885506
-0.0032019159 0.040193621 0.80896389
-0.0032096189 0.040256541 0.80907524
-0.0032239074 0.040286276 0.80913466
-0.0044317213 0.039146706 0.80797172
-0.0045601567 0.039094526 0.80796486
-0.0046881568 0.039047219 0.80796593
-0.0048162946 0.039004222 0.80797446
-0.0049443846 0.038965486 0.80799013
-0.0050720638 0.038931143 0.80801296
-0.005198868 0.038901426 0.80804306
-0.0053242245 0.038876679 0.80808067
-0.0054474175 0.038857352 0.80812609
-0.0055675274 0.038844023 0.80817968
-0.0056833373 0.038837433 0.80824196
-0.0057931957 0.038838513 0.80831349
-0.0058948011 0.038848404 0.80839467
-0.0059848651 0.03886845 0.80848569
-0.0060584703 0.038899988 0.80858576
-0.0060888017 0.038922086 0.80864239
-0.0051380238 0.039967224 0.80980843
-0.0052554961 0.039902307 0.80977309
-0.0053668376 0.039835647 0.80973089
-0.0054729735 0.03976709 0.80968213
-0.0055738827 0.039696779 0.80962712
-0.0056692595 0.039624911 0.80956596
-0.0057586189 0.039551694 0.80949867
-0.0058413064 0.039477378 0.80942535
-0.0059164711 0.039402254 0.80934584
-0.0059830179 0.039326701 0.80926019
-0.0060395352 0.039251231 0.80916828
-0.0060841986 0.039176572 0.80907023
-0.0061146477 0.039103802 0.80896634
-0.0061278641 0.039034575 0.80885756
-0.0061201612 0.038971655 0.80874616
-0.0061058723 0.03894192 0.80868679
-0.0048786304 0.04004328 0.80976528
-0.0047615049 0.040090863 0.80977154
-0.0046447767 0.040134005 0.80977052
-0.0045279227 0.040173218 0.80976278
-0.0044111125 0.040208541 0.80974853
-0.0042946767 0.040239859 0.80972767
-0.004179039 0.040266957 0.80970019
-0.0040647215 0.040289529 0.80966592
-0.003952377 0.040307153 0.80962449
-0.0038428442 0.040319309 0.80957562
-0.0037372322 0.040325318 0.80951881
-0.003637048 0.040324334 0.80945361
-0.00354439 0.040315311 0.80937958
-0.0034622571 0.040297031 0.80929655
-0.0033951334 0.040268268 0.80920529
-0.0033674731 0.040248118 0.80915368
-0.0042345254 0.039295018 0.80809027
-0.0041273977 0.039354216 0.80812252
-0.0040258607 0.039415006 0.80816102
-0.0039290711 0.039477527 0.80820549
-0.0038370483 0.039541643 0.80825567
-0.0037500705 0.039607186 0.80831146
-0.00366858 0.039673954 0.8083728
-0.003593174 0.039741728 0.80843967
-0.0035246285 0.039810237 0.80851215
-0.0034639419 0.039879136 0.80859029
-0.0034124013 0.039947957 0.8086741
-0.0033716711 0.040016044 0.8087635
-0.0033439032 0.040082406 0.80885822
-0.0033318507 0.040145535 0.80895746
-0.0033388757 0.040202916 0.80905902
-0.0033519056 0.040230032 0.8091132
-0.0044533592 0.039190814 0.80805266
