# .PCD v0.7 - Point Cloud Data file format
VERSION 0.7
FIELDS x y z rgba
SIZE 4 4 4 4
TYPE F F F U
COUNT 1 1 1 1
WIDTH 1033
HEIGHT 1
VIEWPOINT 0 0 0 1 0 0 0
POINTS 1033
DATA ascii
0.09002047 -0.05809832 0.73300004 4294967086
0.091297358 -0.05809832 0.73300004 4294967086
0.092321657 -0.057939798 0.73100001 4294966571
0.09359505 -0.057939798 0.73100001 4294966571
0.094868451 -0.057939798 0.73100001 4294966298
0.096010342 -0.057860535 0.73000002 4294966298
0.097282 -0.057860535 0.73000002 4294966314
0.098553658 -0.057860535 0.73000002 4294965800
0.099551827 -0.057702012 0.72800004 4294964506
0.10082 -0.057702012 0.72800004 4294964763
0.10208818 -0.057702012 0.72800004 4294965793
0.10335636 -0.057702012 0.72800004 4294965793
0.10462453 -0.057702012 0.72800004 4294964256
0.1058927 -0.057702012 0.72800004 4294963999
0.10716088 -0.057702012 0.72800004 4294963479
0.10828012 -0.057622757 0.72700006 4294963737
0.10954656 -0.057622757 0.72700006 4294963763
0.11050814 -0.057464227 0.72500002 4294964020
0.11177108 -0.057464227 0.72500002 4294964804
0.11303404 -0.057464227 0.72500002 4294964290
0.11413933 -0.057384972 0.72400004 4294964285
0.11508176 -0.057226449 0.72200006 4294963001
0.11633948 -0.057226449 0.72200006 4294962250
0.11792295 -0.057384972 0.72400004 4294962250
0.11918417 -0.057384972 0.72400004 4294961483
0.12044539 -0.057384972 0.72400004 4294960969
0.12137038 -0.057226449 0.72200006 4294960692
0.12262811 -0.057226449 0.72200006 4294960692
0.12388583 -0.057226449 0.72200006 4294960199
0.12514356 -0.057226449 0.72200006 4294959171
0.12640128 -0.057226449 0.72200006 4294958112
0.12765901 -0.057226449 0.72200006 4294958112
0.12891673 -0.057226449 0.72200006 4294955776
0.12999415 -0.057147186 0.72100002 4294955776
0.13125014 -0.057147186 0.72100002 4294953216
0.13213857 -0.056988664 0.71900004 4294952704
0.13339105 -0.056988664 0.71900004 4294754816
0.13445629 -0.056909405 0.71800005 4294623232
0.13532902 -0.056750879 0.71600002 4294687744
0.13657629 -0.056750879 0.71600002 4294359040
0.13782357 -0.056750879 0.71600002 4294292736
0.13907084 -0.056750879 0.71600002 4294226944
0.14012213 -0.056671619 0.71500003 4294160384
0.14136767 -0.056671619 0.71500003 4294160384
0.14261319 -0.056671619 0.71500003 4294028800
0.14385873 -0.056671619 0.71500003 4293502464
0.14469838 -0.056513101 0.71300006 4293435392
0.14594042 -0.056513101 0.71300006 4293303808
0.14718248 -0.056513101 0.71300006 4293040384
0.14821634 -0.056433834 0.71200001 4292514048
0.14945665 -0.056433834 0.71200001 4292447232
0.15027365 -0.056275316 0.71000004 4292249856
0.15129708 -0.056196056 0.70900005 4292314112
0.15253216 -0.056196056 0.70900005 4292248064
0.15376723 -0.056196056 0.70900005 4292115712
0.15500231 -0.056196056 0.70900005 4291918592
0.15623739 -0.056196056 0.70900005 4291787264
0.15747246 -0.056196056 0.70900005 4291655936
0.15870754 -0.056196056 0.70900005 4291656192
0.15994263 -0.056196056 0.70900005 4291721984
0.16117769 -0.056196056 0.70900005 4291263233
0.16241278 -0.056196056 0.70900005 4290934272
0.16364786 -0.056196056 0.70900005 4290474498
0.16488293 -0.056196056 0.70900005 4289816576
0.16611801 -0.056196056 0.70900005 4289487872
0.16758913 -0.056275316 0.71000004 4289027328
0.16858816 -0.056196056 0.70900005 4288173824
0.16982326 -0.056196056 0.70900005 4291924008
0.016091727 -0.057286549 0.73900002 4291802026
0.017355548 -0.05720903 0.73800004 4287919983
0.018641144 -0.05720903 0.73800004 4288902144
0.01992674 -0.05720903 0.73800004 4289625856
0.021212338 -0.05720903 0.73800004 4290149635
0.022436963 -0.057053991 0.73600006 4290017793
0.023719076 -0.057053991 0.73600006 4290149120
0.024967218 -0.056976471 0.73500001 4290149120
0.026247587 -0.056976471 0.73500001 4290345216
0.027453052 -0.056821436 0.73300004 4290213632
0.028729938 -0.056821436 0.73300004 4290476032
0.030006822 -0.056821436 0.73300004 4290476032
0.031283714 -0.056821436 0.73300004 4291658496
0.032560598 -0.056821436 0.73300004 4292645376
0.033837482 -0.056821436 0.73300004 4293500416
0.03511437 -0.056821436 0.73300004 4294290176
0.036391255 -0.056821436 0.73300004 4294423040
0.037565362 -0.056666389 0.73100001 4294423040
0.038838763 -0.056666389 0.73100001 4294620416
0.040221911 -0.056821436 0.73300004 4294686464
0.041498803 -0.056821436 0.73300004 4294948864
0.042775687 -0.056821436 0.73300004 4294949632
0.044052571 -0.056821436 0.73300004 4294950400
0.045329459 -0.056821436 0.73300004 4294950400
0.04673351 -0.056976471 0.73500001 4294950656
0.048013877 -0.056976471 0.73500001 4294951168
0.049294248 -0.056976471 0.73500001 4294951168
0.050574619 -0.056976471 0.73500001 4294951680
0.051854987 -0.056976471 0.73500001 4294951424
0.053135358 -0.056976471 0.73500001 4294952448
0.054415729 -0.056976471 0.73500001 4294952960
0.0556961 -0.056976471 0.73500001 4294953472
0.056976471 -0.056976471 0.73500001 4294953984
0.058256842 -0.056976471 0.73500001 4294954240
0.059537213 -0.056976471 0.73500001 4294954752
0.060817584 -0.056976471 0.73500001 4294956288
0.062097948 -0.056976471 0.73500001 4294957824
0.063378319 -0.056976471 0.73500001 4294958592
0.064658687 -0.056976471 0.73500001 4294959360
0.065939061 -0.056976471 0.73500001 4294959872
0.067219429 -0.056976471 0.73500001 4294960128
0.068499804 -0.056976471 0.73500001 4294962176
0.069780171 -0.056976471 0.73500001 4294962944
0.071060538 -0.056976471 0.73500001 4294962944
0.072340913 -0.056976471 0.73500001 4294962970
0.073420957 -0.056821436 0.73300004 4294964255
0.074697837 -0.056821436 0.73300004 4294966272
0.075974725 -0.056821436 0.73300004 4294967040
0.077251613 -0.056821436 0.73300004 4294967085
0.07831423 -0.056666389 0.73100001 4294966827
0.079587631 -0.056666389 0.73100001 4294967067
0.080861032 -0.056666389 0.73100001 4294967069
0.082134441 -0.056666389 0.73100001 4294967085
0.083407834 -0.056666389 0.73100001 4294967089
0.084681235 -0.056666389 0.73100001 4294967105
0.085954636 -0.056666389 0.73100001 4294967100
0.087228045 -0.056666389 0.73100001 4294967096
0.088501446 -0.056666389 0.73100001 4294967096
0.089774847 -0.056666389 0.73100001 4294967104
0.091048248 -0.056666389 0.73100001 4294967104
0.092195362 -0.056588873 0.73000002 4294967098
0.093467019 -0.056588873 0.73000002 4294967098
0.094738677 -0.056588873 0.73000002 4294967104
0.096010342 -0.056588873 0.73000002 4294967104
0.097015478 -0.056433842 0.72800004 4294967116
0.098283648 -0.056433842 0.72800004 4294967118
0.099551827 -0.056433842 0.72800004 4294966882
0.10082 -0.056433842 0.72800004 4294966368
0.10208818 -0.056433842 0.72800004 4294966854
0.10335636 -0.056433842 0.72800004 4294966854
0.10462453 -0.056433842 0.72800004 4294965308
0.1058927 -0.056433842 0.72800004 4294965051
0.10701369 -0.056356318 0.72700006 4294964276
0.10828012 -0.056356318 0.72700006 4294964791
0.10954656 -0.056356318 0.72700006 4294964535
0.11081299 -0.056356318 0.72700006 4294963507
0.11177108 -0.056201279 0.72500002 4294962980
0.11303404 -0.056201279 0.72500002 4294961695
0.11413933 -0.056123763 0.72400004 4294960424
0.11508176 -0.055968724 0.72200006 4294958368
0.11633948 -0.055968724 0.72200006 4294955560
0.11792295 -0.056123763 0.72400004 4294954276
0.11918417 -0.056123763 0.72400004 4294954240
0.12044539 -0.056123763 0.72400004 4294953728
0.12137038 -0.055968724 0.72200006 4294952960
0.12262811 -0.055968724 0.72200006 4294952192
0.12388583 -0.055968724 0.72200006 4294951424
0.12514356 -0.055968724 0.72200006 4294951168
0.12640128 -0.055968724 0.72200006 4294950400
0.12765901 -0.055968724 0.72200006 4294884608
0.12891673 -0.055968724 0.72200006 4294556160
0.12999415 -0.055891201 0.72100002 4294358784
0.13125014 -0.055891201 0.72100002 4294292736
0.13213857 -0.055736169 0.71900004 4294095360
0.13339105 -0.055736169 0.71900004 4294030336
0.13445629 -0.05565865 0.71800005 4294030336
0.13532902 -0.055503611 0.71600002 4293898496
0.13657629 -0.055503611 0.71600002 4293832704
0.13782357 -0.055503611 0.71600002 4293766656
0.13907084 -0.055503611 0.71600002 4293569536
0.14012213 -0.055426091 0.71500003 4293568256
0.14136767 -0.055426091 0.71500003 4293436928
0.14261319 -0.055426091 0.71500003 4293305344
0.14385873 -0.055426091 0.71500003 4292778752
0.14469838 -0.055271056 0.71300006 4292776960
0.14594042 -0.055271056 0.71300006 4292842752
0.14718248 -0.055271056 0.71300006 4292513792
0.14821634 -0.055193532 0.71200001 4292119040
0.14945665 -0.055193532 0.71200001 4291920384
0.15027365 -0.055038497 0.71000004 4291525888
0.15129708 -0.054960981 0.70900005 4291656448
0.15253216 -0.054960981 0.70900005 4291327488
0.15376723 -0.054960981 0.70900005 4291326464
0.15500231 -0.054960981 0.70900005 4291195136
0.15579665 -0.054805938 0.70700002 4290668544
0.15702824 -0.054805938 0.70700002 4290208000
0.15825984 -0.054805938 0.70700002 4290141952
0.15949143 -0.054805938 0.70700002 4289812992
0.16072303 -0.054805938 0.70700002 4289484288
0.16195463 -0.054805938 0.70700002 4289352704
0.16318622 -0.054805938 0.70700002 4289026816
0.1644178 -0.054805938 0.70700002 4288894976
0.1656494 -0.054805938 0.70700002 4288369920
0.166881 -0.054805938 0.70700002 4288369920
0.16763704 -0.054650899 0.70500004 4288437114
0.017379064 -0.055999205 0.73900002 4289897139
0.018666402 -0.055999205 0.73900002 4288378392
0.01992674 -0.055923432 0.73800004 4289102114
0.021212338 -0.055923432 0.73800004 4289624064
0.022436963 -0.05577188 0.73600006 4289887488
0.023719076 -0.05577188 0.73600006 4290215168
0.025001187 -0.05577188 0.73600006 4290017792
0.026247587 -0.0556961 0.73500001 4290345216
0.027527958 -0.0556961 0.73500001 4290279424
0.028808327 -0.0556961 0.73500001 4290212864
0.030006822 -0.055544548 0.73300004 4289949696
0.031283714 -0.055544548 0.73300004 4290277376
0.032560598 -0.055544548 0.73300004 4290935040
0.033837482 -0.055544548 0.73300004 4292381440
0.03511437 -0.055544548 0.73300004 4293697029
0.036391255 -0.055544548 0.73300004 4293896960
0.037668142 -0.055544548 0.73300004 4294226176
0.038945027 -0.055544548 0.73300004 4293964288
0.040221911 -0.055544548 0.73300004 4294227456
0.041498803 -0.055544548 0.73300004 4294423040
0.042775687 -0.055544548 0.73300004 4294620416
0.044052571 -0.055544548 0.73300004 4294620416
0.045329459 -0.055544548 0.73300004 4294752256
0.04673351 -0.0556961 0.73500001 4294949376
0.048013877 -0.0556961 0.73500001 4294949632
0.049294248 -0.0556961 0.73500001 4294949632
0.050574619 -0.0556961 0.73500001 4294950400
0.051854987 -0.0556961 0.73500001 4294951168
0.053135358 -0.0556961 0.73500001 4294951680
0.054415729 -0.0556961 0.73500001 4294951680
0.0556961 -0.0556961 0.73500001 4294951936
0.056976471 -0.0556961 0.73500001 4294952704
0.058256842 -0.0556961 0.73500001 4294953472
0.059537213 -0.0556961 0.73500001 4294954240
0.060817584 -0.0556961 0.73500001 4294954752
0.062097948 -0.0556961 0.73500001 4294954752
0.063378319 -0.0556961 0.73500001 4294954752
0.064658687 -0.0556961 0.73500001 4294955264
0.065939061 -0.0556961 0.73500001 4294955264
0.067219429 -0.0556961 0.73500001 4294957568
0.068499804 -0.0556961 0.73500001 4294957568
0.069780171 -0.0556961 0.73500001 4294958080
0.071060538 -0.0556961 0.73500001 4294958080
0.072144069 -0.055544548 0.73300004 4294959872
0.073420957 -0.055544548 0.73300004 4294960384
0.074697837 -0.055544548 0.73300004 4294960896
0.075974725 -0.055544548 0.73300004 4294961664
0.077040829 -0.055392992 0.73100001 4294962176
0.07831423 -0.055392992 0.73100001 4294962432
0.079587631 -0.055392992 0.73100001 4294962688
0.080861032 -0.055392992 0.73100001 4294964743
0.082134441 -0.055392992 0.73100001 4294965280
0.083407834 -0.055392992 0.73100001 4294965537
0.084681235 -0.055392992 0.73100001 4294965310
0.085954636 -0.055392992 0.73100001 4294964797
0.087228045 -0.055392992 0.73100001 4294964526
0.088501446 -0.055392992 0.73100001 4294964526
0.089774847 -0.055392992 0.73100001 4294965291
0.091048248 -0.055392992 0.73100001 4294966063
0.092195362 -0.055317216 0.73000002 4294966857
0.093467019 -0.055317216 0.73000002 4294966857
0.094479121 -0.055165663 0.72800004 4294966868
0.095747299 -0.055165663 0.72800004 4294966868
0.097015478 -0.055165663 0.72800004 4294966616
0.098283648 -0.055165663 0.72800004 4294966873
0.099551827 -0.055165663 0.72800004 4294966373
0.10082 -0.055165663 0.72800004 4294966116
0.10208818 -0.055165663 0.72800004 4294966868
0.10335636 -0.055165663 0.72800004 4294965069
0.10448082 -0.055089887 0.72700006 4294962993
0.10574725 -0.055089887 0.72700006 4294962480
0.10701369 -0.055089887 0.72700006 4294961705
0.10828012 -0.055089887 0.72700006 4294961448
0.10954656 -0.055089887 0.72700006 4294960188
0.11050814 -0.054938328 0.72500002 4294960445
0.11161692 -0.054862555 0.72400004 4294957599
0.11287813 -0.054862555 0.72400004 4294957599
0.11413933 -0.054862555 0.72400004 4294956296
0.11508176 -0.054711003 0.72200006 4294955782
0.11633948 -0.054711003 0.72200006 4294955289
0.11792295 -0.054862555 0.72400004 4294953490
0.11918417 -0.054862555 0.72400004 4294952192
0.12044539 -0.054862555 0.72400004 4294951936
0.12170659 -0.054862555 0.72400004 4294951424
0.12262811 -0.054711003 0.72200006 4294950400
0.12388583 -0.054711003 0.72200006 4294884608
0.12497022 -0.054635223 0.72100002 4294621440
0.1262262 -0.054635223 0.72100002 4294491136
0.12765901 -0.054711003 0.72200006 4294425344
0.12891673 -0.054711003 0.72200006 4294359296
0.12999415 -0.054635223 0.72100002 4294293504
0.13125014 -0.054635223 0.72100002 4294293504
0.13213857 -0.054483671 0.71900004 4294030336
0.13339105 -0.054483671 0.71900004 4293898496
0.13445629 -0.054407891 0.71800005 4293832704
0.13570705 -0.054407891 0.71800005 4293701632
0.13657629 -0.054256339 0.71600002 4293635840
0.13782357 -0.054256339 0.71600002 4293635840
0.13907084 -0.054256339 0.71600002 4293438208
0.14012213 -0.054180559 0.71500003 4293240576
0.14136767 -0.054180559 0.71500003 4292977408
0.14261319 -0.054180559 0.71500003 4293042688
0.14385873 -0.054180559 0.71500003 4292647936
0.14469838 -0.05402901 0.71300006 4292711936
0.14594042 -0.05402901 0.71300006 4292646144
0.14718248 -0.05402901 0.71300006 4292251136
0.14821634 -0.053953227 0.71200001 4292053504
0.14945665 -0.053953227 0.71200001 4291986432
0.15027365 -0.053801678 0.71000004 4291657216
0.15151048 -0.053801678 0.71000004 4291591180
0.15274729 -0.053801678 0.71000004 4291064836
0.15376723 -0.053725902 0.70900005 4290802432
0.15500231 -0.053725902 0.70900005 4290671104
0.15579665 -0.053574346 0.70700002 4290276106
0.15702824 -0.053574346 0.70700002 4289683713
0.15825984 -0.053574346 0.70700002 4289421569
0.15949143 -0.053574346 0.70700002 4288500480
0.16072303 -0.053574346 0.70700002 4288368384
0.16195463 -0.053574346 0.70700002 4288566016
0.16318622 -0.053574346 0.70700002 4288238080
0.1644178 -0.053574346 0.70700002 4288172288
0.1656494 -0.053574346 0.70700002 4287778816
0.16664496 -0.053498566 0.70600003 4288699904
0.16763704 -0.05342279 0.70500004 4291662218
0.017379064 -0.054711871 0.73900002 4293253862
0.018666402 -0.054711871 0.73900002 4290616469
0.01992674 -0.054637838 0.73800004 4287853163
0.021212338 -0.054637838 0.73800004 4288505856
0.022436963 -0.054489769 0.73600006 4289689856
0.023719076 -0.054489769 0.73600006 4290214658
0.025001187 -0.054489769 0.73600006 4290148865
0.0262833 -0.054489769 0.73600006 4290148864
0.027565412 -0.054489769 0.73600006 4290083072
0.028808327 -0.054415729 0.73500001 4290279424
0.030088698 -0.054415729 0.73500001 4290279424
0.031369068 -0.054415729 0.73500001 4290344192
0.032649439 -0.054415729 0.73500001 4290147072
0.033837482 -0.054267664 0.73300004 4290671872
0.03511437 -0.054267664 0.73300004 4291263744
0.036391255 -0.054267664 0.73300004 4291724288
0.037668142 -0.054267664 0.73300004 4292711168
0.038945027 -0.054267664 0.73300004 4293107456
0.040221911 -0.054267664 0.73300004 4293633792
0.041498803 -0.054267664 0.73300004 4293963008
0.042775687 -0.054267664 0.73300004 4294028800
0.044052571 -0.054267664 0.73300004 4294094592
0.045329459 -0.054267664 0.73300004 4294226432
0.04673351 -0.054415729 0.73500001 4294357248
0.048013877 -0.054415729 0.73500001 4294291456
0.049294248 -0.054415729 0.73500001 4294422272
0.050574619 -0.054415729 0.73500001 4294751488
0.051854987 -0.054415729 0.73500001 4294948352
0.053135358 -0.054415729 0.73500001 4294948352
0.054415729 -0.054415729 0.73500001 4294949120
0.0556961 -0.054415729 0.73500001 4294950144
0.056976471 -0.054415729 0.73500001 4294950144
0.058256842 -0.054415729 0.73500001 4294950912
0.059537213 -0.054415729 0.73500001 4294951168
0.060817584 -0.054415729 0.73500001 4294951680
0.062097948 -0.054415729 0.73500001 4294951424
0.063378319 -0.054415729 0.73500001 4294952448
0.064658687 -0.054415729 0.73500001 4294951936
0.065939061 -0.054415729 0.73500001 4294952192
0.067219429 -0.054415729 0.73500001 4294952192
0.068499804 -0.054415729 0.73500001 4294953472
0.069780171 -0.054415729 0.73500001 4294953984
0.070867181 -0.054267664 0.73300004 4294954240
0.072144069 -0.054267664 0.73300004 4294954752
0.073420957 -0.054267664 0.73300004 4294955520
0.074697837 -0.054267664 0.73300004 4294956288
0.07576742 -0.054119591 0.73100001 4294956544
0.077040829 -0.054119591 0.73100001 4294956800
0.07831423 -0.054119591 0.73100001 4294956800
0.079587631 -0.054119591 0.73100001 4294957056
0.080861032 -0.054119591 0.73100001 4294957056
0.082134441 -0.054119591 0.73100001 4294956800
0.083407834 -0.054119591 0.73100001 4294956800
0.084681235 -0.054119591 0.73100001 4294957056
0.085954636 -0.054119591 0.73100001 4294957312
0.087228045 -0.054119591 0.73100001 4294958080
0.088380374 -0.054045554 0.73000002 4294958336
0.089652039 -0.054045554 0.73000002 4294958336
0.090923697 -0.054045554 0.73000002 4294958336
0.092195362 -0.054045554 0.73000002 4294958080
0.093467019 -0.054045554 0.73000002 4294958080
0.094479121 -0.053897489 0.72800004 4294957568
0.095747299 -0.053897489 0.72800004 4294956800
0.097015478 -0.053897489 0.72800004 4294956288
0.098283648 -0.053897489 0.72800004 4294956032
0.099551827 -0.053897489 0.72800004 4294956288
0.10082 -0.053897489 0.72800004 4294956800
0.10208818 -0.053897489 0.72800004 4294956032
0.10321438 -0.053823452 0.72700006 4294955264
0.10448082 -0.053823452 0.72700006 4294955008
0.10574725 -0.053823452 0.72700006 4294954752
0.10701369 -0.053823452 0.72700006 4294952960
0.10828012 -0.053823452 0.72700006 4294951936
0.10954656 -0.053823452 0.72700006 4294951424
0.11050814 -0.053675383 0.72500002 4294951424
0.11161692 -0.053601347 0.72400004 4294950912
0.11287813 -0.053601347 0.72400004 4294950912
0.11413933 -0.053601347 0.72400004 4294949888
0.11508176 -0.053453278 0.72200006 4294949888
0.11633948 -0.053453278 0.72200006 4294688256
0.11792295 -0.053601347 0.72400004 4294556928
0.11918417 -0.053601347 0.72400004 4294556160
0.12044539 -0.053601347 0.72400004 4294490368
0.12170659 -0.053601347 0.72400004 4294490112
0.12262811 -0.053453278 0.72200006 4294490112
0.12388583 -0.053453278 0.72200006 4294292736
0.12497022 -0.053379238 0.72100002 4294226944
0.1262262 -0.053379238 0.72100002 4293832448
0.12765901 -0.053453278 0.72200006 4293766400
0.12873816 -0.053379238 0.72100002 4293832448
0.12999415 -0.053379238 0.72100002 4293832448
0.13125014 -0.053379238 0.72100002 4293569792
0.13213857 -0.053231169 0.71900004 4293438208
0.13339105 -0.053231169 0.71900004 4293174272
0.13445629 -0.05315714 0.71800005 4293042432
0.13532902 -0.053009063 0.71600002 4293042688
0.13657629 -0.053009063 0.71600002 4293108480
0.13782357 -0.053009063 0.71600002 4293042432
0.13907084 -0.053009063 0.71600002 4292845056
0.14031811 -0.053009063 0.71600002 4292713472
0.14136767 -0.05293503 0.71500003 4292450048
0.14261319 -0.05293503 0.71500003 4292383488
0.14385873 -0.05293503 0.71500003 4292251904
0.14469838 -0.052786961 0.71300006 4291987456
0.14594042 -0.052786961 0.71300006 4291592960
0.14718248 -0.052786961 0.71300006 4291591936
0.14821634 -0.052712925 0.71200001 4291328768
0.14945665 -0.052712925 0.71200001 4290868480
0.15027365 -0.052564856 0.71000004 4290342144
0.15151048 -0.052564856 0.71000004 4290274560
0.15274729 -0.052564856 0.71000004 4289945344
0.15376723 -0.052490819 0.70900005 4289353472
0.15500231 -0.052490819 0.70900005 4289090560
0.15623739 -0.052490819 0.70900005 4288762368
0.15747246 -0.052490819 0.70900005 4288170240
0.15870754 -0.052490819 0.70900005 4288367882
0.15994263 -0.052490819 0.70900005 4288302089
0.16117769 -0.052490819 0.70900005 4288369920
0.16241278 -0.052490819 0.70900005 4288435712
0.16364786 -0.052490819 0.70900005 4288107776
0.1644178 -0.05234275 0.70700002 4289292291
0.1656494 -0.05234275 0.70700002 4290282328
0.16664496 -0.052268714 0.70600003 4294959028
0.018641144 -0.05335224 0.73800004 4293513957
0.01992674 -0.05335224 0.73800004 4290026671
0.021212338 -0.05335224 0.73800004 4288244741
0.022497933 -0.05335224 0.73800004 4288573962
0.023783529 -0.05335224 0.73800004 4289951232
0.025001187 -0.053207655 0.73600006 4290148864
0.0262833 -0.053207655 0.73600006 4290214656
0.027565412 -0.053207655 0.73600006 4290214656
0.028847525 -0.053207655 0.73600006 4290149120
0.030129636 -0.053207655 0.73600006 4290017280
0.031369068 -0.053135358 0.73500001 4289951232
0.032649439 -0.053135358 0.73500001 4289754112
0.03392981 -0.053135358 0.73500001 4289622272
0.035210177 -0.053135358 0.73500001 4289556480
0.036490548 -0.053135358 0.73500001 4290476032
0.037668142 -0.052990776 0.73300004 4291265536
0.038945027 -0.052990776 0.73300004 4292186624
0.040221911 -0.052990776 0.73300004 4292976128
0.041498803 -0.052990776 0.73300004 4293174272
0.042775687 -0.052990776 0.73300004 4293634816
0.044052571 -0.052990776 0.73300004 4293635328
0.045329459 -0.052990776 0.73300004 4293964032
0.04673351 -0.053135358 0.73500001 4294095104
0.048013877 -0.053135358 0.73500001 4294029312
0.049294248 -0.053135358 0.73500001 4294160384
0.050574619 -0.053135358 0.73500001 4294423552
0.051854987 -0.053135358 0.73500001 4294619904
0.053135358 -0.053135358 0.73500001 4294619904
0.054415729 -0.053135358 0.73500001 4294750720
0.0556961 -0.053135358 0.73500001 4294750720
0.056976471 -0.053135358 0.73500001 4294882560
0.058256842 -0.053135358 0.73500001 4294948608
0.059537213 -0.053135358 0.73500001 4294949120
0.060817584 -0.053135358 0.73500001 4294948864
0.062097948 -0.053135358 0.73500001 4294948864
0.063378319 -0.053135358 0.73500001 4294949888
0.064658687 -0.053135358 0.73500001 4294950912
0.065939061 -0.053135358 0.73500001 4294951680
0.067219429 -0.053135358 0.73500001 4294951936
0.068499804 -0.053135358 0.73500001 4294952192
0.069780171 -0.053135358 0.73500001 4294952704
0.070867181 -0.052990776 0.73300004 4294952960
0.072144069 -0.052990776 0.73300004 4294953472
0.073420957 -0.052990776 0.73300004 4294953472
0.074697837 -0.052990776 0.73300004 4294953216
0.07576742 -0.052846186 0.73100001 4294953472
0.077040829 -0.052846186 0.73100001 4294953472
0.07831423 -0.052846186 0.73100001 4294954240
0.079587631 -0.052846186 0.73100001 4294954752
0.080861032 -0.052846186 0.73100001 4294954496
0.082134441 -0.052846186 0.73100001 4294954240
0.083407834 -0.052846186 0.73100001 4294954496
0.084681235 -0.052846186 0.73100001 4294955008
0.085954636 -0.052846186 0.73100001 4294955264
0.087228045 -0.052846186 0.73100001 4294956032
0.088380374 -0.052773893 0.73000002 4294956032
0.089652039 -0.052773893 0.73000002 4294955264
0.090923697 -0.052773893 0.73000002 4294955008
0.092195362 -0.052773893 0.73000002 4294954752
0.093467019 -0.052773893 0.73000002 4294954752
0.094479121 -0.052629311 0.72800004 4294955264
0.095747299 -0.052629311 0.72800004 4294954496
0.097015478 -0.052629311 0.72800004 4294954752
0.098283648 -0.052629311 0.72800004 4294954240
0.099551827 -0.052629311 0.72800004 4294953728
0.10068152 -0.052557018 0.72700006 4294952960
0.10194796 -0.052557018 0.72700006 4294951680
0.10321438 -0.052557018 0.72700006 4294951936
0.10448082 -0.052557018 0.72700006 4294952960
0.10574725 -0.052557018 0.72700006 4294952448
0.10671929 -0.052412432 0.72500002 4294951680
0.10798224 -0.052412432 0.72500002 4294951168
0.10909451 -0.052340139 0.72400004 4294950656
0.11035571 -0.052340139 0.72400004 4294950400
0.11161692 -0.052340139 0.72400004 4294950400
0.11287813 -0.052340139 0.72400004 4294687488
0.11382403 -0.052195556 0.72200006 4294556160
0.11508176 -0.052195556 0.72200006 4294556160
0.11633948 -0.052195556 0.72200006 4294425344
0.11792295 -0.052340139 0.72400004 4294359296
0.11918417 -0.052340139 0.72400004 4294359296
0.12011266 -0.052195556 0.72200006 4294293504
0.12137038 -0.052195556 0.72200006 4294161152
0.12262811 -0.052195556 0.72200006 4294161152
0.12371424 -0.05212326 0.72100002 4294030336
0.12497022 -0.05212326 0.72100002 4293964288
0.1262262 -0.05212326 0.72100002 4293635840
0.12748219 -0.05212326 0.72100002 4293438208
0.12873816 -0.05212326 0.72100002 4293438208
0.12963356 -0.051978674 0.71900004 4293306880
0.13088606 -0.051978674 0.71900004 4293175552
0.13213857 -0.051978674 0.71900004 4293241344
0.13339105 -0.051978674 0.71900004 4293108992
0.13445629 -0.051906381 0.71800005 4292977408
0.13532902 -0.051761791 0.71600002 4292976896
0.13657629 -0.051761791 0.71600002 4292845568
0.13782357 -0.051761791 0.71600002 4292779776
0.13907084 -0.051761791 0.71600002 4292582400
0.14031811 -0.051761791 0.71600002 4292647424
0.14136767 -0.051689498 0.71500003 4292450048
0.14261319 -0.051689498 0.71500003 4292514304
0.14385873 -0.051689498 0.71500003 4292448512
0.14510426 -0.051689498 0.71500003 4291463680
0.14594042 -0.051544916 0.71300006 4291068928
0.14718248 -0.051544916 0.71300006 4291395850
0.14821634 -0.051472619 0.71200001 4290935299
0.14945665 -0.051472619 0.71200001 4290671625
0.15069695 -0.051472619 0.71200001 4290211074
0.15151048 -0.051328037 0.71000004 4289356549
0.15274729 -0.051328037 0.71000004 4289488135
0.15376723 -0.051255744 0.70900005 4288633355
0.15500231 -0.051255744 0.70900005 4288238597
0.15623739 -0.051255744 0.70900005 4288171520
0.15747246 -0.051255744 0.70900005 4288039936
0.15870754 -0.051255744 0.70900005 4288170753
0.15994263 -0.051255744 0.70900005 4288499718
0.16140503 -0.051328037 0.71000004 4288435712
0.16264185 -0.051328037 0.71000004 4287975168
0.16387866 -0.051328037 0.71000004 4288238345
0.16488293 -0.051255744 0.70900005 4291462202
0.16611801 -0.051255744 0.70900005 4292257950
0.166881 -0.051111154 0.70700002 4294966258
0.01992674 -0.052066643 0.73800004 4293713900
0.021212338 -0.052066643 0.73800004 4291076754
0.022497933 -0.052066643 0.73800004 4287458139
0.023783529 -0.052066643 0.73800004 4288505088
0.025069125 -0.052066643 0.73800004 4289426176
0.026354721 -0.052066643 0.73800004 4290149635
0.027640317 -0.052066643 0.73800004 4290017793
0.028847525 -0.051925544 0.73600006 4290017280
0.030129636 -0.051925544 0.73600006 4290083072
0.031411748 -0.051925544 0.73600006 4289952256
0.032693859 -0.051925544 0.73600006 4289952256
0.03392981 -0.051854987 0.73500001 4289819904
0.035210177 -0.051854987 0.73500001 4289754112
0.036490548 -0.051854987 0.73500001 4289950208
0.03777092 -0.051854987 0.73500001 4290213376
0.039051287 -0.051854987 0.73500001 4290343936
0.040331658 -0.051854987 0.73500001 4290870272
0.041612029 -0.051854987 0.73500001 4291461632
0.0428924 -0.051854987 0.73500001 4292382720
0.044052571 -0.051713891 0.73300004 4292777984
0.045329459 -0.051713891 0.73300004 4293238528
0.04673351 -0.051854987 0.73500001 4293633792
0.048013877 -0.051854987 0.73500001 4293765376
0.049294248 -0.051854987 0.73500001 4293634304
0.050574619 -0.051854987 0.73500001 4293568512
0.051854987 -0.051854987 0.73500001 4293830400
0.053135358 -0.051854987 0.73500001 4294028032
0.054415729 -0.051854987 0.73500001 4294158848
0.0556961 -0.051854987 0.73500001 4294224896
0.056976471 -0.051854987 0.73500001 4294290944
0.058256842 -0.051854987 0.73500001 4294488064
0.059537213 -0.051854987 0.73500001 4294488064
0.060817584 -0.051854987 0.73500001 4294488064
0.062097948 -0.051854987 0.73500001 4294488064
0.063378319 -0.051854987 0.73500001 4294553856
0.064658687 -0.051854987 0.73500001 4294685696
0.065939061 -0.051854987 0.73500001 4294751488
0.067219429 -0.051854987 0.73500001 4294817536
0.068499804 -0.051854987 0.73500001 4294949632
0.069780171 -0.051854987 0.73500001 4294949632
0.070867181 -0.051713891 0.73300004 4294949632
0.072144069 -0.051713891 0.73300004 4294949376
0.073420957 -0.051713891 0.73300004 4294950144
0.074697837 -0.051713891 0.73300004 4294950656
0.07576742 -0.051572785 0.73100001 4294951168
0.077040829 -0.051572785 0.73100001 4294950144
0.07831423 -0.051572785 0.73100001 4294949888
0.079587631 -0.051572785 0.73100001 4294949888
0.080861032 -0.051572785 0.73100001 4294950144
0.082134441 -0.051572785 0.73100001 4294951168
0.083407834 -0.051572785 0.73100001 4294951424
0.084681235 -0.051572785 0.73100001 4294951424
0.085954636 -0.051572785 0.73100001 4294951168
0.087228045 -0.051572785 0.73100001 4294951168
0.088501446 -0.051572785 0.73100001 4294951424
0.089774847 -0.051572785 0.73100001 4294951168
0.090923697 -0.051502235 0.73000002 4294950912
0.092195362 -0.051502235 0.73000002 4294950144
0.093467019 -0.051502235 0.73000002 4294950144
0.094738677 -0.051502235 0.73000002 4294950400
0.095747299 -0.051361132 0.72800004 4294949888
0.097015478 -0.051361132 0.72800004 4294950656
0.098283648 -0.051361132 0.72800004 4294950656
0.099415079 -0.051290583 0.72700006 4294950144
0.10068152 -0.051290583 0.72700006 4294949888
0.10194796 -0.051290583 0.72700006 4294948864
0.10321438 -0.051290583 0.72700006 4294948864
0.10448082 -0.051290583 0.72700006 4294818048
0.10574725 -0.051290583 0.72700006 4294752256
0.10671929 -0.05114948 0.72500002 4294556160
0.10798224 -0.05114948 0.72500002 4294556160
0.10909451 -0.05107893 0.72400004 4294293504
0.11035571 -0.05107893 0.72400004 4294227712
0.11161692 -0.05107893 0.72400004 4294030336
0.11287813 -0.05107893 0.72400004 4293832704
0.11382403 -0.050937831 0.72200006 4293964288
0.11508176 -0.050937831 0.72200006 4293964288
0.11633948 -0.050937831 0.72200006 4293832448
0.11792295 -0.05107893 0.72400004 4293635328
0.11918417 -0.05107893 0.72400004 4293635328
0.12011266 -0.050937831 0.72200006 4293503488
0.12137038 -0.050937831 0.72200006 4293503488
0.12262811 -0.050937831 0.72200006 4293437696
0.12371424 -0.050867274 0.72100002 4293042688
0.12497022 -0.050867274 0.72100002 4293042688
0.1262262 -0.050867274 0.72100002 4293042432
0.12748219 -0.050867274 0.72100002 4292910848
0.12873816 -0.050867274 0.72100002 4292714752
0.12963356 -0.050726175 0.71900004 4292517376
0.13088606 -0.050726175 0.71900004 4292583168
0.13213857 -0.050726175 0.71900004 4292583168
0.13339105 -0.050726175 0.71900004 4292517376
0.13445629 -0.050655626 0.71800005 4292517376
0.13570705 -0.050655626 0.71800005 4292517376
0.13657629 -0.050514523 0.71600002 4292319744
0.13782357 -0.050514523 0.71600002 4292122368
0.13907084 -0.050514523 0.71600002 4291858944
0.14031811 -0.050514523 0.71600002 4291792128
0.14156538 -0.050514523 0.71600002 4291397376
0.14261319 -0.05044397 0.71500003 4291133184
0.14385873 -0.05044397 0.71500003 4291001344
0.14510426 -0.05044397 0.71500003 4290672384
0.14634979 -0.05044397 0.71500003 4290014208
0.14718248 -0.050302871 0.71300006 4289550859
0.14821634 -0.050232317 0.71200001 4289090308
0.14945665 -0.050232317 0.71200001 4288828672
0.15069695 -0.050232317 0.71200001 4288039168
0.15193725 -0.050232317 0.71200001 4287776768
0.15274729 -0.050091214 0.71000004 4287579136
0.15398411 -0.050091214 0.71000004 4287908108
0.15522093 -0.050091214 0.71000004 4287645192
0.15689847 -0.050232317 0.71200001 4288238080
0.15813877 -0.050232317 0.71200001 4288303872
0.15893139 -0.050091214 0.71000004 4288106784
0.16016822 -0.050091214 0.71000004 4288896300
0.16140503 -0.050091214 0.71000004 4289227264
0.16264185 -0.050091214 0.71000004 4289556481
0.1643403 -0.050232317 0.71200001 4289424763
0.1655806 -0.050232317 0.71200001 4294956000
0.01992674 -0.050781045 0.73800004 4294967295
0.021212338 -0.050781045 0.73800004 4293974756
0.022436963 -0.050643433 0.73600006 4289698211
0.023719076 -0.050643433 0.73600006 4288571139
0.025069125 -0.050781045 0.73800004 4288637189
0.026354721 -0.050781045 0.73800004 4290081792
0.027640317 -0.050781045 0.73800004 4290344960
0.028925914 -0.050781045 0.73800004 4290017280
0.030211508 -0.050781045 0.73800004 4290083072
0.031497106 -0.050781045 0.73800004 4289952512
0.0327827 -0.050781045 0.73800004 4289886720
0.033975974 -0.050643433 0.73600006 4290016768
0.035258085 -0.050643433 0.73600006 4289950976
0.036540199 -0.050643433 0.73600006 4289951232
0.03777092 -0.050574619 0.73500001 4289688320
0.039051287 -0.050574619 0.73500001 4289489920
0.040331658 -0.050574619 0.73500001 4289424128
0.041612029 -0.050574619 0.73500001 4290605824
0.0428924 -0.050574619 0.73500001 4291329536
0.044172768 -0.050574619 0.73500001 4292118784
0.045453139 -0.050574619 0.73500001 4292842240
0.04673351 -0.050574619 0.73500001 4292844288
0.048013877 -0.050574619 0.73500001 4293173248
0.049294248 -0.050574619 0.73500001 4293108480
0.050574619 -0.050574619 0.73500001 4293174272
0.051854987 -0.050574619 0.73500001 4293305344
0.053135358 -0.050574619 0.73500001 4293634048
0.054415729 -0.050574619 0.73500001 4293634304
0.0556961 -0.050574619 0.73500001 4293700096
0.056976471 -0.050574619 0.73500001 4293963008
0.058256842 -0.050574619 0.73500001 4294028800
0.059537213 -0.050574619 0.73500001 4294028800
0.060817584 -0.050574619 0.73500001 4294160384
0.062097948 -0.050574619 0.73500001 4294226432
0.063378319 -0.050574619 0.73500001 4294423552
0.064658687 -0.050574619 0.73500001 4294489600
0.065939061 -0.050574619 0.73500001 4294423808
0.067219429 -0.050574619 0.73500001 4294489088
0.068499804 -0.050574619 0.73500001 4294752000
0.069780171 -0.050574619 0.73500001 4294621440
0.070867181 -0.050437 0.73300004 4294423808
0.072144069 -0.050437 0.73300004 4294423296
0.073420957 -0.050437 0.73300004 4294686208
0.074697837 -0.050437 0.73300004 4294884096
0.07576742 -0.050299384 0.73100001 4294818304
0.077040829 -0.050299384 0.73100001 4294884096
0.07831423 -0.050299384 0.73100001 4294818304
0.079587631 -0.050299384 0.73100001 4294686464
0.080861032 -0.050299384 0.73100001 4294686464
0.082134441 -0.050299384 0.73100001 4294818048
0.083407834 -0.050299384 0.73100001 4294818048
0.084681235 -0.050299384 0.73100001 4294948864
0.085837059 -0.050230574 0.73000002 4294949632
0.087108716 -0.050230574 0.73000002 4294949888
0.088380374 -0.050230574 0.73000002 4294949888
0.089652039 -0.050230574 0.73000002 4294818048
0.090923697 -0.050230574 0.73000002 4294949888
0.092195362 -0.050230574 0.73000002 4294950656
0.093467019 -0.050230574 0.73000002 4294949888
0.094738677 -0.050230574 0.73000002 4294818048
0.095747299 -0.050092958 0.72800004 4294752256
0.097015478 -0.050092958 0.72800004 4294818048
0.098283648 -0.050092958 0.72800004 4294818048
0.099415079 -0.050024152 0.72700006 4294687232
0.10068152 -0.050024152 0.72700006 4294555648
0.10194796 -0.050024152 0.72700006 4294489088
0.10321438 -0.050024152 0.72700006 4294489088
0.10448082 -0.050024152 0.72700006 4294358784
0.10574725 -0.050024152 0.72700006 4294226944
0.10671929 -0.049886528 0.72500002 4294161152
0.10798224 -0.049886528 0.72500002 4294226944
0.10924518 -0.049886528 0.72500002 4293965824
0.11050814 -0.049886528 0.72500002 4293834240
0.11161692 -0.049817722 0.72400004 4293964800
0.11287813 -0.049817722 0.72400004 4293767680
0.11382403 -0.049680106 0.72200006 4293767424
0.11508176 -0.049680106 0.72200006 4293701632
0.11633948 -0.049680106 0.72200006 4293635840
0.11792295 -0.049817722 0.72400004 4293569792
0.11918417 -0.049817722 0.72400004 4293240832
0.12011266 -0.049680106 0.72200006 4293306624
0.12137038 -0.049680106 0.72200006 4293240832
0.12262811 -0.049680106 0.72200006 4293109248
0.12388583 -0.049680106 0.72200006 4293043200
0.12514356 -0.049680106 0.72200006 4292977408
0.1262262 -0.049611293 0.72100002 4292649472
0.12748219 -0.049611293 0.72100002 4292649472
0.12873816 -0.049611293 0.72100002 4292583680
0.12963356 -0.049473677 0.71900004 4292517632
0.13088606 -0.049473677 0.71900004 4292583680
0.13213857 -0.049473677 0.71900004 4292386560
0.13339105 -0.049473677 0.71900004 4292122880
0.13445629 -0.049404867 0.71800005 4292057088
0.13570705 -0.049404867 0.71800005 4292056832
0.13695779 -0.049404867 0.71800005 4292056832
0.13820855 -0.049404867 0.71800005 4291925248
0.13945931 -0.049404867 0.71800005 4291530752
0.14031811 -0.049267251 0.71600002 4291529728
0.14156538 -0.049267251 0.71600002 4291332608
0.14281265 -0.049267251 0.71600002 4290739968
0.14405994 -0.049267251 0.71600002 4290411264
0.14510426 -0.049198441 0.71500003 4290475008
0.14634979 -0.049198441 0.71500003 4289487872
0.14759532 -0.049198441 0.71500003 4289026304
0.14842452 -0.049060822 0.71300006 4288039424
0.14966656 -0.049060822 0.71300006 4287908096
0.15090862 -0.049060822 0.71300006 4287908096
0.15215066 -0.049060822 0.71300006 4287514624
0.1533927 -0.049060822 0.71300006 4287514624
0.15441787 -0.048992012 0.71200001 4287711497
0.15565817 -0.048992012 0.71200001 4287645704
0.15711884 -0.049060822 0.71300006 4288434432
0.15836088 -0.049060822 0.71300006 4288763136
0.15960293 -0.049060822 0.71300006 4288173081
0.16061938 -0.048992012 0.71200001 4288238874
0.16185968 -0.048992012 0.71200001 4289488409
0.16309999 -0.048992012 0.71200001 4290409511
0.16457112 -0.049060822 0.71300006 4291727761
0.1655806 -0.048992012 0.71200001 4294963440
0.022436963 -0.049361318 0.73600006 4294769148
0.023719076 -0.049361318 0.73600006 4292723380
0.025069125 -0.049495451 0.73800004 4288117870
0.026354721 -0.049495451 0.73800004 4288110848
0.027640317 -0.049495451 0.73800004 4288834304
0.028965108 -0.049562518 0.73900002 4289360131
0.030252445 -0.049562518 0.73900002 4289754889
0.031539787 -0.049562518 0.73900002 4289952256
0.0327827 -0.049495451 0.73800004 4289820672
0.034068298 -0.049495451 0.73800004 4289819904
0.035353892 -0.049495451 0.73800004 4289885696
0.036540199 -0.049361318 0.73600006 4289950976
0.03782231 -0.049361318 0.73600006 4289950976
0.039104421 -0.049361318 0.73600006 4289819648
0.040386535 -0.049361318 0.73600006 4289688064
0.041668646 -0.049361318 0.73600006 4290015232
0.042950757 -0.049361318 0.73600006 4289949440
0.044172768 -0.049294248 0.73500001 4290343168
0.045453139 -0.049294248 0.73500001 4290606336
0.046797093 -0.049361318 0.73600006 4290738176
0.048079208 -0.049361318 0.73600006 4291527680
0.049361318 -0.049361318 0.73600006 4291725824
0.050574619 -0.049294248 0.73500001 4292317696
0.051854987 -0.049294248 0.73500001 4292647424
0.053135358 -0.049294248 0.73500001 4292844800
0.054415729 -0.049294248 0.73500001 4292976128
0.0556961 -0.049294248 0.73500001 4292910336
0.056976471 -0.049294248 0.73500001 4293107456
0.058256842 -0.049294248 0.73500001 4293370880
0.059537213 -0.049294248 0.73500001 4293371136
0.060817584 -0.049294248 0.73500001 4293436928
0.062097948 -0.049294248 0.73500001 4293699584
0.063378319 -0.049294248 0.73500001 4293765376
0.064658687 -0.049294248 0.73500001 4293699584
0.065939061 -0.049294248 0.73500001 4293633792
0.067219429 -0.049294248 0.73500001 4293765376
0.068499804 -0.049294248 0.73500001 4293896960
0.069780171 -0.049294248 0.73500001 4293766144
0.070867181 -0.049160115 0.73300004 4293831936
0.072144069 -0.049160115 0.73300004 4293963008
0.073420957 -0.049160115 0.73300004 4294094592
0.074697837 -0.049160115 0.73300004 4293897728
0.07576742 -0.049025979 0.73100001 4293831936
0.077040829 -0.049025979 0.73100001 4294029312
0.078528501 -0.049160115 0.73300004 4294029312
0.079805389 -0.049160115 0.73300004 4294029312
0.080861032 -0.049025979 0.73100001 4294029312
0.082134441 -0.049025979 0.73100001 4294028800
0.083407834 -0.049025979 0.73100001 4293963008
0.084681235 -0.049025979 0.73100001 4294159616
0.085837059 -0.048958916 0.73000002 4294291200
0.087108716 -0.048958916 0.73000002 4294422272
0.088380374 -0.048958916 0.73000002 4294290944
0.089652039 -0.048958916 0.73000002 4294094592
0.090923697 -0.048958916 0.73000002 4294357760
0.092195362 -0.048958916 0.73000002 4294226944
0.093467019 -0.048958916 0.73000002 4294292736
0.094738677 -0.048958916 0.73000002 4294161152
0.096010342 -0.048958916 0.73000002 4294095360
0.097015478 -0.048824783 0.72800004 4293964288
0.098283648 -0.048824783 0.72800004 4293832704
0.099415079 -0.048757717 0.72700006 4294029312
0.10068152 -0.048757717 0.72700006 4294095104
0.10194796 -0.048757717 0.72700006 4293766144
0.10321438 -0.048757717 0.72700006 4293766144
0.10448082 -0.048757717 0.72700006 4293635328
0.10574725 -0.048757717 0.72700006 4293635328
0.10701369 -0.048757717 0.72700006 4293635328
0.10798224 -0.04862358 0.72500002 4293635328
0.10924518 -0.04862358 0.72500002 4293371648
0.11050814 -0.04862358 0.72500002 4293305856
0.11161692 -0.04855651 0.72400004 4293174784
0.11287813 -0.04855651 0.72400004 4293306624
0.11413933 -0.04855651 0.72400004 4293108992
0.11540055 -0.04855651 0.72400004 4293043200
0.11666175 -0.04855651 0.72400004 4292845824
0.11792295 -0.04855651 0.72400004 4292714240
0.11918417 -0.04855651 0.72400004 4292583680
0.12044539 -0.04855651 0.72400004 4292583680
0.12137038 -0.048422381 0.72200006 4292385536
0.12262811 -0.048422381 0.72200006 4292319744
0.12388583 -0.048422381 0.72200006 4292319488
0.12514356 -0.048422381 0.72200006 4292253696
0.1262262 -0.048355311 0.72100002 4292056832
0.12748219 -0.048355311 0.72100002 4291925248
0.12873816 -0.048355311 0.72100002 4291793664
0.12963356 -0.048221178 0.71900004 4291793664
0.13088606 -0.048221178 0.71900004 4291728128
0.13213857 -0.048221178 0.71900004 4291531008
0.13339105 -0.048221178 0.71900004 4291332864
0.13445629 -0.048154112 0.71800005 4291201280
0.13570705 -0.048154112 0.71800005 4290938368
0.13695779 -0.048154112 0.71800005 4290872576
0.13820855 -0.048154112 0.71800005 4290411008
0.13945931 -0.048154112 0.71800005 4290345216
0.14031811 -0.048019975 0.71600002 4289752576
0.14156538 -0.048019975 0.71600002 4289686784
0.14281265 -0.048019975 0.71600002 4289224708
0.14405994 -0.048019975 0.71600002 4289027586
0.14510426 -0.047952913 0.71500003 4289026816
0.14634979 -0.047952913 0.71500003 4288303360
0.14759532 -0.047952913 0.71500003 4288367882
0.14884086 -0.047952913 0.71500003 4288302089
0.14966656 -0.04781878 0.71300006 4288368396
0.15090862 -0.04781878 0.71300006 4288434445
0.15215066 -0.04781878 0.71300006 4288238343
0.1540381 -0.048019975 0.71600002 4288238343
0.15528539 -0.048019975 0.71600002 4288304420
0.15631403 -0.047952913 0.71500003 4288501542
0.15755956 -0.047952913 0.71500003 4288896000
0.1588051 -0.047952913 0.71500003 4290080269
0.15960293 -0.04781878 0.71300006 4290538290
0.16084498 -0.04781878 0.71300006 4290274861
0.16185968 -0.04775171 0.71200001 4290075481
0.16309999 -0.04775171 0.71200001 4294946220
0.16457112 -0.04781878 0.71300006 4294432490
0.023815755 -0.04827518 0.73900002 4294966013
0.025103094 -0.04827518 0.73900002 4291607743
0.026390431 -0.04827518 0.73900002 4289627486
0.027677769 -0.04827518 0.73900002 4287521854
0.028965108 -0.04827518 0.73900002 4289622016
0.030252445 -0.04827518 0.73900002 4289753600
0.031539787 -0.04827518 0.73900002 4289688576
0.032827124 -0.04827518 0.73900002 4289688576
0.034068298 -0.048209853 0.73800004 4289754112
0.035353892 -0.048209853 0.73800004 4289951232
0.036639489 -0.048209853 0.73800004 4289820160
0.037925087 -0.048209853 0.73800004 4289820160
0.039210681 -0.048209853 0.73800004 4289820160
0.040496279 -0.048209853 0.73800004 4289820160
0.041668646 -0.048079208 0.73600006 4289688064
0.042950757 -0.048079208 0.73600006 4289556480
0.044232871 -0.048079208 0.73600006 4289293312
0.045514982 -0.048079208 0.73600006 4289227264
0.046797093 -0.048079208 0.73600006 4290015232
0.048079208 -0.048079208 0.73600006 4290344192
0.049361318 -0.048079208 0.73600006 4290673664
0.050574619 -0.048013877 0.73500001 4291134208
0.051854987 -0.048013877 0.73500001 4291661312
0.053135358 -0.048013877 0.73500001 4292253440
0.054415729 -0.048013877 0.73500001 4292384000
0.0556961 -0.048013877 0.73500001 4292713216
0.056976471 -0.048013877 0.73500001 4292648192
0.058256842 -0.048013877 0.73500001 4292976896
0.059537213 -0.048013877 0.73500001 4292977408
0.060817584 -0.048013877 0.73500001 4292977408
0.062097948 -0.048013877 0.73500001 4293042432
0.063378319 -0.048013877 0.73500001 4293108224
0.064658687 -0.048013877 0.73500001 4293173504
0.065939061 -0.048013877 0.73500001 4293239296
0.067219429 -0.048013877 0.73500001 4293436928
0.068499804 -0.048013877 0.73500001 4293436928
0.069780171 -0.048013877 0.73500001 4293305344
0.071060538 -0.048013877 0.73500001 4293436928
0.072340913 -0.048013877 0.73500001 4293503488
0.073420957 -0.047883231 0.73300004 4293503488
0.074697837 -0.047883231 0.73300004 4293503488
0.075974725 -0.047883231 0.73300004 4293437696
0.077251613 -0.047883231 0.73300004 4293568256
0.078528501 -0.047883231 0.73300004 4293700096
0.079805389 -0.047883231 0.73300004 4293569280
0.08108227 -0.047883231 0.73300004 4293503488
0.082134441 -0.047752578 0.73100001 4293699584
0.083407834 -0.047752578 0.73100001 4293699584
0.084681235 -0.047752578 0.73100001 4293896960
0.085837059 -0.047687255 0.73000002 4293765632
0.087108716 -0.047687255 0.73000002 4293765376
0.088380374 -0.047687255 0.73000002 4293896960
0.089652039 -0.047687255 0.73000002 4293962752
0.090923697 -0.047687255 0.73000002 4294028544
0.092195362 -0.047687255 0.73000002 4293897728
0.093467019 -0.047687255 0.73000002 4294029312
0.094738677 -0.047687255 0.73000002 4293899008
0.096010342 -0.047687255 0.73000002 4293964800
0.097015478 -0.047556605 0.72800004 4293964800
0.098283648 -0.047556605 0.72800004 4293701888
0.099551827 -0.047556605 0.72800004 4293635840
0.10068152 -0.047491282 0.72700006 4293570048
0.10194796 -0.047491282 0.72700006 4293373184
0.10321438 -0.047491282 0.72700006 4293373184
0.10419339 -0.047360629 0.72500002 4293438976
0.10545634 -0.047360629 0.72500002 4293438976
0.10701369 -0.047491282 0.72700006 4293043968
0.10828012 -0.047491282 0.72700006 4293175296
0.10924518 -0.047360629 0.72500002 4293371648
0.11050814 -0.047360629 0.72500002 4293174528
0.11177108 -0.047360629 0.72500002 4292977152
0.11287813 -0.047295306 0.72400004 4292977152
0.11413933 -0.047295306 0.72400004 4292715520
0.11540055 -0.047295306 0.72400004 4292649728
0.11666175 -0.047295306 0.72400004 4292517888
0.11792295 -0.047295306 0.72400004 4292517888
0.11918417 -0.047295306 0.72400004 4292387072
0.12044539 -0.047295306 0.72400004 4292387072
0.12137038 -0.047164656 0.72200006 4292123392
0.12262811 -0.047164656 0.72200006 4292123392
0.12388583 -0.047164656 0.72200006 4291991808
0.12514356 -0.047164656 0.72200006 4291991808
0.12640128 -0.047164656 0.72200006 4291925762
0.12748219 -0.04709933 0.72100002 4291794176
0.12873816 -0.04709933 0.72100002 4291662854
0.12963356 -0.04696868 0.71900004 4291399938
0.13088606 -0.04696868 0.71900004 4291399686
0.13213857 -0.04696868 0.71900004 4291333893
0.13339105 -0.04696868 0.71900004 4291333123
0.13445629 -0.046903353 0.71800005 4290938368
0.13570705 -0.046903353 0.71800005 4290610688
0.13695779 -0.046903353 0.71800005 4290479104
0.13820855 -0.046903353 0.71800005 4289886464
0.13945931 -0.046903353 0.71800005 4289491712
0.14071007 -0.046903353 0.71800005 4289293568
0.14196081 -0.046903353 0.71800005 4288701440
0.14321159 -0.046903353 0.71800005 4288699904
0.14405994 -0.046772704 0.71600002 4288436736
0.1453072 -0.046772704 0.71600002 4288501504
0.14655448 -0.046772704 0.71600002 4288040960
0.14780174 -0.046772704 0.71600002 4288368128
0.14904901 -0.046772704 0.71600002 4288565760
0.15029629 -0.046772704 0.71600002 4288500224
0.15154356 -0.046772704 0.71600002 4288500224
0.15279083 -0.046772704 0.71600002 4288435456
0.1540381 -0.046772704 0.71600002 4288303872
0.15528539 -0.046772704 0.71600002 4288369920
0.15653265 -0.046772704 0.71600002 4288172544
0.15777993 -0.046772704 0.71600002 4289091592
0.15902719 -0.046772704 0.71600002 4289881107
0.16005062 -0.046707381 0.71500003 4291452724
0.16084498 -0.046576735 0.71300006 4292900170
0.16208702 -0.046576735 0.71300006 4292377199
0.16332906 -0.046576735 0.71300006 4294952120
0.16457112 -0.046576735 0.71300006 4294963703
0.025103094 -0.046987843 0.73900002 4294967295
0.026390431 -0.046987843 0.73900002 4294964210
