# .PCD v0.7 - Point Cloud Data file format
VERSION 0.7
FIELDS x y z
SIZE 4 4 4
TYPE F F F
COUNT 1 1 1
WIDTH 1340
HEIGHT 1
VIEWPOINT 0 0 0 1 0 0 0
POINTS 1340
DATA ascii
0.072006978 -0.036002245 0.74579144
0.072013095 -0.035968021 0.74591941
0.072019644 -0.035931338 0.74605656
0.07202667 -0.035892021 0.74620354
0.072034203 -0.03584988 0.74636108
0.072042271 -0.035804722 0.74652994
0.072050914 -0.03575632 0.7467109
0.072060183 -0.035704453 0.74690485
0.072070114 -0.035648871 0.74711269
0.072080754 -0.035589326 0.74733531
0.072092146 -0.035525549 0.74757373
0.072104342 -0.03545728 0.74782902
0.072117396 -0.035384238 0.74810213
0.072131343 -0.035306152 0.74839407
0.072146244 -0.035222765 0.74870586
0.072162136 -0.035133816 0.7490384
0.072179064 -0.035039071 0.74939269
0.072197065 -0.034938309 0.74976945
0.072216183 -0.034831334 0.7501694
0.072236434 -0.034717973 0.75059325
0.072257854 -0.034598097 0.75104147
0.072280467 -0.034471601 0.75151455
0.072304286 -0.034338456 0.75201273
0.072329365 -0.03419878 0.75253624
0.072355799 -0.034053132 0.75308508
0.072383933 -0.033903442 0.75365943
0.07241489 -0.033756044 0.75425899
0.072480522 -0.033591684 0.75525415
0.072652742 -0.033999413 0.7563017
0.073083863 -0.036008295 0.75708222
0.07780806 -0.064815402 0.7529726
0.077813379 -0.064785607 0.753084
0.077819087 -0.064753674 0.75320339
0.077825204 -0.064719446 0.75333136
0.07783176 -0.064682759 0.75346851
0.077838786 -0.064643443 0.7536155
0.077846311 -0.06460131 0.75377309
0.07785438 -0.064556144 0.75394195
0.07786303 -0.064507745 0.75412291
0.077872299 -0.064455874 0.75431681
0.077882223 -0.064400293 0.75452465
0.077892862 -0.064340748 0.75474727
0.077904262 -0.064276978 0.75498575
0.077916458 -0.064208701 0.75524098
0.077929504 -0.064135663 0.75551409
0.077943459 -0.064057581 0.75580603
0.07795836 -0.063974194 0.75611782
0.077974252 -0.063885242 0.75645041
0.07799118 -0.0637905 0.75680465
0.078009181 -0.063689731 0.75718141
0.078028291 -0.063582756 0.75758135
0.07804855 -0.063469395 0.7580052
0.078069963 -0.0633495 0.75845349
0.078092568 -0.06322296 0.75892651
0.07811635 -0.063089639 0.75942463
0.078141302 -0.062949337 0.75994796
0.078167297 -0.062801525 0.76049632
0.078193955 -0.062644519 0.7610687
0.078220002 -0.062472861 0.76166207
0.078247137 -0.062118035 0.76260811
0.078159176 -0.061238706 0.76332384
0.07775154 -0.0590984 0.76303476
0.07685142 -0.065790549 0.74994308
0.076846771 -0.065820217 0.74983156
0.076841801 -0.065852024 0.74971211
0.076836467 -0.06588611 0.74958408
0.076830752 -0.06592264 0.74944687
0.076824628 -0.065961801 0.74929976
0.076818064 -0.066003762 0.74914211
0.076811023 -0.066048741 0.74897319
0.076803483 -0.066096939 0.74879211
0.076795407 -0.066148594 0.74859804
0.076786742 -0.066203952 0.74839014
0.076777466 -0.066263251 0.74816734
0.076767534 -0.066326767 0.7479288
0.076756895 -0.066394754 0.74767339
0.076745518 -0.066467501 0.7474001
0.076733351 -0.066545263 0.74710798
0.076720357 -0.066628307 0.74679601
0.076706499 -0.066716895 0.7464633
0.076691739 -0.066811249 0.74610883
0.076676041 -0.066911601 0.74573189
0.076659374 -0.067018136 0.74533165
0.076641709 -0.067131035 0.74490756
0.07662303 -0.067250416 0.74445909
0.076603316 -0.06737639 0.74398577
0.076582544 -0.067508988 0.7434873
0.076560669 -0.06764809 0.74296349
0.076537587 -0.067793138 0.7424143
0.076512948 -0.067942202 0.74183971
0.076485619 -0.068088956 0.74123973
0.076425754 -0.06825228 0.74024403
0.076257765 -0.067843795 0.73919612
0.075824395 -0.065835312 0.73841584
0.070987366 -0.037048429 0.74253589
0.070982724 -0.037078105 0.74242443
0.070977747 -0.037109908 0.74230492
0.070972413 -0.037143994 0.74217689
0.070966698 -0.037180524 0.74203968
0.070960574 -0.037219681 0.74189258
0.07095401 -0.037261646 0.74173492
0.070946969 -0.037306622 0.741566
0.070939429 -0.037354823 0.74138492
0.070931353 -0.037406482 0.74119085
0.070922688 -0.037461832 0.74098295
0.070913412 -0.037521135 0.74076021
0.07090348 -0.037584648 0.74052161
0.070892841 -0.037652642 0.7402662
0.070881464 -0.037725382 0.73999292
0.070869297 -0.037803147 0.73970085
0.070856303 -0.037886191 0.73938888
0.070842445 -0.037974775 0.73905611
0.070827685 -0.038069133 0.73870164
0.070811987 -0.038169485 0.7383247
0.07079532 -0.038276024 0.73792446
0.070777662 -0.038388919 0.73750037
0.070758983 -0.038508322 0.7370519
0.070739277 -0.038634345 0.73657858
0.070718534 -0.038767122 0.73608017
0.070696793 -0.038906846 0.73555654
0.070674151 -0.039054055 0.73500794
0.070651002 -0.039210431 0.7344352
0.070628628 -0.039381433 0.73384148
0.070607603 -0.039735164 0.7328949
0.070702121 -0.04061332 0.73217851
0.071115009 -0.042752683 0.73246717
0.071116716 -0.036221564 0.74564201
0.071121357 -0.036191888 0.74575347
0.071126334 -0.036160085 0.74587291
0.071131669 -0.036125999 0.74600095
0.071137384 -0.036089465 0.74613822
0.071143508 -0.036050312 0.74628526
0.071150072 -0.036008347 0.74644291
0.071157113 -0.035963371 0.74661183
0.071164653 -0.03591517 0.74679291
0.071172729 -0.035863511 0.74698699
0.071181394 -0.035808161 0.74719489
0.07119067 -0.035748858 0.74741769
0.071200602 -0.035685346 0.74765629
0.071211241 -0.035617355 0.74791169
0.071222618 -0.035544612 0.74818492
0.071234785 -0.035466846 0.74847704
0.071247779 -0.035383802 0.74878901
0.071261637 -0.035295218 0.74912173
0.071276397 -0.03520086 0.74947619
0.071292095 -0.035100512 0.74985319
0.071308762 -0.034993973 0.75025338
0.071326427 -0.034881078 0.75067747
0.071345106 -0.034761693 0.75112593
0.07136482 -0.034635715 0.75159931
0.071385592 -0.034503117 0.75209773
0.071407467 -0.034364015 0.75262153
0.071430549 -0.034218967 0.75317073
0.071455188 -0.034069907 0.75374538
0.071482517 -0.033923157 0.7543453
0.071542382 -0.033759829 0.75534099
0.07171037 -0.034168318 0.7563889
0.072143741 -0.036176797 0.75716919
0.07698077 -0.064963676 0.75304914
0.076985411 -0.064934008 0.7531606
0.076990388 -0.064902201 0.7532801
0.076995723 -0.064868115 0.75340813
0.077001438 -0.064831585 0.75354534
0.077007562 -0.064792432 0.75369245
0.077014126 -0.064750463 0.7538501
0.077021167 -0.064705491 0.75401902
0.077028707 -0.064657286 0.7542001
0.077036783 -0.064605631 0.75439417
0.077045448 -0.064550273 0.75460207
0.077054724 -0.064490974 0.75482482
0.077064656 -0.064427465 0.75506341
0.077075295 -0.064359471 0.75531882
0.077086672 -0.064286724 0.75559211
0.077098839 -0.064208962 0.75588423
0.077111833 -0.064125918 0.75619614
0.077125691 -0.064037338 0.75652891
0.07714045 -0.063942976 0.75688338
0.077156149 -0.063842624 0.75726032
0.077172816 -0.063736089 0.75766057
0.077190474 -0.06362319 0.75808465
0.077209152 -0.063503787 0.75853312
0.077228859 -0.06337776 0.75900644
0.077249601 -0.063244991 0.75950485
0.077271342 -0.063105263 0.76002848
0.077293985 -0.062958054 0.76057714
0.077317134 -0.062801681 0.76114988
0.077339508 -0.062630676 0.76174355
0.077360533 -0.062276945 0.76269019
0.077266015 -0.061398793 0.76340652
0.076853126 -0.059259426 0.76311785
0.075985193 -0.065948762 0.7500183
0.075981282 -0.065978304 0.74990678
0.075977087 -0.066009961 0.74978721
0.075972594 -0.066043891 0.74965912
0.075967781 -0.066080265 0.74952179
0.075962618 -0.066119239 0.74937463
0.075957082 -0.066161014 0.74921691
0.075951159 -0.066205792 0.74904788
0.075944804 -0.066253774 0.74886668
0.075937986 -0.066305198 0.74867254
0.075930692 -0.066360302 0.74846447
0.075922877 -0.066419341 0.7482416
0.075914502 -0.066482566 0.74800289
0.075905539 -0.066550255 0.7477473
0.07589595 -0.066622667 0.7474739
0.075885698 -0.066700086 0.74718165
0.075874753 -0.066782758 0.7468695
0.075863071 -0.066870943 0.74653655
0.075850636 -0.066964872 0.74618191
0.075837404 -0.06706477 0.74580473
0.075823359 -0.067170836 0.74540424
0.075808473 -0.067283221 0.74497992
0.07579273 -0.067402072 0.74453121
0.075776115 -0.06752748 0.7440576
0.075758606 -0.067659482 0.74355888
0.075740166 -0.067797959 0.74303478
0.075720675 -0.067942344 0.74248528
0.075699791 -0.068090722 0.74191034
0.075676352 -0.068236761 0.74131006
0.075622663 -0.06839896 0.74031383
0.075459205 -0.067989647 0.7392655
0.075023435 -0.065981612 0.7384854
0.070065476 -0.037216812 0.74261594
0.070061564 -0.03724635 0.74250442
0.07005737 -0.037278011 0.74238491
0.070052877 -0.037311945 0.74225676
0.070048057 -0.037348311 0.74211943
0.070042901 -0.037387293 0.74197227
0.070037365 -0.037429068 0.74181455
0.070031434 -0.037473843 0.74164551
0.070025079 -0.037521828 0.74146432
0.070018269 -0.037573252 0.74127018
0.070010975 -0.037628356 0.74106216
0.070003159 -0.037687391 0.74083924
0.069994785 -0.037750617 0.74060053
0.069985822 -0.037818305 0.740345
0.069976233 -0.037890721 0.74007159
0.069965981 -0.037968133 0.73977929
0.069955029 -0.038050804 0.73946714
0.069943354 -0.038138993 0.73913419
0.069930911 -0.038232926 0.73877954
0.069917686 -0.038332824 0.73840237
0.069903642 -0.038438886 0.73800194
0.069888756 -0.038551275 0.73757762
0.06987302 -0.038670138 0.73712885
0.069856413 -0.038795598 0.73665529
0.069838941 -0.038927779 0.73615658
0.069820628 -0.039066877 0.73563266
0.069801584 -0.039213426 0.7350837
0.069782205 -0.039369114 0.73451066
0.069763757 -0.039539397 0.73391664
0.069749281 -0.039891932 0.7329694
0.069850825 -0.040768806 0.73225248
0.070269339 -0.042907141 0.73254061
0.070174478 -0.036393657 0.74572384
0.07017839 -0.036364119 0.74583536
0.070182584 -0.036332458 0.74595487
0.070187077 -0.036298525 0.74608302
0.070191897 -0.036262158 0.74622029
0.070197053 -0.036223181 0.74636745
0.070202589 -0.036181401 0.74652523
0.07020852 -0.036136631 0.74669427
0.070214875 -0.036088645 0.74687541
0.070221685 -0.036037218 0.7470696
0.070228979 -0.035982113 0.74727762
0.070236795 -0.035923079 0.74750054
0.070245169 -0.035859853 0.74773926
0.070254132 -0.035792165 0.74799478
0.070263721 -0.035719752 0.74826819
0.070273973 -0.035642337 0.74856049
0.070284925 -0.035559665 0.74887264
0.0702966 -0.035471477 0.74920559
0.070309043 -0.035377543 0.74956024
0.070322268 -0.035277646 0.74993742
0.070336312 -0.035171587 0.75033784
0.070351198 -0.035059199 0.75076216
0.070366941 -0.034940351 0.75121093
0.070383556 -0.034814943 0.75168449
0.070401065 -0.034682937 0.75218326
0.070419505 -0.034544464 0.75270736
0.070438996 -0.034400072 0.75325686
0.07045988 -0.034251694 0.7538318
0.070483327 -0.034105655 0.75443208
0.070537016 -0.033943456 0.75542831
0.070700467 -0.034352772 0.75647664
0.071136244 -0.036360811 0.75725675
0.076094195 -0.065125607 0.75312614
0.076098114 -0.065096065 0.75323766
0.076102301 -0.065064408 0.75335723
0.076106794 -0.065030478 0.75348532
0.076111615 -0.064994104 0.75362265
0.076116778 -0.06495513 0.75376981
0.076122306 -0.064913355 0.75392753
0.076128237 -0.064868577 0.75409657
0.076134592 -0.064820595 0.75427777
0.076141402 -0.064769171 0.7544719
0.076148696 -0.064714067 0.75467998
0.076156512 -0.064655028 0.75490284
0.076164886 -0.064591803 0.75514156
0.076173849 -0.064524114 0.75539714
0.076183438 -0.064451702 0.75567055
0.07619369 -0.06437429 0.75596285
0.076204643 -0.064291611 0.75627494
0.076216318 -0.064203426 0.75660789
0.07622876 -0.064109497 0.75696254
0.076241985 -0.064009592 0.75733972
0.076256029 -0.063903533 0.7577402
0.076270916 -0.063791148 0.75816453
0.076286651 -0.063672282 0.75861323
0.076303259 -0.063546821 0.75908685
0.07632073 -0.063414641 0.7595855
0.076339044 -0.063275546 0.76010942
0.076358087 -0.063128993 0.76065838
0.076377466 -0.062973306 0.76123148
0.076395914 -0.062803023 0.7618255
0.07641039 -0.062450487 0.76277268
0.076308854 -0.061573613 0.76348966
0.075890332 -0.059435278 0.76320148
0.07505694 -0.066121697 0.75009328
0.075053811 -0.06615109 0.74998164
0.075050458 -0.066182598 0.74986207
0.075046867 -0.066216365 0.74973387
0.075043015 -0.066252552 0.74959648
0.07503888 -0.06629134 0.74944925
0.075034454 -0.066332906 0.74929142
0.075029716 -0.066377461 0.74912226
0.075024627 -0.066425212 0.748941
0.075019181 -0.066476382 0.74874675
0.075013347 -0.066531211 0.74853855
0.075007088 -0.066589959 0.74831557
0.07500039 -0.066652872 0.74807668
0.074993223 -0.066720225 0.74782097
0.074985549 -0.066792279 0.74754745
0.074977353 -0.066869311 0.74725497
0.074968591 -0.06695158 0.7469427
0.074959248 -0.067039326 0.74660951
0.074949302 -0.067132801 0.74625468
0.074938715 -0.067232206 0.74587727
0.074927479 -0.067337736 0.7454766
0.074915573 -0.06744957 0.74505204
0.074902982 -0.067567833 0.74460304
0.07488969 -0.067692623 0.74412918
0.074875675 -0.067823976 0.74363017
0.074860908 -0.067961767 0.74310577
0.074845277 -0.068105437 0.74255598
0.074828409 -0.06825307 0.74198067
0.074809134 -0.068398334 0.7413801
0.074762061 -0.068559296 0.74038333
0.074603461 -0.068149075 0.73933458
0.074165113 -0.066141516 0.73855472
0.069077574 -0.03740086 0.74269575
0.069074444 -0.037430257 0.74258417
0.069071092 -0.037461761 0.74246454
0.069067501 -0.037495524 0.74233633
0.069063641 -0.037531715 0.74219894
0.069059514 -0.037570499 0.74205172
0.069055088 -0.037612069 0.74189389
0.069050349 -0.037656624 0.74172473
0.069045261 -0.037704371 0.74154347
0.069039814 -0.037755545 0.74134922
0.06903398 -0.037810374 0.74114102
0.069027722 -0.037869118 0.74091804
0.069021024 -0.037932035 0.7406792
0.069013856 -0.037999388 0.7404235
0.069006182 -0.038071446 0.74014992
0.068997987 -0.038148474 0.73985749
0.068989225 -0.038230743 0.73954517
0.068979882 -0.038318492 0.73921204
0.068969935 -0.03841196 0.73885715
0.068959348 -0.038511369 0.73847979
0.068948112 -0.038616903 0.73807913
0.068936206 -0.03872874 0.73765457
0.068923615 -0.038847018 0.73720556
0.068910338 -0.038971856 0.73673171
0.068896361 -0.039103385 0.7362327
0.06888172 -0.039241798 0.73570848
0.068866536 -0.039387632 0.73515922
0.068851195 -0.039542567 0.73458582
0.068836957 -0.039712068 0.73399144
0.068829499 -0.040063292 0.73304373
0.068938568 -0.040938761 0.73232615
0.069363117 -0.043075975 0.7326138
0.069164775 -0.036581773 0.74580538
0.069167905 -0.036552377 0.74591696
0.069171257 -0.036520872 0.74603659
0.069174856 -0.03648711 0.74616474
0.069178708 -0.036450919 0.74630213
0.069182836 -0.036412135 0.74644941
0.069187261 -0.036370564 0.74660718
0.069192007 -0.03632601 0.74677634
0.069197088 -0.036278263 0.7469576
0.069202535 -0.036227092 0.74715191
0.069208369 -0.03617226 0.74736005
0.069214627 -0.036113515 0.74758309
0.069221325 -0.036050599 0.74782193
0.069228493 -0.035983246 0.74807763
0.069236167 -0.035911191 0.74835122
0.069244362 -0.03583416 0.74864364
0.069253124 -0.035751894 0.74895597
0.069262467 -0.035664145 0.7492891
0.069272421 -0.035570674 0.74964392
0.069283001 -0.035471268 0.75002134
0.069294237 -0.035365731 0.750422
0.069306143 -0.035253901 0.75084656
0.069318734 -0.035135638 0.75129557
0.069332026 -0.035010844 0.75176942
0.06934604 -0.034879494 0.75226849
0.069360808 -0.034741707 0.75279284
0.069376446 -0.03459803 0.75334269
0.069393307 -0.034450404 0.75391793
0.069412589 -0.03430514 0.75451857
0.069459654 -0.034144174 0.75551534
0.069618255 -0.034554396 0.75656402
0.070056602 -0.036561955 0.75734395
0.075144142 -0.06530261 0.75320292
0.075147271 -0.06527321 0.7533145
0.075150624 -0.065241709 0.75343406
0.075154223 -0.065207943 0.75356227
0.075158074 -0.065171756 0.75369966
0.075162202 -0.065132968 0.75384694
0.075166628 -0.065091401 0.75400472
0.075171374 -0.065046847 0.75417387
0.075176455 -0.064999096 0.75435513
0.075181901 -0.064947926 0.75454944
0.075187743 -0.064893097 0.75475758
0.075193994 -0.064834349 0.75498062
0.075200692 -0.064771436 0.75521946
0.075207867 -0.064704083 0.75547516
0.075215533 -0.064632028 0.75574875
0.075223736 -0.064554997 0.75604117
0.075232491 -0.064472727 0.7563535
0.075241834 -0.064384982 0.75668663
0.075251788 -0.064291507 0.75704145
0.075262368 -0.064192101 0.75741887
0.075273603 -0.064086564 0.75781953
0.075285509 -0.063974731 0.7582441
0.075298101 -0.063856453 0.7586931
0.075311385 -0.063731611 0.75916696
0.075325355 -0.063600086 0.75966591
0.075339995 -0.063461669 0.76019013
0.07535518 -0.063315839 0.76073939
0.075370528 -0.063160904 0.76131278
0.075384758 -0.062991403 0.76190716
0.075392216 -0.062640175 0.76285493
0.075283147 -0.06176471 0.76357251
0.074858606 -0.059627496 0.7632848
0.074062295 -0.066310905 0.75016713
0.07406 -0.066340141 0.75005543
0.074057549 -0.066371478 0.74993575
0.074054919 -0.066405058 0.74980754
0.074052095 -0.066441052 0.74967003
0.074049078 -0.066479623 0.74952275
0.074045837 -0.066520974 0.74936479
0.074042365 -0.066565283 0.74919558
0.07403864 -0.066612773 0.7490142
0.074034654 -0.066663668 0.74881983
0.074030377 -0.066718198 0.74861151
0.074025802 -0.066776626 0.74838841
0.0740209 -0.066839196 0.74814939
0.074015647 -0.066906184 0.74789357
0.074010037 -0.066977851 0.74761987
0.074004032 -0.067054465 0.74732727
0.073997617 -0.06713628 0.74701476
0.073990777 -0.067223556 0.74668145
0.073983498 -0.067316517 0.74632639
0.073975749 -0.067415386 0.74594879
0.073967524 -0.06752035 0.74554789
0.073958807 -0.067631572 0.74512309
0.07394959 -0.067749195 0.74467385
0.073939852 -0.067873307 0.74419969
0.073929593 -0.068003945 0.74370039
0.073918767 -0.068140991 0.74317575
0.073907256 -0.068283878 0.74262559
0.073894694 -0.068430685 0.74204999
0.073879883 -0.068575099 0.74144906
0.073839903 -0.068734713 0.74045175
0.07368651 -0.068323508 0.73940265
0.073245399 -0.066316471 0.73862296
0.06801901 -0.037602231 0.74277431
0.068016723 -0.037631467 0.74266267
0.068014264 -0.037662797 0.74254298
0.068011634 -0.03769638 0.74241471
0.06800881 -0.037732374 0.74227726
0.068005785 -0.037770949 0.74212992
0.068002552 -0.037812293 0.74197203
0.06799908 -0.037856605 0.74180281
0.067995355 -0.037904095 0.74162143
0.067991368 -0.037954986 0.74142706
0.067987092 -0.038009521 0.74121875
0.067982517 -0.038067948 0.74099565
0.067977615 -0.038130522 0.74075663
0.067972362 -0.038197506 0.74050081
0.067966744 -0.038269173 0.7402271
0.067960747 -0.038345788 0.73993444
0.067954332 -0.038427606 0.739622
0.067947492 -0.038514879 0.73928863
0.067940205 -0.038607843 0.73893362
0.067932464 -0.038706712 0.73855603
0.067924239 -0.038811672 0.73815513
0.067915522 -0.038922902 0.73773032
0.067906305 -0.039040539 0.73728108
0.067896582 -0.0391647 0.73680693
0.06788636 -0.039295513 0.73630768
0.067875661 -0.039433178 0.73578316
0.067864604 -0.039578225 0.7352336
0.067853585 -0.039732341 0.73465991
0.067843869 -0.039900977 0.73406518
0.067843929 -0.040250774 0.73311687
0.06796106 -0.041124713 0.73239869
0.068392068 -0.043260694 0.73268586
0.068082847 -0.036787584 0.74588567
0.068085134 -0.036758352 0.74599737
0.068087593 -0.036727019 0.746117
0.068090223 -0.036693435 0.74624527
0.068093047 -0.036657441 0.74638271
0.068096064 -0.036618866 0.74653006
0.068099305 -0.036577523 0.74668795
0.068102777 -0.03653321 0.74685723
0.068106502 -0.03648572 0.7470386
0.068110488 -0.036434829 0.74723297
0.068114758 -0.036380295 0.74744123
0.06811934 -0.036321867 0.74766439
0.068124242 -0.036259297 0.74790341
0.068129495 -0.036192309 0.74815923
0.068135105 -0.036120642 0.74843293
0.06814111 -0.036044028 0.74872553
0.068147518 -0.035962209 0.74903804
0.068154357 -0.035874937 0.74937135
0.068161644 -0.035781972 0.74972641
0.068169393 -0.035683107 0.75010401
0.068177618 -0.035578143 0.75050491
0.068186335 -0.035466921 0.75092971
0.068195552 -0.035349298 0.75137895
0.068205282 -0.035225183 0.75185311
0.068215549 -0.035094548 0.75235236
0.068226375 -0.034957506 0.75287706
0.068237886 -0.034814619 0.75342721
0.06825044 -0.034667809 0.75400281
0.068265259 -0.034523394 0.75460374
0.068305232 -0.034363776 0.75560099
0.068458624 -0.034774989 0.75665009
0.068899743 -0.036782023 0.75742978
0.074126132 -0.065496266 0.75327843
0.074128419 -0.06546703 0.75339013
0.074130878 -0.065435693 0.75350976
0.074133508 -0.065402113 0.75363803
0.074136332 -0.065366119 0.75377554
0.074139349 -0.065327547 0.75392282
0.07414259 -0.065286204 0.75408077
0.074146062 -0.065241888 0.75424999
0.074149787 -0.065194398 0.75443137
0.074153773 -0.065143503 0.75462574
0.074158043 -0.065088972 0.754834
0.074162625 -0.065030545 0.75505716
0.074167527 -0.064967975 0.75529617
0.07417278 -0.064900987 0.75555199
0.07417839 -0.06482932 0.7558257
0.074184395 -0.064752705 0.7561183
0.07419081 -0.064670891 0.7564308
0.07419765 -0.064583614 0.75676411
0.074204929 -0.064490654 0.75711918
0.074212678 -0.064391784 0.75749677
0.074220903 -0.064286821 0.75789768
0.07422962 -0.064175591 0.75832248
0.074238837 -0.064057954 0.75877172
0.07424856 -0.06393379 0.75924587
0.074258782 -0.06380298 0.75974512
0.074269481 -0.063665316 0.76026958
0.07428053 -0.063520268 0.7608192
0.074291557 -0.063366152 0.76139289
0.074301273 -0.063197516 0.76198763
0.074301213 -0.062847719 0.76293594
0.074184075 -0.06197378 0.76365405
0.073753066 -0.0598378 0.76336688
0.072996594 -0.066518113 0.75023878
0.072995201 -0.066547178 0.75012702
0.072993711 -0.066578321 0.75000727
0.072992109 -0.066611707 0.74987894
0.072990395 -0.066647485 0.74974144
0.072988555 -0.066685826 0.74959403
0.072986588 -0.066726923 0.74943602
0.072984479 -0.066770971 0.74926668
0.072982214 -0.066818178 0.74908525
0.072979793 -0.066868767 0.74889076
0.072977193 -0.066922978 0.74868232
0.072974406 -0.066981047 0.7484591
0.072971426 -0.067043252 0.74821997
0.072968237 -0.067109838 0.74796396
0.072964825 -0.067181073 0.74769014
0.072961181 -0.067257233 0.74739736
0.072957277 -0.067338564 0.74708468
0.07295312 -0.067425311 0.74675119
0.072948694 -0.06751772 0.74639595
0.072943985 -0.067615993 0.74601817
0.072938986 -0.067720331 0.74561703
0.072933689 -0.06783089 0.74519199
0.072928086 -0.067947812 0.74474251
0.07292217 -0.068071187 0.74426812
0.072915919 -0.068201035 0.74376857
0.07290931 -0.068337262 0.74324358
0.072902225 -0.068479292 0.74269319
0.072894283 -0.068625204 0.74211729
0.072884247 -0.068768688 0.74151599
0.072851874 -0.068926826 0.74051821
0.072704054 -0.068514526 0.73946875
0.072259985 -0.06650807 0.73868924
0.066884823 -0.037822753 0.7428506
0.06688343 -0.037851814 0.74273884
0.06688194 -0.037882961 0.74261916
0.066880338 -0.037916344 0.74249083
0.066878624 -0.037952118 0.74235326
0.066876791 -0.037990466 0.74220586
0.066874817 -0.038031563 0.74204785
0.066872708 -0.038075607 0.74187851
0.066870451 -0.038122814 0.74169707
0.066868022 -0.038173404 0.74150258
0.066865422 -0.03822761 0.74129421
0.066862643 -0.038285688 0.74107093
0.066859663 -0.038347889 0.74083179
0.066856474 -0.038414475 0.74057579
0.066853054 -0.038485713 0.74030197
0.066849411 -0.038561869 0.74000919
0.066845514 -0.0386432 0.7396965
0.066841356 -0.038729951 0.73936301
0.066836923 -0.03882236 0.73900777
0.066832215 -0.038920633 0.73863
0.066827215 -0.039024971 0.73822886
0.066821925 -0.039135534 0.73780382
0.066816323 -0.039252467 0.73735434
0.066810414 -0.03937589 0.73687994
0.066804208 -0.039505921 0.73638046
0.066797733 -0.039642766 0.73585564
0.066791102 -0.03978695 0.73530579
0.066784717 -0.039940163 0.73473173
0.066779837 -0.040107865 0.7341367
0.066787951 -0.040456094 0.73318785
0.066913724 -0.041328348 0.73246914
0.067351654 -0.043462988 0.73275584
0.066923626 -0.037012976 0.74596363
0.066925019 -0.036983918 0.74607533
0.066926509 -0.036952771 0.74619508
0.066928111 -0.036919389 0.74632341
0.066929825 -0.036883611 0.74646097
0.066931657 -0.036845267 0.74660838
0.066933632 -0.036804169 0.74676633
0.06693574 -0.036760125 0.74693567
0.066938005 -0.036712918 0.74711716
0.066940427 -0.036662329 0.74731165
0.066943027 -0.036608119 0.74752003
0.066945806 -0.036550045 0.74774331
0.066948786 -0.036487844 0.74798238
0.066951983 -0.036421258 0.74823838
0.066955395 -0.036350019 0.74851227
0.066959038 -0.036273863 0.74880505
0.066962935 -0.036192533 0.74911767
0.066967092 -0.036105782 0.74945116
0.066971526 -0.036013372 0.7498064
0.066976234 -0.035915099 0.75018424
0.066981234 -0.035810761 0.75058532
0.066986531 -0.035700202 0.75101036
0.066992134 -0.035583284 0.7514599
0.06699805 -0.03545991 0.75193423
0.067004293 -0.035330053 0.75243384
0.067010902 -0.035193834 0.75295877
0.067017995 -0.035051804 0.75350922
0.067025937 -0.034905892 0.75408512
0.067035973 -0.034762409 0.75468636
0.067068346 -0.03460427 0.7556842
0.067216165 -0.035016567 0.75673366
0.067660235 -0.037023023 0.75751317
0.073035397 -0.065708339 0.75335181
0.073036782 -0.065679282 0.75346351
0.07303828 -0.065648131 0.75358325
0.073039882 -0.065614752 0.75371158
0.073041596 -0.065578975 0.75384909
0.073043428 -0.065540627 0.75399655
0.073045403 -0.065499529 0.7541545
0.073047511 -0.065455489 0.75432384
0.073049769 -0.065408282 0.75450534
0.073052198 -0.065357693 0.75469983
0.07305479 -0.065303482 0.7549082
0.073057577 -0.065245405 0.75513148
0.073060557 -0.065183207 0.75537056
0.073063746 -0.065116622 0.75562656
0.073067158 -0.065045379 0.75590044
0.073070809 -0.064969227 0.75619316
0.073074706 -0.064887896 0.75650585
0.073078863 -0.064801142 0.75683933
0.073083289 -0.064708732 0.75719458
0.073087998 -0.064610459 0.75757241
0.073092997 -0.064506121 0.75797349
0.073098294 -0.064395554 0.75839853
0.073103897 -0.064278625 0.75884801
0.073109806 -0.064155206 0.7593224
0.073116012 -0.064025171 0.75982195
0.073122486 -0.063888326 0.76034671
0.073129117 -0.063744143 0.76089662
0.073135503 -0.063590929 0.76147062
0.073140383 -0.063423231 0.76206565
0.073132269 -0.063074999 0.7630145
0.073006488 -0.062202744 0.76373327
0.072568558 -0.060068108 0.76344651
0.071854897 -0.066745251 0.75030696
0.071854465 -0.066774122 0.75019515
0.071854003 -0.066805065 0.75007534
0.071853511 -0.066838227 0.74994695
0.071852982 -0.066873766 0.74980938
0.071852416 -0.066911854 0.74966186
0.071851805 -0.066952683 0.74950379
0.071851149 -0.06699644 0.74933439
0.071850456 -0.067043334 0.74915284
0.071849704 -0.067093588 0.74895823
0.071848899 -0.067147441 0.74874973
0.071848042 -0.067205139 0.74852633
0.071847126 -0.067266926 0.74828714
0.071846142 -0.067333072 0.74803102
0.071845084 -0.067403845 0.74775702
0.071843959 -0.067479499 0.74746406
0.071842752 -0.067560293 0.74715126
0.071841471 -0.067646474 0.74681759
0.0718401 -0.067738272 0.74646217
0.071838647 -0.067835897 0.74608415
0.071837105 -0.06793955 0.74568284
0.071835466 -0.068049379 0.74525762
0.071833737 -0.068165526 0.74480784
0.071831904 -0.068288088 0.74433321
0.071829967 -0.068417087 0.74383342
0.071827874 -0.068552405 0.74330819
0.071825527 -0.068693489 0.7427575
0.071822524 -0.068838418 0.7421813
0.071817614 -0.068980888 0.74157971
0.071793385 -0.069137402 0.74058139
0.071651541 -0.068723924 0.73953158
0.071204297 -0.066718094 0.73875231
0.06566976 -0.038064487 0.74292314
0.065669328 -0.038093355 0.74281138
0.065668866 -0.038124297 0.74269158
0.065668374 -0.038157456 0.74256319
0.065667845 -0.038192999 0.74242556
0.065667279 -0.03823109 0.7422781
0.065666668 -0.038271919 0.74212003
0.06566602 -0.038315672 0.74195057
0.06566532 -0.03836257 0.74176902
0.065664575 -0.038412824 0.74157447
0.06566377 -0.038466677 0.74136597
0.065662913 -0.038524371 0.74114257
0.065661989 -0.038586158 0.74090332
0.065661006 -0.038652308 0.7406472
0.065659948 -0.038723078 0.74037319
0.065658823 -0.038798731 0.7400803
0.065657623 -0.038879525 0.73976749
0.065656334 -0.038965706 0.73943377
0.065654971 -0.039057504 0.73907834
0.065653518 -0.039155133 0.73870039
0.065651968 -0.039258782 0.73829907
0.065650336 -0.039368618 0.73787379
0.065648608 -0.03948478 0.73742408
0.065646783 -0.039607387 0.73694944
0.065644883 -0.039736565 0.73644966
0.065642931 -0.039872508 0.7359246
0.065641046 -0.04001575 0.73537445
0.065639623 -0.040167976 0.73480016
0.065639928 -0.040334642 0.73420483
0.065656669 -0.040681157 0.73325545
0.065791704 -0.041551571 0.73253614
0.066237047 -0.043684732 0.73282242
0.065681741 -0.037260044 0.74603778
0.065682173 -0.037231177 0.74614954
0.065682635 -0.037200235 0.74626935
0.065683126 -0.037167072 0.74639773
0.065683655 -0.037131533 0.74653536
0.065684222 -0.037093438 0.74668288
0.065684833 -0.037052613 0.74684095
0.065685481 -0.037008855 0.74701035
0.065686181 -0.036961962 0.74719191
0.065686926 -0.036911707 0.74738652
0.065687731 -0.036857855 0.74759501
0.065688588 -0.036800161 0.74781835
0.065689512 -0.03673837 0.7480576
0.065690495 -0.036672223 0.74831372
0.065691553 -0.036601454 0.74858773
0.065692678 -0.036525801 0.74888062
0.065693878 -0.036445007 0.74919349
0.065695167 -0.036358826 0.74952716
0.06569653 -0.036267027 0.74988258
0.065697983 -0.036169399 0.75026059
0.065699533 -0.03606575 0.75066185
0.065701164 -0.035955917 0.75108713
0.065702893 -0.03583977 0.75153685
0.065704726 -0.035717212 0.75201148
0.06570667 -0.035588212 0.75251132
0.065708756 -0.035452891 0.75303656
0.065711103 -0.035311803 0.75358725
0.065714106 -0.035166875 0.75416344
0.065719016 -0.035024412 0.75476503
0.065743253 -0.034867894 0.75576329
0.065885097 -0.035281375 0.75681317
0.066332333 -0.037287202 0.75759244
0.071866877 -0.065940812 0.7534216
0.071867302 -0.065911941 0.75353336
0.071867764 -0.065880999 0.75365317
0.071868263 -0.065847836 0.75378156
0.071868792 -0.065812297 0.75391918
0.071869358 -0.065774202 0.75406665
0.071869962 -0.065733381 0.75422472
0.071870618 -0.065689623 0.75439411
0.071871318 -0.065642729 0.75457573
0.071872063 -0.065592475 0.75477028
0.071872868 -0.065538622 0.75497878
0.071873724 -0.065480925 0.75520217
0.071874648 -0.065419137 0.75544143
0.071875632 -0.065352991 0.75569749
0.071876682 -0.065282218 0.75597149
0.071877815 -0.065206565 0.75626445
0.071879014 -0.065125771 0.75657725
0.071880296 -0.06503959 0.75691092
0.071881667 -0.064947791 0.75726634
0.07188312 -0.064850166 0.75764436
0.071884662 -0.064746514 0.75804567
0.071886301 -0.064636678 0.75847089
0.07188803 -0.064520516 0.75892067
0.071889848 -0.064397909 0.75939524
0.071891755 -0.064268731 0.75989503
0.071893707 -0.064132787 0.76042008
0.071895592 -0.063989542 0.76097029
0.071897015 -0.06383732 0.76154459
0.07189671 -0.06367065 0.76213992
0.071879968 -0.063324139 0.7630893
0.071744934 -0.062453724 0.76380861
0.071299583 -0.060320564 0.76352233
0.070631988 -0.066994458 0.75037014
0.070632584 -0.067023121 0.75025827
0.070633233 -0.067053832 0.75013846
0.070633918 -0.067086756 0.75000995
0.070634663 -0.067122042 0.74987233
0.070635453 -0.067159854 0.74972475
0.070636302 -0.067200385 0.74956661
0.070637219 -0.067243822 0.7493971
0.070638195 -0.067290373 0.74921542
0.070639238 -0.067340262 0.74902076
0.070640355 -0.067393728 0.74881214
0.070641562 -0.067451 0.74858868
0.070642844 -0.067512341 0.74834931
0.070644222 -0.067578003 0.74809307
0.070645697 -0.067648262 0.74781895
0.070647269 -0.067723364 0.74752593
0.070648953 -0.067803569 0.74721295
0.070650749 -0.067889124 0.7468791
0.070652656 -0.067980252 0.7465235
0.07065469 -0.068077169 0.74614531
0.070656843 -0.068180062 0.74574381
0.070659131 -0.068289094 0.74531835
0.070661552 -0.068404399 0.7448684
0.070664093 -0.068526067 0.74439359
0.07066676 -0.068654127 0.7438935
0.070669517 -0.068788461 0.74336803
0.070672244 -0.06892851 0.74281704
0.070674539 -0.069072366 0.74224061
0.070675112 -0.069213711 0.74163872
0.0706596 -0.069368452 0.74063998
0.070524156 -0.068953663 0.73958981
0.070073523 -0.066948526 0.73881072
0.06436827 -0.038329709 0.74299037
0.064368866 -0.038358368 0.74287856
0.064369515 -0.038389083 0.74275869
0.0643702 -0.038422003 0.74263024
0.064370945 -0.038457286 0.74249256
0.064371735 -0.038495101 0.74234504
0.064372584 -0.038535632 0.74218684
0.064373493 -0.038579069 0.74201739
0.064374469 -0.038625624 0.74183571
0.06437552 -0.038675513 0.74164104
0.064376637 -0.038728971 0.74143243
0.064377837 -0.038786247 0.74120897
0.064379126 -0.038847588 0.7409696
0.064380504 -0.038913254 0.74071336
0.064381979 -0.038983509 0.74043924
0.064383551 -0.039058611 0.74014616
0.064385235 -0.039138816 0.73983318
0.064387023 -0.039224371 0.73949939
0.064388938 -0.039315499 0.73914379
0.064390972 -0.03941242 0.7387656
0.064393125 -0.039515313 0.7383641
0.064395413 -0.039624352 0.73793864
0.064397834 -0.039739668 0.73748869
0.06440039 -0.039861385 0.73701388
0.064403102 -0.03998962 0.73651385
0.064405985 -0.040124577 0.7359885
0.064409181 -0.040266786 0.73543811
0.064413071 -0.040417925 0.73486352
0.064418934 -0.040583462 0.73426789
0.064444914 -0.040928092 0.73331803
0.064589873 -0.041796483 0.73259825
0.065043159 -0.043928027 0.73288411
0.064351521 -0.037531123 0.74610651
0.064350918 -0.037502464 0.74621832
0.064350277 -0.037471749 0.74633819
0.064349584 -0.037438828 0.74646664
0.064348847 -0.037403546 0.74660432
0.064348049 -0.037365731 0.7467519
0.0643472 -0.0373252 0.74691004
0.064346291 -0.037281763 0.74707955
0.064345315 -0.037235208 0.74726117
0.064344272 -0.037185319 0.74745584
0.064343147 -0.037131857 0.74766445
0.064341947 -0.037074585 0.74788797
0.064340666 -0.037013244 0.74812728
0.064339288 -0.036947578 0.74838352
0.064337812 -0.036877323 0.74865764
0.06433624 -0.036802221 0.74895072
0.064334556 -0.036722016 0.7492637
0.064332761 -0.036636461 0.74959755
0.064330846 -0.036545333 0.74995315
0.06432882 -0.036448412 0.75033128
0.064326659 -0.036345519 0.75073278
0.064324372 -0.036236487 0.75115824
0.064321958 -0.036121186 0.75160819
0.064319409 -0.035999518 0.75208306
0.064316742 -0.035871457 0.75258315
0.064313985 -0.035737123 0.75310862
0.064311266 -0.035597071 0.75365955
0.064308971 -0.035453223 0.75423604
0.064308397 -0.035311874 0.75483787
0.064323902 -0.035157133 0.75583661
0.064459346 -0.035571922 0.75688678
0.064909987 -0.037577055 0.75766593
0.070615239 -0.066195875 0.75348622
0.070614636 -0.066167213 0.75359809
0.070613995 -0.066136502 0.7537179
0.070613302 -0.066103578 0.75384641
0.070612565 -0.066068299 0.75398403
0.070611775 -0.06603048 0.75413162
0.070610926 -0.065989949 0.75428975
0.070610009 -0.065946512 0.75445926
0.070609033 -0.065899961 0.75464094
0.07060799 -0.065850072 0.75483561
0.070606865 -0.065796614 0.75504416
0.070605665 -0.065739334 0.75526768
0.070604384 -0.065678 0.75550705
0.070603006 -0.065612331 0.75576329
0.07060153 -0.06554208 0.75603741
0.070599958 -0.06546697 0.75633043
0.070598274 -0.065386765 0.75664341
0.070596479 -0.065301217 0.75697726
0.070594572 -0.065210082 0.75733286
0.070592538 -0.065113164 0.75771105
0.070590377 -0.065010272 0.75811255
0.07058809 -0.064901233 0.75853801
0.070585676 -0.06478592 0.7589879
0.070583113 -0.0646642 0.75946277
0.070580408 -0.064535961 0.7599628
0.070577517 -0.064401008 0.76048809
0.070574321 -0.064258799 0.76103854
0.070570432 -0.064107656 0.76161313
0.070564575 -0.063942119 0.76220876
0.070538588 -0.063597493 0.76315862
0.070393637 -0.062729098 0.76387841
0.069940343 -0.060597554 0.76359254
0.069322415 -0.067268133 0.75042647
0.069324121 -0.067296557 0.75031459
0.069325946 -0.06732703 0.75019467
0.069327906 -0.067359678 0.75006616
0.069330007 -0.067394681 0.74992841
0.069332257 -0.067432195 0.74978083
0.069334663 -0.067472391 0.74962258
0.069337249 -0.067515485 0.74945301
0.06934002 -0.067561664 0.74927127
0.069342986 -0.06761115 0.74907655
0.069346167 -0.067664176 0.74886787
0.069349572 -0.067720994 0.74864429
0.069353223 -0.067781836 0.7484048
0.069357127 -0.067846976 0.74814844
0.069361307 -0.067916662 0.7478742
0.069365777 -0.06799116 0.74758106
0.069370545 -0.068070725 0.74726796
0.069375642 -0.068155587 0.74693394
0.069381058 -0.068245985 0.74657822
0.069386825 -0.068342119 0.74619985
0.069392949 -0.068444185 0.74579817
0.069399431 -0.068552345 0.74537253
0.069406293 -0.068666719 0.7449224
0.069413528 -0.068787403 0.74444735
0.069421127 -0.068914436 0.74394709
0.06942907 -0.069047682 0.74342138
0.069437228 -0.069186606 0.74287021
0.069445193 -0.069329269 0.74229348
0.069451645 -0.069469385 0.74169135
0.069445476 -0.069622174 0.74069226
0.069316886 -0.069205955 0.73964179
0.068862602 -0.067201577 0.73886281
0.062974542 -0.038620964 0.74305034
0.062976241 -0.038649391 0.74293846
0.062978074 -0.038679861 0.74281859
0.062980033 -0.038712516 0.74269003
0.062982127 -0.038747516 0.74255234
0.062984377 -0.038785025 0.7424047
0.062986791 -0.038825229 0.74224651
0.062989376 -0.038868316 0.74207693
0.062992148 -0.038914494 0.7418952
0.062995113 -0.038963985 0.74170041
0.062998295 -0.039017014 0.74149173
0.0630017 -0.039073825 0.74126816
0.063005351 -0.03913467 0.74102873
0.063009255 -0.03919981 0.74077237
0.063013434 -0.039269499 0.74049813
0.063017905 -0.039343998 0.74020493
0.063022673 -0.039423559 0.73989183
0.063027762 -0.039508425 0.73955786
0.063033186 -0.039598819 0.73920208
0.063038953 -0.039694957 0.73882377
0.06304507 -0.039797027 0.7384221
0.063051559 -0.039905183 0.73799646
0.063058421 -0.040019572 0.73754632
0.063065663 -0.040140308 0.73707128
0.063073307 -0.040267512 0.73657107
0.063081391 -0.040401384 0.73604548
0.063090026 -0.040542457 0.73549485
0.063099608 -0.040692408 0.73492002
0.06311141 -0.0408567 0.73432416
0.063147292 -0.041199267 0.73337388
0.063302867 -0.042065438 0.73265362
0.063764662 -0.044195201 0.73293906
0.06292703 -0.037828807 0.74616778
0.062925324 -0.037800379 0.74627966
0.062923498 -0.03776991 0.74639958
0.062921539 -0.037737254 0.74652809
0.062919445 -0.037702255 0.74666584
0.062917195 -0.037664745 0.74681342
0.062914781 -0.037624542 0.74697167
0.062912196 -0.037581451 0.74714124
0.062909424 -0.037535276 0.74732298
0.062906459 -0.037485786 0.7475177
0.062903278 -0.037432756 0.74772638
0.062899873 -0.037375942 0.74794996
0.062896222 -0.037315097 0.74818945
0.062892318 -0.03724996 0.74844581
0.062888138 -0.037180271 0.74872005
0.062883668 -0.037105773 0.74901325
0.062878899 -0.037026212 0.74932629
0.062873811 -0.036941346 0.74966031
0.062868387 -0.036850952 0.75001603
0.06286262 -0.036754813 0.7503944
0.062856495 -0.036652748 0.75079608
0.062850013 -0.036544591 0.75122172
0.062843151 -0.036430217 0.75167185
0.062835917 -0.036309529 0.7521469
0.062828317 -0.036182504 0.75264716
0.062820375 -0.036049251 0.75317287
0.062812217 -0.035910334 0.75372404
0.062804252 -0.035767671 0.75430077
0.0627978 -0.035627551 0.7549029
0.062803969 -0.035474762 0.75590199
0.062932558 -0.035890982 0.75695246
0.063386835 -0.037895355 0.75773144
0.069274902 -0.066475973 0.75354391
0.069273204 -0.066447541 0.75365579
0.069271371 -0.066417076 0.75377572
0.069269411 -0.06638442 0.75390422
0.069267318 -0.066349417 0.75404191
0.069265068 -0.066311911 0.75418955
0.069262654 -0.066271707 0.75434774
0.069260068 -0.066228621 0.75451732
0.069257304 -0.066182442 0.75469905
0.069254331 -0.066132948 0.75489384
0.06925115 -0.066079922 0.75510252
0.069247745 -0.066023111 0.75532609
0.069244094 -0.065962262 0.75556552
0.06924019 -0.065897122 0.75582188
0.06923601 -0.065827437 0.75609612
0.06923154 -0.065752938 0.75638932
0.069226772 -0.065673381 0.75670242
0.069221683 -0.065588512 0.75703639
0.069216259 -0.065498114 0.75739217
0.069210492 -0.065401979 0.75777048
0.069204375 -0.065299913 0.75817215
0.069197886 -0.065191753 0.75859779
0.069191024 -0.065077364 0.75904793
0.069183782 -0.064956628 0.75952297
0.069176137 -0.064829424 0.76002318
0.069168054 -0.064695552 0.76054877
0.069159426 -0.064554475 0.7610994
0.069149837 -0.064404525 0.76167423
0.069138035 -0.064240232 0.76227009
0.069102153 -0.063897669 0.76322037
0.068946578 -0.063031502 0.76394063
0.068484783 -0.060901731 0.76365519
0.067920521 -0.067568898 0.75047374
0.067923412 -0.067597076 0.75036186
0.067926504 -0.067627273 0.75024188
0.067929819 -0.067659631 0.75011337
0.067933373 -0.067694321 0.74997556
0.06793718 -0.0677315 0.74982786
0.067941263 -0.067771345 0.74966961
0.067945644 -0.067814045 0.74949998
0.067950331 -0.067859814 0.74931818
0.06795536 -0.067908861 0.74912333
0.067960739 -0.067961417 0.7489146
0.067966513 -0.068017721 0.74869096
0.06797269 -0.068078026 0.74845141
0.067979306 -0.068142585 0.74819499
0.067986384 -0.068211652 0.74792063
0.067993946 -0.06828548 0.74762732
0.068002023 -0.068364337 0.7473141
0.068010643 -0.068448439 0.74698001
0.068019822 -0.068538032 0.74662417
0.068029583 -0.06863331 0.74624568
0.068039946 -0.068734467 0.74584389
0.068050928 -0.068841659 0.74541807
0.068062544 -0.068955012 0.74496776
0.068074793 -0.069074623 0.74449253
0.068087682 -0.069200516 0.74399209
0.068101175 -0.069332577 0.7434662
0.068115152 -0.069470249 0.7429148
0.068129189 -0.069611609 0.74233788
0.06814193 -0.069750376 0.74173558
0.068145759 -0.069901027 0.74073607
0.068024501 -0.069483228 0.73968536
0.067566335 -0.067479692 0.73890656
0.061482564 -0.038941059 0.7431007
0.061485451 -0.038969237 0.74298877
0.061488543 -0.038999431 0.74286884
0.061491858 -0.039031796 0.74274027
0.061495416 -0.039066482 0.74260247
0.061499223 -0.039103661 0.74245483
0.061503306 -0.039143503 0.74229652
0.061507683 -0.039186206 0.74212694
0.06151237 -0.039231975 0.74194515
0.061517395 -0.039281022 0.7417503
0.061522782 -0.039333578 0.7415415
0.061528549 -0.039389882 0.74131787
0.061534729 -0.039450187 0.74107832
0.061541341 -0.039514747 0.7408219
0.061548419 -0.039583813 0.74054754
0.061555985 -0.039657645 0.74025428
0.061564062 -0.039736498 0.73994106
0.061572682 -0.039820604 0.73960698
0.061581861 -0.039910194 0.73925108
0.061591625 -0.040005475 0.73887259
0.061601989 -0.040106632 0.73847079
0.061612971 -0.040213827 0.73804498
0.061624587 -0.040327195 0.73759472
0.06163685 -0.040446855 0.7371195
0.061649781 -0.040572926 0.73661906
0.061663412 -0.040705606 0.73609334
0.061677869 -0.040845428 0.73554254
0.061693545 -0.040994074 0.73496747
0.061711717 -0.041157 0.73437136
0.061758194 -0.04149729 0.73342073
0.061925136 -0.042361021 0.73270011
0.062396042 -0.044488836 0.73298526
0.061402123 -0.038155969 0.74621928
0.061399236 -0.038127795 0.74633116
0.061396141 -0.038097598 0.74645114
0.061392825 -0.038065232 0.74657965
0.061389271 -0.038030546 0.74671745
0.061385464 -0.037993368 0.74686515
0.061381381 -0.037953526 0.7470234
0.061377004 -0.037910823 0.74719304
0.061372317 -0.037865054 0.74737483
0.061367292 -0.037816007 0.74756968
0.061361905 -0.03776345 0.74777842
0.061356135 -0.037707146 0.74800205
0.061349958 -0.037646841 0.7482416
0.061343342 -0.037582286 0.74849808
0.061336268 -0.037513219 0.74877238
0.061328702 -0.037439384 0.7490657
0.061320625 -0.037360534 0.74937892
0.061312005 -0.037276424 0.749713
0.061302826 -0.037186835 0.75006884
0.061293066 -0.037091553 0.75044733
0.061282698 -0.036990397 0.75084919
0.061271716 -0.036883209 0.75127494
0.061260104 -0.036769856 0.75172526
0.061247852 -0.036650244 0.75220048
0.061234962 -0.036524348 0.75270092
0.061221469 -0.03639229 0.75322682
0.061207496 -0.036254622 0.75377822
0.061193459 -0.036113258 0.75435513
0.061180718 -0.035974488 0.75495744
0.061176892 -0.035823844 0.75595695
0.061298143 -0.036241639 0.75700766
0.061756317 -0.038245179 0.75778645
0.067840084 -0.066783808 0.75359231
0.067837201 -0.06675563 0.75370425
0.067834102 -0.066725433 0.75382417
0.067830786 -0.066693068 0.75395274
0.067827232 -0.066658385 0.75409055
0.067823425 -0.066621207 0.75423819
0.067819342 -0.066581361 0.7543965
0.067814969 -0.066538662 0.75456607
0.067810275 -0.066492893 0.75474793
0.067805253 -0.066443846 0.75494272
0.067799866 -0.066391289 0.75515151
0.067794099 -0.066334985 0.75537515
0.067787915 -0.06627468 0.7556147
0.067781307 -0.066210121 0.75587112
0.067774229 -0.066141054 0.75614548
0.067766659 -0.066067219 0.75643873
0.067758583 -0.065988369 0.75675195
0.06774997 -0.06590426 0.7570861
0.067740783 -0.065814674 0.75744194
0.067731023 -0.065719388 0.75782043
0.067720659 -0.065618232 0.75822222
0.067709677 -0.06551104 0.75864804
0.067698061 -0.065397672 0.75909829
0.067685798 -0.065278016 0.75957352
0.067672871 -0.065151945 0.76007396
0.067659236 -0.065019257 0.76059967
0.067644775 -0.06487944 0.76115054
0.067629106 -0.064730793 0.76172554
0.067610927 -0.064567864 0.76232165
0.067564458 -0.064227574 0.76327229
0.067397512 -0.063363843 0.76399297
0.066926606 -0.061236031 0.76370776
0.06642054 -0.067899682 0.75050944
0.06642469 -0.067927577 0.7503975
0.066429138 -0.067957476 0.75027752
0.066433907 -0.067989513 0.75014895
0.066439018 -0.06802386 0.75001115
0.066444501 -0.068060666 0.74986339
0.066450365 -0.068100117 0.74970508
0.066456661 -0.068142399 0.74953544
0.066463403 -0.068187714 0.74935359
0.06647063 -0.068236277 0.74915868
0.066478372 -0.068288311 0.74894989
0.066486672 -0.068344057 0.74872613
0.066495553 -0.068403766 0.74848652
0.066505067 -0.068467684 0.74823004
0.066515245 -0.068536073 0.74795562
0.066526122 -0.068609171 0.74766225
0.066537738 -0.068687245 0.74734896
0.066550136 -0.06877052 0.74701476
0.066563331 -0.06885922 0.7466588
0.066577375 -0.068953559 0.74628025
0.066592276 -0.069053717 0.74587828
0.066608071 -0.069159843 0.7454524
0.066624768 -0.069272071 0.74500197
0.066642396 -0.069390498 0.74452662
0.066660933 -0.069515146 0.74402606
0.066680364 -0.069645897 0.74349999
0.066700563 -0.069782197 0.74294847
0.066721097 -0.069922127 0.74237138
0.066740565 -0.070059411 0.7417689
0.066755094 -0.070207693 0.74076921
0.066641688 -0.069788173 0.73971826
0.06617935 -0.067785554 0.73893952
0.059886187 -0.039293099 0.74313867
0.059890341 -0.039320994 0.74302673
0.059894789 -0.03935089 0.74290675
0.059899557 -0.039382935 0.74277818
0.059904668 -0.039417278 0.74264032
0.059910145 -0.039454088 0.74249262
0.059916016 -0.039493538 0.74233431
0.059922311 -0.039535817 0.74216461
0.059929054 -0.039581131 0.74198282
0.059936278 -0.039629694 0.74178791
0.059944022 -0.039681729 0.74157912
0.059952319 -0.039737478 0.74135536
0.059961203 -0.039797183 0.74111575
0.059970718 -0.039861102 0.74085927
0.059980892 -0.039929487 0.74058485
0.059991773 -0.040002592 0.74029148
0.060003389 -0.040080659 0.73997819
0.060015783 -0.040163938 0.73964399
0.060028981 -0.040252641 0.73928803
0.060043022 -0.04034698 0.73890942
0.060057927 -0.040447135 0.73850751
0.060073718 -0.040553264 0.73808163
0.060090423 -0.040665511 0.7376312
0.060108058 -0.040783986 0.73715585
0.06012664 -0.04090881 0.73665535
0.060146216 -0.041040182 0.73612946
0.060166903 -0.041178629 0.73557848
0.060189098 -0.041325837 0.73500323
0.060214084 -0.041487262 0.73440701
0.060271893 -0.041825052 0.73345613
0.060451001 -0.042686105 0.73273516
0.060931649 -0.044811767 0.73302013
0.059770513 -0.038515776 0.74625808
0.05976636 -0.038487881 0.74637002
0.059761912 -0.038457982 0.74649
0.059757143 -0.038425937 0.74661857
0.059752032 -0.038391594 0.74675643
0.059746556 -0.038354788 0.74690413
0.059740685 -0.038315337 0.74706244
0.059734393 -0.038273055 0.74723214
0.059727646 -0.038227741 0.74741399
0.059720423 -0.038179178 0.74760884
0.059712678 -0.038127143 0.74781764
0.059704382 -0.038071394 0.74804139
0.059695497 -0.038011689 0.748281
0.059685983 -0.03794777 0.74853748
0.059675809 -0.037879385 0.7488119
0.059664931 -0.037806284 0.74910527
0.059653312 -0.037728213 0.74941856
0.059640918 -0.037644938 0.74975276
0.059627719 -0.037556235 0.75010872
0.059613682 -0.037461895 0.75048733
0.059598777 -0.037361741 0.75088924
0.059582982 -0.037255611 0.75131512
0.059566282 -0.037143379 0.75176555
0.059548661 -0.037024952 0.7522409
0.059530117 -0.036900304 0.75274152
0.059510686 -0.036769558 0.75326753
0.059490487 -0.036633261 0.75381905
0.059469953 -0.036493331 0.75439614
0.059450485 -0.036356047 0.75499862
0.05943596 -0.036207758 0.75599837
0.059549361 -0.036627285 0.75704926
0.060011704 -0.038629904 0.757828
0.066304862 -0.067122355 0.75362885
0.066300713 -0.06709446 0.75374079
0.066296265 -0.067064561 0.75386077
0.066291496 -0.067032516 0.7539894
0.066286385 -0.066998176 0.7541272
0.066280909 -0.06696137 0.7542749
0.066275038 -0.06692192 0.75443321
0.066268742 -0.066879638 0.75460291
0.066261999 -0.066834323 0.75478476
0.066254772 -0.06678576 0.75497961
0.066247031 -0.066733725 0.75518847
0.066238731 -0.066677973 0.75541216
0.06622985 -0.066618271 0.75565177
0.066220336 -0.066554353 0.75590825
0.066210158 -0.066485971 0.75618267
0.06619928 -0.066412866 0.75647604
0.066187665 -0.066334791 0.75678933
0.066175267 -0.066251516 0.75712353
0.066162072 -0.066162817 0.75747949
0.066148028 -0.066068478 0.7578581
0.066133127 -0.06596832 0.75826001
0.066117331 -0.065862186 0.75868589
0.066100627 -0.065749943 0.75913632
0.066082992 -0.065631464 0.75961167
0.06606441 -0.065506645 0.76011223
0.066044837 -0.065375276 0.76063806
0.066024147 -0.065236822 0.76118904
0.066001952 -0.065089621 0.76176429
0.06597697 -0.064928189 0.76236051
0.065919161 -0.064590402 0.76331145
