# .PCD v0.7 - Point Cloud Data file format
VERSION 0.7
FIELDS x y z rgba
SIZE 4 4 4 4
TYPE F F F U
COUNT 1 1 1 1
WIDTH 1009
HEIGHT 1
VIEWPOINT 0 0 0 1 0 0 0
POINTS 1009
DATA ascii
-0.015725907 -0.032135546 0.78500003 4294169539
-0.014358437 -0.032135546 0.78500003 4294367174
-0.012990966 -0.032135546 0.78500003 4294367174
-0.0074348566 -0.031767115 0.77600002 4294692521
-0.0060673868 -0.031685241 0.77400005 4294962374
-0.0047190785 -0.031685241 0.77400005 4294964977
-0.0033707705 -0.031685241 0.77400005 4294963692
-0.0020224622 -0.031685241 0.77400005 4294963164
-0.00067328312 -0.031644303 0.77300006 4294962393
0.00067154109 -0.031562429 0.77100003 4294303959
0.0020146233 -0.031562429 0.77100003 4294964202
0.0033489955 -0.031480554 0.76900005 4294964712
0.0046885936 -0.031480554 0.76900005 4294964712
0.0060281917 -0.031480554 0.76900005 4294965480
0.0073486278 -0.03139868 0.76700002 4294965994
0.0086847423 -0.03139868 0.76700002 4294965740
0.010007791 -0.031357747 0.76600003 4294966767
0.011342163 -0.031357747 0.76600003 4294967292
0.012676535 -0.031357747 0.76600003 4294967295
0.014010907 -0.031357747 0.76600003 4294967295
0.015345279 -0.031357747 0.76600003 4294967292
0.016679652 -0.031357747 0.76600003 4294966770
0.017966991 -0.031275872 0.76400006 4294967295
0.019297879 -0.031275872 0.76400006 4294967295
0.020628767 -0.031275872 0.76400006 4294967293
0.021959655 -0.031275872 0.76400006 4294967289
0.023290543 -0.031275872 0.76400006 4294967291
0.024621431 -0.031275872 0.76400006 4294967295
0.025952319 -0.031275872 0.76400006 4294967295
0.02735463 -0.031357747 0.76600003 4294967295
0.028688999 -0.031357747 0.76600003 4294967295
0.030023374 -0.031357747 0.76600003 4294967295
0.031357747 -0.031357747 0.76600003 4294967295
0.032734796 -0.03139868 0.76700002 4294967032
0.034070909 -0.03139868 0.76700002 4294967294
0.035499353 -0.031480554 0.76900005 4294967295
0.036934759 -0.031562429 0.77100003 4294967295
0.038277842 -0.031562429 0.77100003 4294967295
0.039620925 -0.031562429 0.77100003 4294967295
0.040964004 -0.031562429 0.77100003 4294966781
0.042416837 -0.031644303 0.77300006 4294967295
0.043763399 -0.031644303 0.77300006 4294967295
0.045168322 -0.031685241 0.77400005 4293121761
0.052848801 -0.032258362 0.78800005 4294078350
0.054221496 -0.032258362 0.78800005 4293683592
0.055594195 -0.032258362 0.78800005 4293494664
0.056966893 -0.032258362 0.78800005 4294951876
0.058117479 -0.032135546 0.78500003 4294966770
-0.019878836 -0.030846467 0.78700006 4293644743
-0.018507883 -0.030846467 0.78700006 4294234039
-0.017093375 -0.030768078 0.78500003 4294694590
-0.015685841 -0.030689687 0.78300005 4294827205
-0.0074156951 -0.030336933 0.77400005 4294169793
-0.0060595479 -0.030297739 0.77300006 4294963421
-0.0047007874 -0.030219346 0.77100003 4294961384
-0.0033577052 -0.030219346 0.77100003 4294500318
-0.0020146233 -0.030219346 0.77100003 4294960844
-0.00067154109 -0.030219346 0.77100003 4294963413
0.00067154109 -0.030219346 0.77100003 4294963947
0.0020146233 -0.030219346 0.77100003 4294965489
0.0033402853 -0.030062566 0.76700002 4294965481
0.0046763993 -0.030062566 0.76700002 4294965996
0.0060125138 -0.030062566 0.76700002 4294966255
0.0073486278 -0.030062566 0.76700002 4294967026
0.0086734183 -0.030023374 0.76600003 4294967021
0.0099816611 -0.029944982 0.76400006 4294967021
0.01131255 -0.029944982 0.76400006 4294966255
0.012643438 -0.029944982 0.76400006 4294966512
0.013974326 -0.029944982 0.76400006 4294967290
0.015305214 -0.029944982 0.76400006 4294967292
0.016636103 -0.029944982 0.76400006 4294967287
0.017919956 -0.029866593 0.76200002 4294967291
0.019247361 -0.029866593 0.76200002 4294967285
0.020574765 -0.029866593 0.76200002 4294965995
0.021959655 -0.029944982 0.76400006 4294965994
0.023290543 -0.029944982 0.76400006 4294967280
0.024556976 -0.029866593 0.76200002 4294967295
0.025884381 -0.029866593 0.76200002 4294967295
0.027283208 -0.029944982 0.76400006 4294967295
0.028614094 -0.029944982 0.76400006 4294967295
0.030023374 -0.030023374 0.76600003 4294967295
0.031357747 -0.030023374 0.76600003 4294967293
0.032692116 -0.030023374 0.76600003 4294967035
0.034026489 -0.030023374 0.76600003 4294965749
0.035407025 -0.030062566 0.76700002 4294967293
0.036838949 -0.030140961 0.76900005 4294967295
0.038178548 -0.030140961 0.76900005 4294967292
0.039518144 -0.030140961 0.76900005 4294967293
0.040857743 -0.030140961 0.76900005 4294967295
0.042307086 -0.030219346 0.77100003 4294967295
0.043650169 -0.030219346 0.77100003 4294967295
0.045109969 -0.030297739 0.77300006 4294967295
0.05415269 -0.030846467 0.78700006 4292766637
0.055523645 -0.030846467 0.78700006 4293025961
0.0568946 -0.030846467 0.78700006 4291841431
0.058117479 -0.030768078 0.78500003 4292841334
0.059484955 -0.030768078 0.78500003 4294955191
-0.022620745 -0.029475516 0.78700006 4293708697
-0.02124979 -0.029475516 0.78700006 4293708738
-0.019828318 -0.029400608 0.78500003 4293774531
-0.018460847 -0.029400608 0.78500003 4294037178
-0.017049827 -0.029325703 0.78300005 4294760644
-0.0074061137 -0.028951174 0.77300006 4294104499
-0.0060595479 -0.028951174 0.77300006 4294963149
-0.0047007874 -0.028876266 0.77100003 4294960602
-0.0033577052 -0.028876266 0.77100003 4294762966
-0.0020146233 -0.028876266 0.77100003 4294961621
-0.0006697991 -0.028801359 0.76900005 4294963933
0.0006697991 -0.028801359 0.76900005 4294964462
0.0020015582 -0.028688999 0.76600003 4294963948
0.0033272204 -0.028614094 0.76400006 4294961369
0.0046581086 -0.028614094 0.76400006 4294964196
0.0059889969 -0.028614094 0.76400006 4294964200
0.0073198848 -0.028614094 0.76400006 4294966256
0.0086507732 -0.028614094 0.76400006 4294966257
0.0099816611 -0.028614094 0.76400006 4294966257
0.01131255 -0.028614094 0.76400006 4294964972
0.01261034 -0.02853919 0.76200002 4294964972
0.013937743 -0.02853919 0.76200002 4294963697
0.015265148 -0.02853919 0.76200002 4294965239
0.016592553 -0.02853919 0.76200002 4294966509
0.017919956 -0.02853919 0.76200002 4294967285
0.019247361 -0.02853919 0.76200002 4294967295
0.020574765 -0.02853919 0.76200002 4294967292
0.021873426 -0.028501738 0.76100004 4294965998
0.023199089 -0.028501738 0.76100004 4294965485
0.02452475 -0.028501738 0.76100004 4294965742
0.025884381 -0.02853919 0.76200002 4294967284
0.027211783 -0.02853919 0.76200002 4294967291
0.02853919 -0.02853919 0.76200002 4294967294
0.029944982 -0.028614094 0.76400006 4294967295
0.031275872 -0.028614094 0.76400006 4294967295
0.032606762 -0.028614094 0.76400006 4294967286
0.034026489 -0.028688999 0.76600003 4294966001
0.035360862 -0.028688999 0.76600003 4294967284
0.036743138 -0.028726451 0.76700002 4294967291
0.038079254 -0.028726451 0.76700002 4294967295
0.039415367 -0.028726451 0.76700002 4294967295
0.040751483 -0.028726451 0.76700002 4294967295
0.042197343 -0.028801359 0.76900005 4294967295
0.043536942 -0.028801359 0.76900005 4294967295
0.044993252 -0.028876266 0.77100003 4294967295
0.046456534 -0.028951174 0.77300006 4294967295
0.0478031 -0.028951174 0.77300006 4289504430
0.05401507 -0.029400608 0.78500003 4294938982
0.055382542 -0.029400608 0.78500003 4294803374
0.0568946 -0.029475516 0.78700006 4292500619
0.058117479 -0.029400608 0.78500003 4291188312
0.059333395 -0.029325703 0.78300005 4293951618
0.060697384 -0.029325703 0.78300005 4294953607
-0.023991698 -0.02810456 0.78700006 4292196239
-0.022620745 -0.02810456 0.78700006 4293577892
-0.02124979 -0.02810456 0.78700006 4293708738
-0.019828318 -0.028033137 0.78500003 4293840580
-0.018413812 -0.027961716 0.78300005 4294233787
-0.0073869512 -0.027533185 0.77100003 4294365611
-0.0060281917 -0.027461763 0.76900005 4294963145
-0.0046763993 -0.027390338 0.76700002 4294963681
-0.0033402853 -0.027390338 0.76700002 4294963167
-0.0020015582 -0.02735463 0.76600003 4294963937
-0.00066718605 -0.02735463 0.76600003 4294963937
0.00066718605 -0.02735463 0.76600003 4294964462
0.0019963323 -0.027283208 0.76400006 4294965747
0.0033272204 -0.027283208 0.76400006 4294965744
0.0046581086 -0.027283208 0.76400006 4294966001
0.0059733186 -0.027211783 0.76200002 4294966769
0.0073007224 -0.027211783 0.76200002 4294966769
0.0086281262 -0.027211783 0.76200002 4294967029
0.009955531 -0.027211783 0.76200002 4294966772
0.011282935 -0.027211783 0.76200002 4294966259
0.01261034 -0.027211783 0.76200002 4294966259
0.013937743 -0.027211783 0.76200002 4294965500
0.015265148 -0.027211783 0.76200002 4294964471
0.016570777 -0.027176075 0.76100004 4294965477
0.017896438 -0.027176075 0.76100004 4294966505
0.019222101 -0.027176075 0.76100004 4294967288
0.020547764 -0.027176075 0.76100004 4294967291
0.021815941 -0.027104653 0.75900006 4294967037
0.023138119 -0.027104653 0.75900006 4294965753
0.024460297 -0.027104653 0.75900006 4294965485
0.025782473 -0.027104653 0.75900006 4294966257
0.027176075 -0.027176075 0.76100004 4294967281
0.028501738 -0.027176075 0.76100004 4294967288
0.029827399 -0.027176075 0.76100004 4294967295
0.03115306 -0.027176075 0.76100004 4294966513
0.032521401 -0.027211783 0.76200002 4294963168
0.033937652 -0.027283208 0.76400006 4294963939
0.035268538 -0.027283208 0.76400006 4294966505
0.036695234 -0.02735463 0.76600003 4294967284
0.038029607 -0.02735463 0.76600003 4294967295
0.039363977 -0.02735463 0.76600003 4294967294
0.040751483 -0.027390338 0.76700002 4294967295
0.042087596 -0.027390338 0.76700002 4294967295
0.043423709 -0.027390338 0.76700002 4294967288
0.044876538 -0.027461763 0.76900005 4294967287
0.046336334 -0.027533185 0.77100003 4294967295
0.047679417 -0.027533185 0.77100003 4294966008
0.055241439 -0.027961716 0.78300005 4294674857
0.056750007 -0.028033137 0.78500003 4293753755
0.057969414 -0.027961716 0.78300005 4293029553
0.059333395 -0.027961716 0.78300005 4287766112
0.060697384 -0.027961716 0.78300005 4288613660
0.062061373 -0.027961716 0.78300005 4294931330
-0.025394879 -0.026767576 0.78800005 4292980865
-0.023991698 -0.026733607 0.78700006 4292656801
-0.022563256 -0.026665669 0.78500003 4293380781
-0.021195788 -0.026665669 0.78500003 4293642429
-0.019777799 -0.026597731 0.78300005 4294037187
-0.018366778 -0.026529793 0.78100002 4294103232
-0.011416198 -0.0261901 0.77100003 4294956724
-0.010073116 -0.0261901 0.77100003 4294961126
-0.0087073883 -0.026122164 0.76900005 4294104531
-0.0073486278 -0.026054224 0.76700002 4294033551
-0.0060125138 -0.026054224 0.76700002 4294961592
-0.0046703028 -0.026020257 0.76600003 4294963685
-0.0033359304 -0.026020257 0.76600003 4294963942
-0.0020015582 -0.026020257 0.76600003 4294965486
-0.00066544407 -0.025952319 0.76400006 4294963688
0.00066544407 -0.025952319 0.76400006 4294961887
0.0019963323 -0.025952319 0.76400006 4294964457
0.0033185103 -0.025884381 0.76200002 4294965995
0.0046459143 -0.025884381 0.76200002 4294965995
0.0059733186 -0.025884381 0.76200002 4294966763
0.0073007224 -0.025884381 0.76200002 4294966763
0.0086281262 -0.025884381 0.76200002 4294966514
0.009955531 -0.025884381 0.76200002 4294966514
0.011268128 -0.025850412 0.76100004 4294966514
0.01259379 -0.025850412 0.76100004 4294966771
0.013919452 -0.025850412 0.76100004 4294967034
0.015245114 -0.025850412 0.76100004 4294966520
0.016570777 -0.025850412 0.76100004 4294966507
0.017849406 -0.025782473 0.75900006 4294966764
0.019171584 -0.025782473 0.75900006 4294966004
0.020493761 -0.025782473 0.75900006 4294967293
0.021815941 -0.025782473 0.75900006 4294967290
0.023138119 -0.025782473 0.75900006 4294967030
0.024395842 -0.025714535 0.75700003 4294966770
0.025714535 -0.025714535 0.75700003 4294967027
0.027104653 -0.025782473 0.75900006 4294967025
0.02842683 -0.025782473 0.75900006 4294967285
0.029827399 -0.025850412 0.76100004 4294967288
0.03115306 -0.025850412 0.76100004 4294965741
0.032478724 -0.025850412 0.76100004 4294962392
0.033804383 -0.025850412 0.76100004 4294963420
0.03517621 -0.025884381 0.76200002 4294964455
0.036599427 -0.025952319 0.76400006 4294967285
0.037930313 -0.025952319 0.76400006 4294967295
0.039363977 -0.026020257 0.76600003 4294967293
0.040698349 -0.026020257 0.76600003 4294967293
0.042032722 -0.026020257 0.76600003 4294967295
0.043367095 -0.026020257 0.76600003 4294967295
0.044876538 -0.026122164 0.76900005 4294967289
0.046216138 -0.026122164 0.76900005 4294967295
0.047679417 -0.0261901 0.77100003 4294967295
0.049022496 -0.0261901 0.77100003 4293980927
0.050496232 -0.026258042 0.77300006 4284901241
0.056605428 -0.026597731 0.78300005 4294937736
0.057969414 -0.026597731 0.78300005 4294608823
0.059333395 -0.026597731 0.78300005 4291450759
0.060697384 -0.026597731 0.78300005 4289531392
0.062219892 -0.026665669 0.78500003 4288413696
-0.025394879 -0.025394879 0.78800005 4292591808
-0.023991698 -0.025362652 0.78700006 4292723126
-0.022505773 -0.025233746 0.78300005 4293117884
-0.019702023 -0.025137061 0.78000003 4293576375
-0.01275928 -0.024847019 0.77100003 4293641900
-0.011416198 -0.024847019 0.77100003 4294036658
-0.010046986 -0.024782566 0.76900005 4294891203
-0.0086847423 -0.024718111 0.76700002 4294825154
-0.0073486278 -0.024718111 0.76700002 4294758055
-0.0060046744 -0.024685884 0.76600003 4294958261
-0.0046703028 -0.024685884 0.76600003 4294962645
-0.0033272204 -0.024621431 0.76400006 4294964444
-0.0019963323 -0.024621431 0.76400006 4294963689
-0.00066544407 -0.024621431 0.76400006 4294238166
0.00066544407 -0.024621431 0.76400006 4294367426
0.0019911062 -0.024556976 0.76200002 4294564548
0.0033141554 -0.02452475 0.76100004 4294827205
0.0046398174 -0.02452475 0.76100004 4294960076
0.0059654796 -0.02452475 0.76100004 4294959811
0.0072911419 -0.02452475 0.76100004 4294961352
0.0086168041 -0.02452475 0.76100004 4294961103
0.0099424664 -0.02452475 0.76100004 4294959561
0.011268128 -0.02452475 0.76100004 4294829531
0.012560693 -0.024460297 0.75900006 4294963172
0.013882871 -0.024460297 0.75900006 4294964194
0.015205049 -0.024460297 0.75900006 4294964964
0.016527228 -0.024460297 0.75900006 4294966247
0.017849406 -0.024460297 0.75900006 4294967277
0.019171584 -0.024460297 0.75900006 4294967295
0.020493761 -0.024460297 0.75900006 4294967295
0.021758454 -0.024395842 0.75700003 4294967286
0.023077147 -0.024395842 0.75700003 4294967281
0.024395842 -0.024395842 0.75700003 4294967284
0.025714535 -0.024395842 0.75700003 4294967284
0.027104653 -0.024460297 0.75900006 4294830826
0.02842683 -0.024460297 0.75900006 4293581015
0.02974901 -0.024460297 0.75900006 4294040533
0.031071188 -0.024460297 0.75900006 4294961892
0.032478724 -0.02452475 0.76100004 4294962397
0.033804383 -0.02452475 0.76100004 4294963939
0.035130046 -0.02452475 0.76100004 4294962147
0.036503613 -0.024556976 0.76200002 4294961119
0.037930313 -0.024621431 0.76400006 4294960090
0.039261203 -0.024621431 0.76400006 4294762712
0.040698349 -0.024685884 0.76600003 4294763486
0.042032722 -0.024685884 0.76600003 4294962406
0.043367095 -0.024685884 0.76600003 4294962659
0.044759821 -0.024718111 0.76700002 4294963688
0.046216138 -0.024782566 0.76900005 4294964974
0.047555733 -0.024782566 0.76900005 4294967295
0.049022496 -0.024847019 0.77100003 4294967295
0.050496232 -0.024911474 0.77300006 4292661710
0.051909864 -0.024943702 0.77400005 4289495435
0.056460835 -0.025169291 0.78100002 4294939300
0.057969414 -0.025233746 0.78300005 4294936478
0.059484955 -0.025298197 0.78500003 4294475413
0.060852423 -0.025298197 0.78500003 4291840681
0.062219892 -0.025298197 0.78500003 4285792333
0.06358736 -0.025298197 0.78500003 4288348160
-0.029512968 -0.024022182 0.78800005 4294894815
-0.028140271 -0.024022182 0.78800005 4293973713
-0.026767576 -0.024022182 0.78800005 4292855230
-0.025362652 -0.023991698 0.78700006 4292789436
-0.023869758 -0.023869758 0.78300005 4293050292
-0.022448285 -0.023808787 0.78100002 4293445050
-0.021060782 -0.023778303 0.78000003 4293576373
-0.015485511 -0.023564909 0.77300006 4293775035
-0.014138945 -0.023564909 0.77300006 4293248691
-0.01275928 -0.023503937 0.77100003 4292984738
-0.011386584 -0.023442967 0.76900005 4292984738
-0.010046986 -0.023442967 0.76900005 4294036156
-0.0086847423 -0.023381997 0.76700002 4294958542
-0.0073390468 -0.023351513 0.76600003 4294498522
-0.0060046744 -0.023351513 0.76600003 4294564315
-0.0046581086 -0.023290543 0.76400006 4294959271
-0.0033272204 -0.023290543 0.76400006 4294959785
-0.0019963323 -0.023290543 0.76400006 4294762445
-0.00066370209 -0.023229571 0.76200002 4294565067
0.00066370209 -0.023229571 0.76200002 4294301640
0.0019911062 -0.023229571 0.76200002 4294565069
0.0033141554 -0.023199089 0.76100004 4294499526
0.0046398174 -0.023199089 0.76100004 4294828490
0.0059654796 -0.023199089 0.76100004 4294631627
0.0072911419 -0.023199089 0.76100004 4294961620
0.0086168041 -0.023199089 0.76100004 4294961624
0.0099163363 -0.023138119 0.75900006 4294895317
0.011238514 -0.023138119 0.75900006 4294632409
0.012560693 -0.023138119 0.75900006 4294763738
0.013882871 -0.023138119 0.75900006 4294829531
0.015205049 -0.023138119 0.75900006 4294961631
0.016527228 -0.023138119 0.75900006 4294962132
0.017849406 -0.023138119 0.75900006 4294963931
0.019121066 -0.023077147 0.75700003 4294965740
0.020439759 -0.023077147 0.75700003 4294967286
0.021758454 -0.023077147 0.75700003 4294967295
0.023077147 -0.023077147 0.75700003 4294967295
0.024395842 -0.023077147 0.75700003 4294967287
0.025714535 -0.023077147 0.75700003 4294965485
0.027033228 -0.023077147 0.75700003 4294960845
0.028351925 -0.023077147 0.75700003 4294104766
0.029670618 -0.023077147 0.75700003 4293710523
0.030989313 -0.023077147 0.75700003 4294960847
0.032393366 -0.023138119 0.75900006 4294962141
0.033715542 -0.023138119 0.75900006 4294962398
0.035130046 -0.023199089 0.76100004 4294962402
0.036455709 -0.023199089 0.76100004 4294435029
0.03783102 -0.023229571 0.76200002 4294826692
0.039158419 -0.023229571 0.76200002 4294892485
0.040592089 -0.023290543 0.76400006 4294696918
0.041922979 -0.023290543 0.76400006 4294696918
0.043367095 -0.023351513 0.76600003 4294761680
0.044759821 -0.023381997 0.76700002 4294959573
0.046095937 -0.023381997 0.76700002 4294961373
0.047555733 -0.023442967 0.76900005 4294965999
0.048895333 -0.023442967 0.76900005 4294967295
0.050496232 -0.023564909 0.77300006 4294966526
0.051909864 -0.023595393 0.77400005 4292199642
0.053258173 -0.023595393 0.77400005 4280488488
0.057821341 -0.023808787 0.78100002 4294930579
0.059333395 -0.023869758 0.78300005 4294932636
0.060852423 -0.023930727 0.78500003 4293619377
0.062219892 -0.023930727 0.78500003 4290066555
0.06358736 -0.023930727 0.78500003 4289799680
-0.030885665 -0.022649487 0.78800005 4292727757
-0.029512968 -0.022649487 0.78800005 4292918722
-0.02810456 -0.022620745 0.78700006 4292787136
-0.026733607 -0.022620745 0.78700006 4292983984
-0.025362652 -0.022620745 0.78700006 4293247155
-0.023869758 -0.022505773 0.78300005 4293182392
-0.022448285 -0.022448285 0.78100002 4293511613
-0.021060782 -0.022419542 0.78000003 4293577140
-0.019651504 -0.022362057 0.77800006 4293642933
-0.016832076 -0.022218343 0.77300006 4292985521
-0.015485511 -0.022218343 0.77300006 4293116324
-0.014102362 -0.022160854 0.77100003 4293247909
-0.012726183 -0.022103371 0.76900005 4293050531
-0.01135697 -0.022045882 0.76700002 4292984738
-0.010020856 -0.022045882 0.76700002 4293969847
-0.0086734183 -0.022017142 0.76600003 4294964966
-0.0073390468 -0.022017142 0.76600003 4294964702
-0.0059889969 -0.021959655 0.76400006 4292328870
-0.0046581086 -0.021959655 0.76400006 4292589698
-0.0033185103 -0.021902168 0.76200002 4294103193
-0.0019911062 -0.021902168 0.76200002 4294958007
-0.00066283107 -0.021873426 0.76100004 4294963404
0.00066283107 -0.021873426 0.76100004 4294964979
0.0019884931 -0.021873426 0.76100004 4294967291
0.0033054454 -0.021815941 0.75900006 4294966773
0.0046276241 -0.021815941 0.75900006 4294967287
0.0059498018 -0.021815941 0.75900006 4294967295
0.0072719804 -0.021815941 0.75900006 4294967295
0.0085941581 -0.021815941 0.75900006 4294967289
0.0099163363 -0.021815941 0.75900006 4294967290
0.011238514 -0.021815941 0.75900006 4294967292
0.012560693 -0.021815941 0.75900006 4294967035
0.013882871 -0.021815941 0.75900006 4294964210
0.015205049 -0.021815941 0.75900006 4294830826
0.016483678 -0.021758454 0.75700003 4294960587
0.017802371 -0.021758454 0.75700003 4294433471
0.019121066 -0.021758454 0.75700003 4294959302
0.020439759 -0.021758454 0.75700003 4294963672
0.021758454 -0.021758454 0.75700003 4294967290
0.023046663 -0.021729711 0.75600004 4294967290
0.024363615 -0.021729711 0.75600004 4294963683
0.025680566 -0.021729711 0.75600004 4293250237
0.027033228 -0.021758454 0.75700003 4294959294
0.028351925 -0.021758454 0.75700003 4294963921
0.029670618 -0.021758454 0.75700003 4294963402
0.030989313 -0.021758454 0.75700003 4294960832
0.032393366 -0.021815941 0.75900006 4294962139
0.033715542 -0.021815941 0.75900006 4294962396
0.035037722 -0.021815941 0.75900006 4294962400
0.036455709 -0.021873426 0.76100004 4294434514
0.037781373 -0.021873426 0.76100004 4294760894
0.039107032 -0.021873426 0.76100004 4294959815
0.040485825 -0.021902168 0.76200002 4294962404
0.041922979 -0.021959655 0.76400006 4294963176
0.043253865 -0.021959655 0.76400006 4294961119
0.044701468 -0.022017142 0.76600003 4294763740
0.046095937 -0.022045882 0.76700002 4294959565
0.047555733 -0.022103371 0.76900005 4294696137
0.048895333 -0.022103371 0.76900005 4294960095
0.050496232 -0.022218343 0.77300006 4294966777
0.051909864 -0.022247085 0.77400005 4294962936
0.053258173 -0.022247085 0.77400005 4287857292
0.054747581 -0.02230457 0.77600002 4287580160
0.057821341 -0.022448285 0.78100002 4293291657
0.059181839 -0.022448285 0.78100002 4294475674
0.060697384 -0.022505773 0.78300005 4294673332
0.062219892 -0.022563256 0.78500003 4294542003
0.06358736 -0.022563256 0.78500003 4292112296
-0.030885665 -0.021276791 0.78800005 4292329917
-0.029475516 -0.02124979 0.78700006 4293377458
-0.02810456 -0.02124979 0.78700006 4293180336
-0.026733607 -0.02124979 0.78700006 4293049779
-0.025362652 -0.02124979 0.78700006 4293246901
-0.023869758 -0.021141784 0.78300005 4293378996
-0.022448285 -0.021087782 0.78100002 4293378996
-0.021060782 -0.021060782 0.78000003 4292984992
-0.019651504 -0.021006782 0.77800006 4293050785
-0.01820216 -0.020898776 0.77400005 4292789423
-0.016832076 -0.020871775 0.77300006 4292394665
-0.015445444 -0.020817773 0.77100003 4292459679
-0.014102362 -0.020817773 0.77100003 4292722594
-0.012693084 -0.020709768 0.76700002 4292984740
-0.011342163 -0.020682767 0.76600003 4292984740
-0.010007791 -0.020682767 0.76600003 4293838000
-0.0086734183 -0.020682767 0.76600003 4294964962
-0.0073198848 -0.020628767 0.76400006 4294966264
-0.0059889969 -0.020628767 0.76400006 4291214264
-0.0046459143 -0.020574765 0.76200002 4290943315
-0.0033141554 -0.020547764 0.76100004 4293904000
-0.0019884931 -0.020547764 0.76100004 4294958522
-0.00066283107 -0.020547764 0.76100004 4294963406
0.00066108909 -0.020493761 0.75900006 4294966259
0.0019832673 -0.020493761 0.75900006 4294967289
0.0033054454 -0.020493761 0.75900006 4294967288
0.0046276241 -0.020493761 0.75900006 4294967289
0.0059498018 -0.020493761 0.75900006 4294967287
0.0072719804 -0.020493761 0.75900006 4294967289
0.0085941581 -0.020493761 0.75900006 4294967292
0.0099163363 -0.020493761 0.75900006 4294967291
0.011238514 -0.020493761 0.75900006 4294967294
0.012527594 -0.020439759 0.75700003 4294967294
0.013846288 -0.020439759 0.75700003 4294966263
0.015164983 -0.020439759 0.75700003 4294966006
0.016483678 -0.020439759 0.75700003 4294964711
0.017802371 -0.020439759 0.75700003 4294962912
0.019121066 -0.020439759 0.75700003 4294304474
0.020412758 -0.020412758 0.75600004 4294962405
0.021729711 -0.020412758 0.75600004 4294962391
0.023046663 -0.020412758 0.75600004 4294962134
0.024363615 -0.020412758 0.75600004 4294303437
0.025680566 -0.020412758 0.75600004 4294369486
0.02699752 -0.020412758 0.75600004 4294960600
0.028351925 -0.020439759 0.75700003 4294965227
0.029670618 -0.020439759 0.75700003 4294964707
0.030989313 -0.020439759 0.75700003 4294960852
0.032308009 -0.020439759 0.75700003 4294960343
0.033715542 -0.020493761 0.75900006 4294961113
0.035037722 -0.020493761 0.75900006 4294961117
0.036359899 -0.020493761 0.75900006 4294829018
0.037682079 -0.020493761 0.75900006 4294696918
0.039107032 -0.020547764 0.76100004 4294960861
0.040432695 -0.020547764 0.76100004 4294963434
0.041813228 -0.020574765 0.76200002 4294963176
0.043253865 -0.020628767 0.76400006 4294961890
0.044701468 -0.020682767 0.76600003 4294961119
0.046035841 -0.020682767 0.76600003 4294960343
0.04743205 -0.020709768 0.76700002 4294631377
0.048895333 -0.020763772 0.76900005 4294302939
0.050365578 -0.020817773 0.77100003 4294961384
0.051842798 -0.020871775 0.77300006 4294963184
0.053189363 -0.020871775 0.77300006 4290817711
0.054606482 -0.020898776 0.77400005 4287191106
0.056099374 -0.020952778 0.77600002 4286730555
0.059181839 -0.021087782 0.78100002 4294615657
0.060697384 -0.021141784 0.78300005 4294938044
0.062061373 -0.021141784 0.78300005 4294542514
0.063263349 -0.021087782 0.78100002 4292310697
0.064623848 -0.021087782 0.78100002 4289613184
0.065984353 -0.021087782 0.78100002 4290731264
-0.030885665 -0.019904094 0.78800005 4292786350
-0.029475516 -0.019878836 0.78700006 4292787377
-0.028033137 -0.019828318 0.78500003 4292984499
-0.026665669 -0.019828318 0.78500003 4292458171
-0.025233746 -0.019777799 0.78300005 4292063413
-0.023808787 -0.01972728 0.78100002 4292656799
-0.022419542 -0.019702023 0.78000003 4292459677
-0.021006782 -0.019651504 0.77800006 4291733149
-0.018178644 -0.019525209 0.77300006 4292786830
-0.016788527 -0.019474691 0.77100003 4292128899
-0.015445444 -0.019474691 0.77100003 4292524968
-0.014065782 -0.019424174 0.76900005 4292919726
-0.012693084 -0.019373653 0.76700002 4293116328
-0.011342163 -0.019348396 0.76600003 4293313450
-0.010007791 -0.019348396 0.76600003 4293246640
-0.0086507732 -0.019297879 0.76400006 4294562500
-0.0073198848 -0.019297879 0.76400006 4294959554
-0.0059889969 -0.019297879 0.76400006 4293775024
-0.0046459143 -0.019247361 0.76200002 4293116326
-0.0033141554 -0.019222101 0.76100004 4293313448
-0.0019884931 -0.019222101 0.76100004 4294958491
-0.00066283107 -0.019222101 0.76100004 4294960290
0.00066108909 -0.019171584 0.75900006 4294962383
0.0019832673 -0.019171584 0.75900006 4294962383
0.0033054454 -0.019171584 0.75900006 4294966496
0.0046154293 -0.019121066 0.75700003 4294967267
0.0059341234 -0.019121066 0.75700003 4294967270
0.007252818 -0.019121066 0.75700003 4294967275
0.0085715121 -0.019121066 0.75700003 4294967295
0.0098902062 -0.019121066 0.75700003 4294967295
0.0112089 -0.019121066 0.75700003 4294967295
0.012527594 -0.019121066 0.75700003 4294967295
0.013846288 -0.019121066 0.75700003 4294967295
0.015164983 -0.019121066 0.75700003 4294967295
0.016483678 -0.019121066 0.75700003 4294967295
0.017778853 -0.019095806 0.75600004 4294967295
0.019095806 -0.019095806 0.75600004 4294967295
0.020412758 -0.019095806 0.75600004 4292858321
0.021729711 -0.019095806 0.75600004 4292327328
0.023046663 -0.019095806 0.75600004 4292393121
0.024363615 -0.019095806 0.75600004 4294695103
0.025680566 -0.019095806 0.75600004 4294967272
0.02699752 -0.019095806 0.75600004 4294966755
0.028351925 -0.019121066 0.75700003 4294962386
0.029670618 -0.019121066 0.75700003 4294961628
0.030989313 -0.019121066 0.75700003 4294960856
0.032308009 -0.019121066 0.75700003 4294829531
0.033626702 -0.019121066 0.75700003 4294763738
0.034945395 -0.019121066 0.75700003 4294960860
0.036359899 -0.019171584 0.75900006 4294965487
0.037682079 -0.019171584 0.75900006 4294964723
0.039004255 -0.019171584 0.75900006 4294963182
0.040432695 -0.019222101 0.76100004 4294962147
0.041758355 -0.019222101 0.76100004 4294961890
0.043140635 -0.019247361 0.76200002 4294961632
0.044584755 -0.019297879 0.76400006 4294961632
0.046035841 -0.019348396 0.76600003 4294961632
0.04737021 -0.019348396 0.76600003 4294965230
0.048768166 -0.019373653 0.76700002 4294960875
0.050365578 -0.019474691 0.77100003 4294565860
0.051842798 -0.019525209 0.77300006 4294697922
0.053189363 -0.019525209 0.77300006 4292789925
0.054535933 -0.019525209 0.77300006 4286147760
0.056099374 -0.019600987 0.77600002 4278190134
0.057451162 -0.019600987 0.77600002 4286325860
0.059106063 -0.019702023 0.78000003 4293826262
0.060542345 -0.01972728 0.78100002 4294348452
0.062061373 -0.019777799 0.78300005 4291716988
0.063263349 -0.01972728 0.78100002 4292964252
0.064623848 -0.01972728 0.78100002 4293292961
0.065984353 -0.01972728 0.78100002 4291520327
-0.030885665 -0.018531399 0.78800005 4294031770
-0.029475516 -0.018507883 0.78700006 4292656818
-0.028033137 -0.018460847 0.78500003 4291669923
-0.026665669 -0.018460847 0.78500003 4291733403
-0.025233746 -0.018413812 0.78300005 4292720298
-0.023808787 -0.018366778 0.78100002 4292329652
-0.022419542 -0.018343262 0.78000003 4289697931
-0.021006782 -0.018296229 0.77800006 4289888512
-0.016788527 -0.01813161 0.77100003 4292916135
-0.015405378 -0.018084574 0.76900005 4292198319
-0.014065782 -0.018084574 0.76900005 4292658870
-0.012676535 -0.018014025 0.76600003 4293116589
-0.011342163 -0.018014025 0.76600003 4292721831
-0.0099816611 -0.017966991 0.76400006 4292655257
-0.0086507732 -0.017966991 0.76400006 4294958269
-0.0073198848 -0.017966991 0.76400006 4294829533
-0.0059733186 -0.017919956 0.76200002 4294895326
-0.0046398174 -0.017896438 0.76100004 4293644241
-0.0033141554 -0.017896438 0.76100004 4291210157
-0.0019832673 -0.017849406 0.75900006 4292192905
-0.00066108909 -0.017849406 0.75900006 4293114007
0.00066108909 -0.017849406 0.75900006 4294100139
0.0019832673 -0.017849406 0.75900006 4294297517
0.0032967352 -0.017802371 0.75700003 4294825406
0.0046154293 -0.017802371 0.75700003 4294958277
0.0059341234 -0.017802371 0.75700003 4294959814
0.007252818 -0.017802371 0.75700003 4294962641
0.0085715121 -0.017802371 0.75700003 4294963686
0.0098902062 -0.017802371 0.75700003 4294967291
0.0112089 -0.017802371 0.75700003 4294967295
0.012527594 -0.017802371 0.75700003 4294967295
0.013846288 -0.017802371 0.75700003 4294967295
0.015164983 -0.017802371 0.75700003 4294967295
0.016461903 -0.017778853 0.75600004 4294967294
0.017778853 -0.017778853 0.75600004 4294967294
0.019095806 -0.017778853 0.75600004 4294966511
0.020412758 -0.017778853 0.75600004 4292792001
0.021729711 -0.017778853 0.75600004 4291932831
0.022985691 -0.017731819 0.75400001 4292919726
0.02429916 -0.017731819 0.75400001 4294956999
0.025680566 -0.017778853 0.75600004 4294965223
0.02699752 -0.017778853 0.75600004 4294967283
0.028314473 -0.017778853 0.75600004 4294962912
0.029631423 -0.017778853 0.75600004 4294830815
0.030948374 -0.017778853 0.75600004 4294699228
0.032308009 -0.017802371 0.75700003 4294830037
0.033626702 -0.017802371 0.75700003 4294501072
0.034945395 -0.017802371 0.75700003 4294958543
0.036264088 -0.017802371 0.75700003 4294963427
0.037682079 -0.017849406 0.75900006 4294965492
0.039004255 -0.017849406 0.75900006 4294963693
0.040326435 -0.017849406 0.75900006 4294961632
0.041758355 -0.017896438 0.76100004 4294961375
0.043140635 -0.017919956 0.76200002 4294961630
0.044584755 -0.017966991 0.76400006 4294961630
0.045915641 -0.017966991 0.76400006 4294960604
0.04737021 -0.018014025 0.76600003 4294962660
0.048768166 -0.018037539 0.76700002 4294962411
0.050365578 -0.01813161 0.77100003 4294961384
0.051708661 -0.01813161 0.77100003 4294502367
0.053189363 -0.018178644 0.77300006 4292594370
0.054535933 -0.018178644 0.77300006 4287338153
0.055954788 -0.01820216 0.77400005 4278190085
0.057451162 -0.018249193 0.77600002 4285005824
0.060464829 -0.018343262 0.78000003 4293756271
0.062061373 -0.018413812 0.78300005 4292703583
0.063263349 -0.018366778 0.78100002 4293683866
0.064623848 -0.018366778 0.78100002 4293880989
0.065984353 -0.018366778 0.78100002 4291779447
0.067344852 -0.018366778 0.78100002 4291516274
-0.033631057 -0.017158702 0.78800005 4291802526
-0.032258362 -0.017158702 0.78800005 4292652947
-0.030846467 -0.017136928 0.78700006 4293836964
-0.029325703 -0.017049827 0.78300005 4292259243
-0.027961716 -0.017049827 0.78300005 4289167228
-0.026597731 -0.017049827 0.78300005 4291405442
-0.025169291 -0.017006276 0.78100002 4292458130
-0.023778303 -0.016984502 0.78000003 4290289580
-0.022362057 -0.016940951 0.77800006 4284828761
-0.01813161 -0.016788527 0.77100003 4293245629
-0.016744979 -0.016744979 0.76900005 4292324527
-0.015365313 -0.016701426 0.76700002 4292525481
-0.014029198 -0.016701426 0.76700002 4292657324
-0.012676535 -0.016679652 0.76600003 4292327339
-0.01131255 -0.016636103 0.76400006 4291537823
-0.0099816611 -0.016636103 0.76400006 4292589452
-0.0086507732 -0.016636103 0.76400006 4294962370
-0.0073007224 -0.016592553 0.76200002 4294964464
-0.0059733186 -0.016592553 0.76200002 4294966778
-0.0046398174 -0.016570777 0.76100004 4294832111
-0.0033141554 -0.016570777 0.76100004 4289897893
-0.0019832673 -0.016527228 0.75900006 4290814086
-0.00066108909 -0.016527228 0.75900006 4291406224
0.00066108909 -0.016527228 0.75900006 4292322447
0.0019832673 -0.016527228 0.75900006 4292125067
0.0032967352 -0.016483678 0.75700003 4292848774
0.0046154293 -0.016483678 0.75700003 4292980361
0.0059262845 -0.016461903 0.75600004 4293309073
0.0072432365 -0.016461903 0.75600004 4292980109
0.008560189 -0.016461903 0.75600004 4293046939
0.0098902062 -0.016483678 0.75700003 4293244062
0.011194094 -0.016461903 0.75600004 4293509285
0.012511045 -0.016461903 0.75600004 4293377699
0.013827998 -0.016461903 0.75600004 4292591290
0.01514495 -0.016461903 0.75600004 4291341223
0.016461903 -0.016461903 0.75600004 4291734171
0.017778853 -0.016461903 0.75600004 4291404949
0.019095806 -0.016461903 0.75600004 4291930491
0.020358756 -0.016418351 0.75400001 4294957997
0.021672223 -0.016418351 0.75400001 4294966500
0.022985691 -0.016418351 0.75400001 4294967014
0.02429916 -0.016418351 0.75400001 4294961887
0.025612628 -0.016418351 0.75400001 4294170572
0.026926095 -0.016418351 0.75400001 4294960343
0.028239565 -0.016418351 0.75400001 4294963941
0.029631423 -0.016461903 0.75600004 4294962400
0.030948374 -0.016461903 0.75600004 4294631636
0.032265328 -0.016461903 0.75600004 4294959563
0.033626702 -0.016483678 0.75700003 4294960335
0.034945395 -0.016483678 0.75700003 4294367433
0.036264088 -0.016483678 0.75700003 4294235847
0.037682079 -0.016527228 0.75900006 4294829281
0.039004255 -0.016527228 0.75900006 4294963694
0.040326435 -0.016527228 0.75900006 4294962655
0.041648615 -0.016527228 0.75900006 4294961370
0.043084022 -0.016570777 0.76100004 4294961368
0.044468038 -0.016592553 0.76200002 4294961882
0.045795444 -0.016592553 0.76200002 4294960606
0.047246531 -0.016636103 0.76400006 4294961891
0.048704583 -0.016679652 0.76600003 4294961891
0.050234932 -0.016744979 0.76900005 4294963947
0.051708661 -0.016788527 0.77100003 4294766068
0.053051744 -0.016788527 0.77100003 4293844966
0.054394826 -0.016788527 0.77100003 4291344626
0.055882495 -0.016832076 0.77300006 4290423524
0.057303093 -0.016853852 0.77400005 4288513871
0.058802955 -0.016897403 0.77600002 4282789632
0.06030979 -0.016940951 0.77800006 4289018466
0.061902843 -0.017006276 0.78100002 4293229218
0.063263349 -0.017006276 0.78100002 4293422236
0.064623848 -0.017006276 0.78100002 4293290651
0.065899864 -0.016984502 0.78000003 4292505009
0.067258626 -0.016984502 0.78000003 4290925978
0.068617389 -0.016984502 0.78000003 4291462263
-0.033631057 -0.015786005 0.78800005 4291866275
-0.032217424 -0.015765974 0.78700006 4292455832
-0.030768078 -0.015725907 0.78500003 4292784796
-0.029325703 -0.015685841 0.78300005 4291600007
-0.027961716 -0.015685841 0.78300005 4290086511
-0.026597731 -0.015685841 0.78300005 4292258198
-0.025169291 -0.015645776 0.78100002 4292258198
-0.023778303 -0.015625741 0.78000003 4288515988
-0.016744979 -0.015405378 0.76900005 4293508515
-0.015365313 -0.015365313 0.76700002 4292657335
-0.014010907 -0.015345279 0.76600003 4292196784
-0.012643438 -0.015305214 0.76400006 4291538325
-0.01131255 -0.015305214 0.76400006 4291604118
-0.009955531 -0.015265148 0.76200002 4292852134
-0.0086281262 -0.015265148 0.76200002 4294961622
-0.0073007224 -0.015265148 0.76200002 4294963180
-0.0059654796 -0.015245114 0.76100004 4294964979
-0.0046398174 -0.015245114 0.76100004 4294966263
-0.0033054454 -0.015205049 0.75900006 4291543999
-0.0019832673 -0.015205049 0.75900006 4291800227
-0.00066108909 -0.015205049 0.75900006 4292589743
0.00066108909 -0.015205049 0.75900006 4293112994
0.0019780411 -0.015164983 0.75700003 4293047201
0.0032967352 -0.015164983 0.75700003 4293113257
0.0046093324 -0.01514495 0.75600004 4293573808
0.0059262845 -0.01514495 0.75600004 4293443240
0.0072432365 -0.01514495 0.75600004 4293311654
0.008560189 -0.01514495 0.75600004 4292983984
0.0098771406 -0.01514495 0.75600004 4293444535
0.011194094 -0.01514495 0.75600004 4293643197
0.012477947 -0.015104883 0.75400001 4293248439
0.013791416 -0.015104883 0.75400001 4292132524
0.01514495 -0.01514495 0.75600004 4291277215
0.016461903 -0.01514495 0.75600004 4290026912
0.017778853 -0.01514495 0.75600004 4288711052
0.019045288 -0.015104883 0.75400001 4290479616
0.020358756 -0.015104883 0.75400001 4294964574
0.021672223 -0.015104883 0.75400001 4294967295
0.022924723 -0.015064818 0.75200003 4294967292
0.024234707 -0.015064818 0.75200003 4294962406
0.025612628 -0.015104883 0.75400001 4293448652
0.026926095 -0.015104883 0.75400001 4294563002
0.028239565 -0.015104883 0.75400001 4294960330
0.029553032 -0.015104883 0.75400001 4294961625
0.0308665 -0.015104883 0.75400001 4294959569
0.032265328 -0.01514495 0.75600004 4294761678
0.033626702 -0.015164983 0.75700003 4294366920
0.034945395 -0.015164983 0.75700003 4293775296
0.036264088 -0.015164983 0.75700003 4292919987
0.037582785 -0.015164983 0.75700003 4293708962
0.038901478 -0.015164983 0.75700003 4294962371
0.040326435 -0.015205049 0.75900006 4294963685
0.041648615 -0.015205049 0.75900006 4294961886
0.043084022 -0.015245114 0.76100004 4294960856
0.044468038 -0.015265148 0.76200002 4294961626
0.045795444 -0.015265148 0.76200002 4294960860
0.047246531 -0.015305214 0.76400006 4294960860
0.048704583 -0.015345279 0.76600003 4294895326
0.050104279 -0.015365313 0.76700002 4294963176
0.051574532 -0.015405378 0.76900005 4294964214
0.052914128 -0.015405378 0.76900005 4294305769
0.054253727 -0.015405378 0.76900005 4294962414
0.055737909 -0.015445444 0.77100003 4294965498
0.057229061 -0.015485511 0.77300006 4291940583
0.060154751 -0.015545608 0.77600002 4285474816
0.061506543 -0.015545608 0.77600002 4291725390
0.063182347 -0.015625741 0.78000003 4293620631
0.064541109 -0.015625741 0.78000003 4294212768
0.065730892 -0.015585676 0.77800006 4293035174
0.067086168 -0.015585676 0.77800006 4291324299
0.068441443 -0.015585676 0.77800006 4291590178
-0.033631057 -0.014413309 0.78800005 4291997593
-0.032217424 -0.014395018 0.78700006 4292457388
-0.030768078 -0.014358437 0.78500003 4291668128
-0.029400608 -0.014358437 0.78500003 4290814336
-0.027961716 -0.014321854 0.78300005 4288511581
-0.026529793 -0.014285273 0.78100002 4288578684
-0.025169291 -0.014285273 0.78100002 4288249720
-0.023778303 -0.014266982 0.78000003 4288908427
-0.019424174 -0.014065782 0.76900005 4287193344
-0.018037539 -0.014029198 0.76700002 4288901960
-0.016701426 -0.014029198 0.76700002 4293770899
-0.015345279 -0.014010907 0.76600003 4293117119
-0.013974326 -0.013974326 0.76400006 4292261810
-0.012643438 -0.013974326 0.76400006 4292129192
-0.011282935 -0.013937743 0.76200002 4292852916
-0.009955531 -0.013937743 0.76200002 4293247937
-0.0086281262 -0.013937743 0.76200002 4294563797
-0.0072911419 -0.013919452 0.76100004 4294301127
-0.0059654796 -0.013919452 0.76100004 4293906369
-0.0046276241 -0.013882871 0.75900006 4293843660
-0.0033054454 -0.013882871 0.75900006 4294963941
-0.0019832673 -0.013882871 0.75900006 4294965232
-0.00066108909 -0.013882871 0.75900006 4294964462
0.00065934705 -0.013846288 0.75700003 4294961384
0.0019780411 -0.013846288 0.75700003 4294962154
0.0032967352 -0.013846288 0.75700003 4294962926
0.0046093324 -0.013827998 0.75600004 4294966781
0.0059106066 -0.013791416 0.75400001 4294966246
0.0072240741 -0.013791416 0.75400001 4294967277
0.008537543 -0.013791416 0.75400001 4294967295
0.0098510114 -0.013791416 0.75400001 4294967295
0.011164479 -0.013791416 0.75400001 4294967295
0.012477947 -0.013791416 0.75400001 4294967295
0.013791416 -0.013791416 0.75400001 4294967295
0.015104883 -0.013791416 0.75400001 4294967295
0.016418351 -0.013791416 0.75400001 4294967292
0.017731819 -0.013791416 0.75400001 4292398270
0.019045288 -0.013791416 0.75400001 4293511111
0.020358756 -0.013791416 0.75400001 4294965754
0.02161474 -0.013754833 0.75200003 4294966516
0.022924723 -0.013754833 0.75200003 4294964974
0.024234707 -0.013754833 0.75200003 4294963432
0.025612628 -0.013791416 0.75400001 4293579980
0.026926095 -0.013791416 0.75400001 4294168746
0.028239565 -0.013791416 0.75400001 4294629297
0.029553032 -0.013791416 0.75400001 4294695105
0.0308665 -0.013791416 0.75400001 4294959563
0.032265328 -0.013827998 0.75600004 4294696398
0.033626702 -0.013846288 0.75700003 4292657072
0.034945395 -0.013846288 0.75700003 4292722613
0.036264088 -0.013846288 0.75700003 4291932840
0.037582785 -0.013846288 0.75700003 4292456065
0.038901478 -0.013846288 0.75700003 4294956970
0.040326435 -0.013882871 0.75900006 4294959311
0.041648615 -0.013882871 0.75900006 4294827725
0.042970791 -0.013882871 0.75900006 4294959573
0.044409681 -0.013919452 0.76100004 4294961629
0.045735344 -0.013919452 0.76100004 4294961375
0.047122847 -0.013937743 0.76200002 4294895067
0.048577417 -0.013974326 0.76400006 4294961119
0.050104279 -0.014029198 0.76700002 4294965745
0.051440395 -0.014029198 0.76700002 4294966522
0.052776508 -0.014029198 0.76700002 4294965752
0.054253727 -0.014065782 0.76900005 4294967030
0.055593323 -0.014065782 0.76900005 4294967295
0.057080992 -0.014102362 0.77100003 4294967295
0.060154751 -0.014193818 0.77600002 4287060760
0.061506543 -0.014193818 0.77600002 4288837171
0.063182347 -0.014266982 0.78000003 4291847063
0.064541109 -0.014266982 0.78000003 4293886647
0.065730892 -0.0142304 0.77800006 4294088083
0.067086168 -0.0142304 0.77800006 4293495945
0.068441443 -0.0142304 0.77800006 4291658077
0.069976151 -0.014266982 0.78000003 4294949012
-0.035092592 -0.013073711 0.79000002 4292716173
-0.033631057 -0.013040613 0.78800005 4293374103
-0.032217424 -0.013024065 0.78700006 4292130222
-0.030768078 -0.012990966 0.78500003 4291077533
-0.029325703 -0.012957868 0.78300005 4290291085
-0.027890293 -0.012924771 0.78100002 4287659366
-0.026529793 -0.012924771 0.78100002 4287071351
-0.025137061 -0.012908221 0.78000003 4287268987
-0.023778303 -0.012908221 0.78000003 4289697446
-0.019373653 -0.012693084 0.76700002 4287389952
-0.018014025 -0.012676535 0.76600003 4287124736
-0.016679652 -0.012676535 0.76600003 4294164569
-0.015345279 -0.012676535 0.76600003 4293183418
-0.013974326 -0.012643438 0.76400006 4292196267
-0.012643438 -0.012643438 0.76400006 4292326053
-0.011282935 -0.01261034 0.76200002 4293247155
-0.0099424664 -0.01259379 0.76100004 4293707202
-0.0086168041 -0.01259379 0.76100004 4294167753
-0.0072911419 -0.01259379 0.76100004 4293643444
-0.0059498018 -0.012560693 0.75900006 4293643444
-0.0046276241 -0.012560693 0.75900006 4293776066
-0.0033054454 -0.012560693 0.75900006 4294964452
-0.0019832673 -0.012560693 0.75900006 4294965235
-0.00066108909 -0.012560693 0.75900006 4294963178
0.00065934705 -0.012527594 0.75700003 4294632418
0.0019780411 -0.012527594 0.75700003 4294961897
0.0032967352 -0.012527594 0.75700003 4294962924
0.0045971381 -0.012477947 0.75400001 4294764260
0.0059106066 -0.012477947 0.75400001 4294959546
0.0072240741 -0.012477947 0.75400001 4294965714
0.008537543 -0.012477947 0.75400001 4294967294
0.0098510114 -0.012477947 0.75400001 4294967295
0.011164479 -0.012477947 0.75400001 4294967295
0.01244485 -0.01244485 0.75200003 4294967295
0.013754833 -0.01244485 0.75200003 4294967295
0.015064818 -0.01244485 0.75200003 4294967295
0.016374802 -0.01244485 0.75200003 4294967295
0.017731819 -0.012477947 0.75400001 4293914093
0.018994769 -0.01244485 0.75200003 4294958024
0.020304754 -0.01244485 0.75200003 4294963678
0.02161474 -0.01244485 0.75200003 4294964974
0.022924723 -0.01244485 0.75200003 4294964204
0.024234707 -0.01244485 0.75200003 4294964464
0.025612628 -0.012477947 0.75400001 4293908949
0.026854673 -0.01244485 0.75200003 4293643696
0.028164661 -0.01244485 0.75200003 4293512367
0.029553032 -0.012477947 0.75400001 4293841341
0.0308665 -0.012477947 0.75400001 4294961107
0.032265328 -0.012511045 0.75600004 4294303959
0.033582281 -0.012511045 0.75600004 4291869618
0.034945395 -0.012527594 0.75700003 4293180052
0.036264088 -0.012527594 0.75700003 4292390792
0.037582785 -0.012527594 0.75700003 4292716421
0.038901478 -0.012527594 0.75700003 4294955696
0.040326435 -0.012560693 0.75900006 4294105042
0.041648615 -0.012560693 0.75900006 4293710284
0.042970791 -0.012560693 0.75900006 4294497227
0.044409681 -0.01259379 0.76100004 4294826192
0.045735344 -0.01259379 0.76100004 4294959831
0.047122847 -0.01261034 0.76200002 4294961373
0.048577417 -0.012643438 0.76400006 4294962919
0.050038952 -0.012676535 0.76600003 4294965490
0.051440395 -0.012693084 0.76700002 4294966005
0.052776508 -0.012693084 0.76700002 4294965492
0.054112624 -0.012693084 0.76700002 4294964979
0.055448737 -0.012693084 0.76700002 4294967295
0.056932922 -0.012726183 0.76900005 4294967295
0.058272522 -0.012726183 0.76900005 4292005842
0.061506543 -0.012842026 0.77600002 4286600530
0.063020341 -0.012875124 0.77800006 4290142006
0.064541109 -0.012908221 0.78000003 4294089842
0.065899864 -0.012908221 0.78000003 4294679733
0.067258626 -0.012908221 0.78000003 4294350512
0.068617389 -0.012908221 0.78000003 4291855493
0.069976151 -0.012908221 0.78000003 4292579472
-0.036468774 -0.011697531 0.79000002 4290292367
-0.035003752 -0.011667917 0.78800005 4291535508
-0.03358838 -0.01165311 0.78700006 4292982954
-0.032135546 -0.011623496 0.78500003 4292458927
-0.030689687 -0.011593882 0.78300005 4290221965
-0.029325703 -0.011593882 0.78300005 4289370763
-0.027890293 -0.011564268 0.78100002 4286475871
-0.026495824 -0.011549461 0.78000003 4284575872
-0.025072608 -0.011519847 0.77800006 4283457647
-0.020709768 -0.01135697 0.76700002 4287325440
-0.019373653 -0.01135697 0.76700002 4292325692
-0.018014025 -0.011342163 0.76600003 4291467412
-0.016636103 -0.01131255 0.76400006 4293112494
-0.015305214 -0.01131255 0.76400006 4292786591
-0.013974326 -0.01131255 0.76400006 4292391833
-0.01261034 -0.011282935 0.76200002 4292457642
-0.011282935 -0.011282935 0.76200002 4293312950
-0.0099424664 -0.011268128 0.76100004 4293314234
-0.0086168041 -0.011268128 0.76100004 4292985269
-0.0072911419 -0.011268128 0.76100004 4292984238
-0.0059498018 -0.011238514 0.75900006 4294694599
-0.0046276241 -0.011238514 0.75900006 4294698467
-0.0033054454 -0.011238514 0.75900006 4294963439
-0.0019832673 -0.011238514 0.75900006 4294963174
-0.00065934705 -0.0112089 0.75700003 4294764510
0.00065934705 -0.0112089 0.75700003 4294500572
0.0019780411 -0.0112089 0.75700003 4294895074
0.0032836702 -0.011164479 0.75400001 4294172380
0.0045971381 -0.011164479 0.75400001 4290027677
0.0059106066 -0.011164479 0.75400001 4291734173
0.0072240741 -0.011164479 0.75400001 4294563272
0.008514897 -0.011134865 0.75200003 4294498270
0.0098248813 -0.011134865 0.75200003 4294959078
0.011134865 -0.011134865 0.75200003 4294960090
0.01244485 -0.011134865 0.75200003 4294962660
0.013754833 -0.011134865 0.75200003 4294965237
0.015064818 -0.011134865 0.75200003 4294967294
0.016374802 -0.011134865 0.75200003 4294967288
0.017684786 -0.011134865 0.75200003 4294436572
0.018994769 -0.011134865 0.75200003 4294760894
0.020304754 -0.011134865 0.75200003 4294959044
0.02161474 -0.011134865 0.75200003 4294960346
0.022924723 -0.011134865 0.75200003 4294961631
0.024234707 -0.011134865 0.75200003 4294962404
0.02554469 -0.011134865 0.75200003 4294566362
0.026854673 -0.011134865 0.75200003 4293776068
0.028164661 -0.011134865 0.75200003 4293710275
0.029474642 -0.011134865 0.75200003 4293973965
0.030784627 -0.011134865 0.75200003 4294961632
0.032179967 -0.011164479 0.75400001 4294370268
0.033582281 -0.011194094 0.75600004 4291606962
