# .PCD v0.7 - Point Cloud Data file format
VERSION 0.7
FIELDS x y z
SIZE 4 4 4
TYPE F F F
COUNT 1 1 1
WIDTH 1378
HEIGHT 1
VIEWPOINT 0 0 0 1 0 0 0
POINTS 1378
DATA ascii
0.06472116 0.013439457 0.77159035
0.064591371 0.012354148 0.77050668
0.064322792 0.011408345 0.76932859
0.063898727 0.010651227 0.76807129
0.063421339 0.010212917 0.76699477
0.058914728 0.031402741 0.77733004
0.058038294 0.032814551 0.77716833
0.057181973 0.034099169 0.77693284
0.056299061 0.035337966 0.77661979
0.055391476 0.036528494 0.77623016
0.054461535 0.037666094 0.77576357
0.053511843 0.038744438 0.77521878
0.052545417 0.03975543 0.77459371
0.051565994 0.040688802 0.77388555
0.050578456 0.041531533 0.77309096
0.049589504 0.042267032 0.77220643
0.048608687 0.042874083 0.77122903
0.047649957 0.043325722 0.77015758
0.046734113 0.043588426 0.76899588
0.045892932 0.043622736 0.76775944
0.045286115 0.04344739 0.76670372
0.048108313 0.025321681 0.75610656
0.047386285 0.026820386 0.75624818
0.046760373 0.028234661 0.75646514
0.046186939 0.029647607 0.75675988
0.04566703 0.031056292 0.75713164
0.045203332 0.03245626 0.75758076
0.044799782 0.03384193 0.75810856
0.044461578 0.035206437 0.7587173
0.044195365 0.036541153 0.75940984
0.044009488 0.037835002 0.76018971
0.043914337 0.039073464 0.7610606
0.04392267 0.04023714 0.76202583
0.044049747 0.04129979 0.76308686
0.044312719 0.042225845 0.76424032
0.044727929 0.042967156 0.76547146
0.045195352 0.043396316 0.76652545
0.049599942 0.022605687 0.75612527
0.05047638 0.021193875 0.75628692
0.051332701 0.019909257 0.75652242
0.05221561 0.018670462 0.75683546
0.053123195 0.017479932 0.7572251
0.054053135 0.016342333 0.75769168
0.055002827 0.015263988 0.75823647
0.055969253 0.014252999 0.75886154
0.056948677 0.013319626 0.75956976
0.057936214 0.012476892 0.76036429
0.058925167 0.011741394 0.76124883
0.059905987 0.011134344 0.76222622
0.060864713 0.010682703 0.76329768
0.061780561 0.01042 0.76445937
0.062621742 0.010385692 0.76569581
0.063228555 0.010561035 0.76675159
0.060406361 0.028686745 0.7773487
0.061128385 0.02718804 0.77720714
0.061754301 0.025773767 0.77699012
0.062327731 0.024360821 0.77669537
0.062847644 0.022952134 0.77632362
0.063311338 0.021552168 0.77587456
0.063714892 0.020166496 0.7753467
0.064053088 0.018801989 0.77473795
0.064319305 0.017467275 0.77404541
0.064505182 0.016173426 0.77326554
0.064600334 0.014934963 0.77239466
0.064592004 0.013771289 0.77142942
0.064464927 0.012708638 0.7703684
0.064201951 0.011782581 0.76921493
0.063786745 0.011041271 0.76798385
0.063319318 0.01061211 0.76692981
0.058904152 0.031357277 0.77704489
0.058046401 0.032738987 0.7768867
0.057208341 0.033996213 0.77665621
0.056344256 0.035208594 0.77634984
0.05545602 0.036373738 0.77596849
0.054545913 0.037487082 0.77551186
0.053616468 0.038542435 0.7749787
0.05267065 0.039531864 0.77436692
0.051712107 0.040445335 0.77367389
0.050745629 0.0412701 0.77289623
0.049777761 0.041989915 0.77203059
0.048817854 0.042584021 0.771074
0.047879569 0.043026034 0.77002543
0.046983253 0.043283135 0.76888847
0.046160009 0.043316711 0.76767844
0.04556613 0.043145105 0.76664519
0.048328154 0.02540588 0.75627398
0.047621522 0.026872629 0.75641257
0.047008954 0.028256748 0.75662494
0.046447746 0.029639566 0.75691342
0.045938924 0.031018216 0.75727719
0.045485113 0.03238833 0.75771672
0.045090165 0.033744458 0.75823331
0.044759177 0.03507987 0.75882906
0.044498637 0.036386125 0.75950682
0.044316724 0.037652388 0.76027006
0.044223603 0.038864445 0.76112241
0.044231758 0.040003303 0.76206708
0.044356123 0.041043296 0.76310545
0.044613492 0.041949607 0.76423436
0.045019846 0.042675111 0.76543921
0.045477305 0.043095123 0.76647073
0.049787976 0.022747798 0.75629228
0.050645728 0.021366088 0.75645047
0.051483788 0.020108862 0.75668103
0.052347872 0.018896479 0.75698739
0.053236108 0.017731335 0.75736868
0.054146215 0.016617991 0.75782531
0.05507566 0.01556264 0.75835854
0.056021478 0.014573208 0.75897026
0.056980021 0.013659737 0.75966334
0.057946499 0.012834973 0.76044095
0.058914367 0.012115157 0.76130658
0.059874274 0.011521051 0.76226318
0.060812559 0.011079039 0.7633118
0.061708875 0.010821938 0.7644487
0.062532119 0.010788362 0.7656588
0.063125998 0.010959967 0.76669204
0.060363974 0.028699193 0.77706325
0.061070606 0.027232444 0.77692461
0.061683174 0.025848327 0.7767123
0.062244382 0.024465507 0.77642381
0.062753201 0.023086857 0.77605999
0.063207015 0.021716742 0.77562046
0.063601963 0.020360615 0.77510393
0.063932948 0.019025203 0.77450818
0.064193487 0.017718948 0.77383035
0.064375401 0.016452687 0.77306712
0.064468525 0.01524063 0.77221483
0.064460367 0.01410177 0.77127016
0.064336002 0.013061777 0.77023172
0.064078636 0.012155465 0.76910287
0.063672282 0.011429961 0.76789802
0.063214824 0.011009952 0.76686651
0.058891125 0.03131048 0.77676147
0.058052067 0.032662086 0.77660668
0.057232261 0.033891924 0.77638119
0.056387004 0.035077889 0.7760815
0.055518121 0.036217649 0.7757085
0.054627839 0.037306737 0.77526182
0.053718645 0.038339097 0.77474028
0.052793432 0.039306972 0.77414185
0.051855776 0.040200539 0.77346385
0.05091035 0.041007336 0.77270317
0.049963571 0.041711472 0.77185637
0.049024582 0.042292632 0.77092063
0.048106737 0.042725012 0.7698949
0.047229949 0.042976514 0.76878273
0.046424638 0.043009359 0.76759905
0.045843698 0.04284149 0.76658833
0.048545547 0.025488747 0.75644308
0.047854312 0.026923541 0.75657862
0.047255088 0.028277501 0.75678635
0.046706107 0.029630195 0.75706851
0.04620837 0.030978808 0.75742441
0.045764446 0.032319073 0.7578544
0.045378104 0.033645656 0.75835967
0.045054328 0.03495197 0.75894248
0.044799466 0.036229767 0.75960547
0.044621512 0.037468441 0.76035208
0.044530418 0.038654089 0.76118582
0.044538397 0.039768137 0.76210994
0.044660054 0.040785473 0.76312572
0.044911817 0.04167204 0.76423001
0.045309316 0.042381737 0.76540858
0.045756806 0.042792596 0.76641762
0.049973566 0.022888577 0.75646096
0.050812628 0.021536969 0.7566157
0.05163243 0.020307133 0.75684124
0.052477691 0.019121164 0.75714093
0.053346571 0.017981406 0.75751394
0.054236852 0.016892318 0.75796062
0.055146046 0.01585996 0.75848216
0.056071259 0.014892084 0.75908059
0.057008915 0.013998515 0.75975859
0.057954341 0.01319172 0.76051927
0.05890112 0.012487586 0.76136601
0.059840113 0.011906424 0.7623018
0.060757954 0.011474043 0.76332754
0.061634745 0.011222542 0.7644397
0.062440053 0.011189696 0.76562339
0.063020989 0.011357564 0.76663411
0.060319148 0.028710308 0.77677935
0.061010383 0.027275516 0.77664381
0.061609603 0.025921553 0.77643609
0.062158585 0.024568861 0.77615386
0.062656321 0.023220249 0.77579796
0.063100249 0.021879984 0.77536803
0.063486584 0.020553401 0.77486271
0.063810363 0.019247083 0.77427995
0.064065225 0.017969288 0.77361697
0.064243175 0.016730616 0.77287036
0.064334273 0.015544965 0.77203655
0.064326294 0.014430917 0.7711125
0.064204641 0.013413582 0.77009672
0.063952878 0.012527017 0.76899242
0.063555375 0.011817317 0.76781386
0.063107885 0.011406461 0.76680475
0.058875684 0.031262368 0.7764796
0.058055308 0.03258387 0.77632833
0.057253763 0.033786315 0.77610779
0.05642733 0.034945868 0.77581483
0.0555778 0.036060244 0.77545011
0.054707345 0.037125077 0.77501333
0.053818401 0.038134445 0.77450341
0.052913796 0.039080761 0.77391833
0.051997021 0.039954428 0.77325547
0.051072653 0.040743254 0.77251172
0.050146963 0.041431706 0.77168375
0.049228881 0.041999925 0.77076888
0.04833148 0.042422678 0.76976597
0.04747422 0.042668577 0.76867861
0.046686847 0.042700689 0.76752126
0.046118844 0.04253656 0.76653302
0.048760518 0.025570296 0.75661373
0.048084676 0.026973132 0.75674629
0.0474988 0.02829694 0.75694937
0.046962049 0.029619504 0.75722528
0.046475396 0.030938081 0.75757325
0.046041358 0.032248497 0.75799364
0.045663621 0.033545531 0.7584877
0.045347054 0.034822755 0.75905746
0.045097869 0.036072094 0.75970572
0.044923879 0.037283178 0.7604357
0.044834815 0.038442422 0.76125091
0.044842616 0.039531659 0.7621544
0.044961561 0.040526334 0.76314753
0.045207717 0.041393153 0.76422727
0.045596365 0.042087048 0.76537961
0.046033889 0.042488754 0.76636618
0.050156731 0.023028035 0.75663126
0.050977107 0.021706529 0.75678253
0.051778652 0.020504085 0.75700301
0.052605085 0.019344531 0.75729603
0.053454615 0.018230155 0.75766075
0.054325067 0.017165324 0.75809747
0.055214014 0.016155958 0.75860745
0.056118619 0.015209639 0.75919253
0.05703539 0.014335971 0.75985539
0.057959761 0.013547145 0.76059914
0.058885451 0.012858693 0.76142704
0.059803531 0.012290475 0.76234198
0.060700934 0.011867722 0.76334488
0.061558194 0.011621824 0.76443225
0.062345568 0.01158971 0.76558959
0.062913567 0.011753839 0.76657784
0.060271896 0.028720105 0.77649713
0.060947739 0.027317269 0.77636456
0.061533615 0.025993461 0.77616149
0.062070366 0.024670895 0.77588558
0.062557019 0.023352319 0.77553761
0.062991053 0.022041904 0.77511722
0.06336879 0.020744868 0.77462316
0.063685358 0.019467646 0.77405339
0.063934542 0.018218309 0.77340513
0.064108536 0.017007222 0.77267516
0.0641976 0.015847979 0.77185994
0.064189799 0.014758742 0.77095646
0.064070851 0.013764066 0.76996332
0.063824698 0.012897246 0.76888359
0.063436046 0.012203353 0.76773125
0.062998526 0.011801646 0.76674467
0.058857843 0.031212948 0.77619934
0.058056157 0.03250435 0.77605146
0.05727287 0.033679407 0.77583605
0.056465261 0.034812547 0.77554971
0.055635083 0.035901535 0.77519327
0.054784458 0.036942113 0.7747665
0.053915761 0.037928484 0.77426815
0.053031761 0.038853247 0.77369642
0.052135874 0.039707016 0.77304864
0.051232561 0.040477872 0.77232182
0.050327957 0.041150641 0.77151275
0.049430788 0.041705918 0.77061868
0.048553828 0.042119037 0.76963866
0.047716096 0.042359333 0.76857603
0.04694666 0.042390719 0.76744509
0.046391595 0.04223033 0.76647931
0.048973091 0.025650539 0.75678599
0.048312645 0.027021419 0.75691551
0.047740113 0.028315071 0.75711399
0.047215588 0.02960751 0.75738364
0.046740025 0.030896051 0.75772369
0.046315875 0.032176614 0.75813448
0.04594674 0.033444107 0.75861728
0.045637384 0.034692235 0.75917405
0.045393877 0.035913114 0.75980759
0.045223851 0.037096612 0.76052094
0.045136813 0.038229447 0.76131755
0.045144439 0.039293874 0.76220042
0.045260675 0.040265892 0.76317096
0.045501221 0.041112967 0.76422608
0.045881018 0.041791052 0.76535219
0.046308573 0.042183612 0.76631629
0.050337501 0.023166187 0.7568031
0.051139187 0.021874785 0.75695097
0.051922474 0.020699732 0.75716645
0.052730083 0.01956659 0.75745279
0.053560264 0.0184776 0.75780916
0.054410886 0.017437024 0.75823599
0.055279583 0.016450651 0.75873429
0.056163583 0.015525889 0.75930607
0.057059474 0.014672122 0.75995386
0.057962786 0.013901264 0.76068062
0.058867391 0.013228496 0.76148969
0.059764557 0.01267322 0.76238376
0.060641516 0.012260098 0.76336384
0.061479248 0.012019802 0.76442641
0.062248688 0.011988419 0.76555741
0.062803753 0.012148808 0.76652312
0.060222253 0.028728599 0.77621645
0.060882699 0.027357716 0.77608693
0.061455231 0.026064064 0.77588844
0.061979756 0.024771627 0.77561885
0.062455323 0.023483086 0.77527881
0.062879473 0.022202522 0.77486801
0.063248605 0.020935031 0.77438521
0.06355796 0.0196869 0.77382839
0.063801467 0.018466022 0.77319491
0.063971497 0.017282525 0.77248156
0.064058535 0.016149689 0.77168494
0.064050905 0.015085263 0.77080202
0.063934669 0.014113244 0.76983148
0.063694127 0.013266169 0.76877636
0.063314326 0.012588084 0.76765031
0.062886775 0.012195526 0.76668614
0.05883763 0.03116224 0.77592069
0.058054633 0.032423537 0.77577627
0.057289604 0.033571202 0.7755658
0.056500822 0.03467793 0.77528614
0.055689994 0.035741534 0.77493805
0.054859195 0.036757857 0.77452123
0.054010749 0.037721235 0.7740345
0.053147357 0.038624443 0.77347606
0.05227235 0.039458308 0.77284342
0.051390093 0.040211197 0.77213353
0.050506573 0.040868282 0.77134335
0.049630322 0.041410614 0.77047008
0.048773803 0.041814107 0.76951289
0.047955599 0.042048804 0.76847506
0.047204096 0.042079452 0.76737046
0.046661973 0.041922804 0.76642722
0.049183294 0.025729489 0.75695986
0.048538242 0.027068416 0.75708634
0.047979057 0.028331911 0.75728017
0.047466759 0.029594224 0.75754356
0.047002278 0.030852728 0.75787568
0.046588015 0.032103442 0.75827688
0.046227489 0.033341389 0.75874841
0.045925342 0.034560423 0.75929224
0.045687508 0.035752844 0.759911
0.045521446 0.036908753 0.76060772
0.045436438 0.038015183 0.76138574
0.045443885 0.039054796 0.7622481
0.045557413 0.04000416 0.76319599
0.045792352 0.040831488 0.7642265
0.046163294 0.041493766 0.76532632
0.046580885 0.041877173 0.76626801
0.050515901 0.023303049 0.75697654
0.051298898 0.022041749 0.75712097
0.052063927 0.020894084 0.75733143
0.052852709 0.019787358 0.7576111
0.053663537 0.018723752 0.75795919
0.054494336 0.017707432 0.758376
0.055342779 0.016744051 0.75886273
0.056206174 0.015840843 0.75942117
0.057081182 0.015006979 0.76005381
0.057963438 0.014254089 0.7607637
0.058846954 0.013597003 0.76155388
0.05972321 0.013054672 0.76242715
0.060579728 0.01265118 0.76338434
0.061397932 0.012416485 0.76442218
0.062149435 0.012385834 0.76552677
0.062691562 0.012542485 0.76647002
0.060170237 0.0287358 0.77593738
0.060815286 0.027396873 0.7758109
0.061374474 0.026133375 0.77561706
0.061886773 0.024871064 0.77535367
0.062351253 0.023612559 0.77502155
0.062765516 0.022361845 0.77462035
0.063126042 0.021123899 0.77414882
0.063428193 0.019904863 0.77360499
0.063666023 0.018712444 0.77298623
0.063832082 0.017556533 0.77228951
0.063917093 0.016450103 0.7715115
0.063909642 0.01541049 0.77064914
0.063796118 0.014461129 0.76970124
0.063561179 0.0136338 0.76867074
0.063190237 0.01297152 0.76757091
0.062772647 0.012588114 0.76662922
0.058815077 0.031110253 0.77564353
0.058050763 0.03234145 0.77550256
0.057303991 0.033461723 0.77529716
0.056534037 0.034542035 0.77502418
0.055742558 0.035580259 0.77468437
0.054931592 0.036572322 0.77427751
0.054103393 0.037512712 0.7738024
0.053260606 0.038394362 0.77325732
0.052406482 0.039208326 0.77263975
0.051545281 0.039943248 0.77194679
0.05068285 0.04058465 0.77117544
0.049827509 0.04111404 0.7703231
0.048991434 0.0415079 0.76938868
0.048192754 0.041736994 0.76837564
0.047459189 0.041766915 0.76729739
0.046930004 0.041614003 0.76637667
0.04939115 0.025807161 0.75713527
0.048761494 0.027114132 0.75725877
0.048215654 0.028347475 0.75744796
0.047715582 0.02957966 0.75770503
0.047262188 0.030808128 0.75802922
0.046857812 0.032028992 0.75842083
0.046505887 0.033237394 0.75888115
0.046210952 0.034427337 0.75941199
0.045978796 0.035591297 0.76001596
0.045816697 0.03671962 0.76069605
0.04573372 0.037799645 0.76145554
0.045740988 0.038814444 0.76229727
0.045851804 0.039741151 0.76322258
0.046081137 0.040548734 0.76422846
0.046443228 0.041195206 0.76530206
0.046850853 0.041569464 0.76622123
0.050691951 0.023438631 0.75715154
0.051456265 0.022207433 0.75729251
0.052203033 0.02108716 0.75749797
0.052972991 0.020006848 0.75777096
0.053764466 0.018968625 0.75811076
0.054575436 0.017976562 0.75851762
0.055403635 0.017036172 0.75899273
0.056246422 0.016154522 0.75953782
0.057100546 0.015340558 0.76015538
0.057961743 0.014605638 0.76084834
0.058824178 0.013964233 0.76161969
0.059679519 0.013434845 0.76247203
0.060515594 0.013040983 0.76340646
0.06131427 0.012811889 0.7644195
0.062047839 0.012781968 0.76549774
0.062577024 0.012934882 0.76641846
0.060115878 0.028741723 0.77565986
0.060745534 0.027434751 0.77553636
0.061291374 0.02620141 0.77534717
0.061791446 0.024969226 0.7750901
0.06224484 0.023740755 0.77476591
0.062649213 0.022519892 0.77437425
0.063001141 0.02131149 0.77391398
0.063296072 0.020121548 0.77338314
0.063528232 0.018957587 0.77277917
0.063690327 0.017829264 0.77209908
0.063773312 0.01674924 0.7713396
0.06376604 0.01573444 0.77049786
0.06365522 0.014807736 0.76957256
0.063425891 0.014000152 0.76856667
0.0630638 0.013353677 0.76749307
0.062656172 0.012979422 0.76657391
0.058790196 0.031057002 0.77536798
0.058044571 0.032258097 0.77523047
0.057316061 0.033350982 0.77503008
0.056564927 0.034404881 0.77476376
0.055792805 0.035417717 0.77443224
0.055001661 0.036385525 0.77403533
0.054193716 0.037302922 0.77357185
0.053371534 0.038163017 0.77304006
0.052538294 0.038957082 0.77243757
0.051698148 0.039674032 0.7717616
0.050856803 0.040299755 0.77100915
0.050022375 0.040816199 0.7701776
0.049206741 0.041200433 0.76926607
0.048427589 0.041423924 0.76827776
0.047711961 0.041453112 0.76722586
0.04719571 0.04130394 0.76632768
0.049596686 0.02588357 0.75731224
0.048982423 0.027158586 0.7574327
0.04844993 0.028361773 0.75761724
0.047962084 0.029563833 0.75786805
0.047519773 0.030762265 0.75818431
0.047125284 0.031953279 0.75856638
0.046781965 0.033132136 0.75901538
0.046494242 0.034292985 0.75953329
0.046267763 0.035428487 0.76012248
0.046109628 0.036529221 0.76078594
0.046028677 0.037582841 0.76152682
0.046035767 0.038572829 0.762348
0.046143875 0.039476875 0.76325071
0.046367601 0.040264715 0.76423198
0.046720836 0.040895384 0.76527935
0.047118496 0.041260488 0.76617604
0.050865684 0.02357295 0.75732809
0.051611308 0.022371855 0.75746566
0.052339818 0.021278972 0.75766605
0.053090952 0.020225072 0.75793236
0.053863075 0.019212235 0.75826383
0.054654215 0.018244427 0.75866079
0.055462163 0.017327029 0.75912422
0.056284346 0.016466936 0.75965601
0.057117585 0.015672872 0.7602585
0.057957731 0.014955921 0.76093447
0.058799077 0.014330198 0.76168698
0.059633505 0.013813754 0.76251853
0.060449138 0.013429522 0.76343006
0.06122829 0.013206028 0.76441836
0.061943918 0.01317684 0.76547021
0.062460169 0.013326014 0.76636839
0.060059194 0.028746383 0.77538389
0.060673457 0.027471365 0.77526343
0.06120595 0.026268179 0.77507883
0.061693795 0.025066121 0.77482808
0.062136106 0.023867687 0.77451181
0.062530592 0.022676673 0.77412975
0.062873915 0.021497818 0.77368069
0.063161634 0.020336969 0.77316284
0.063388117 0.019201467 0.77257365
0.063546255 0.018100731 0.77191019
0.063627206 0.017047113 0.77116925
0.063620113 0.016057122 0.77034807
0.063512005 0.015153076 0.76944542
0.063288279 0.014365238 0.76846409
0.062935039 0.013734571 0.76741678
0.062537387 0.013369465 0.76652008
0.05876302 0.031002499 0.77509391
0.058036081 0.032173492 0.77495986
0.057325829 0.033238985 0.77476448
0.056593522 0.034266472 0.77450484
0.055840749 0.035253923 0.77418166
0.055069435 0.036197476 0.77379471
0.054281738 0.037091881 0.77334285
0.053480163 0.037930418 0.77282435
0.052667804 0.038704582 0.772237
0.051848717 0.039403565 0.77157795
0.051028457 0.040013604 0.77084434
0.050214943 0.040517107 0.77003366
0.04941975 0.040891707 0.76914495
0.048660126 0.041109599 0.76818144
0.047962431 0.041138057 0.76715589
0.047459122 0.040992621 0.76628023
0.049799919 0.025958726 0.75749069
0.049201053 0.027201788 0.75760812
0.048681904 0.028374819 0.75778812
0.048206288 0.029546753 0.75803256
0.047775064 0.030715149 0.7583409
0.047390461 0.031876314 0.75871342
0.047055747 0.033025622 0.75915122
0.046775233 0.034157377 0.75965607
0.046554428 0.035264421 0.76023054
0.046400256 0.036337573 0.76087737
0.046321336 0.037364781 0.76159972
0.04632825 0.038329959 0.76240027
0.046433646 0.039211348 0.76328033
0.046651766 0.039979443 0.76423705
0.04699615 0.040594302 0.76525813
0.047383841 0.040950257 0.76613235
0.051037114 0.023706017 0.75750619
0.051764052 0.022535024 0.7576403
0.052474305 0.021469532 0.75783563
0.053206611 0.020442046 0.75809526
0.053959385 0.019454593 0.75841844
0.054730698 0.01851104 0.75880545
0.055518396 0.017616635 0.75925732
0.056319971 0.016778097 0.75977576
0.05713233 0.016003937 0.76036316
0.057951417 0.015304953 0.76102221
0.058771677 0.014694913 0.76175582
0.059585191 0.014191411 0.76256651
0.060380384 0.013816809 0.76345521
0.061140005 0.013598917 0.76441872
0.061837703 0.01357046 0.76544422
0.062341012 0.013715896 0.76631993
0.060000211 0.02874979 0.77510947
0.060599077 0.027506728 0.77499199
0.061118226 0.026333697 0.77481204
0.061593845 0.025161764 0.77456754
0.06202507 0.023993367 0.77425921
0.062409673 0.022832202 0.77388674
0.062744386 0.021682892 0.77344894
0.063024901 0.020551138 0.77294403
0.063245706 0.019444095 0.77236962
0.063399874 0.018370945 0.77172279
0.063478798 0.017343733 0.77100044
0.063471884 0.016378555 0.77019984
0.063366488 0.015497168 0.76931983
0.063148364 0.014729074 0.76836306
0.062803984 0.014114212 0.76734197
0.062416293 0.013758258 0.76646775
0.058733564 0.030946758 0.7748214
0.058025315 0.032087646 0.77469081
0.05733332 0.033125747 0.77450043
0.056619838 0.034126822 0.77424747
0.055886418 0.035088889 0.77393258
0.05513493 0.036008187 0.77355558
0.054367483 0.036879599 0.77311534
0.053586513 0.037696581 0.77261019
0.052795038 0.038450841 0.77203792
0.051997006 0.039131857 0.7713958
0.051197834 0.039726213 0.77068102
0.05040523 0.040216774 0.7698912
0.049630482 0.040581744 0.76902533
0.048890386 0.040794037 0.76808661
0.048210625 0.040821761 0.76708746
0.047720253 0.040680066 0.76623428
0.05000088 0.026032643 0.7576707
0.049417406 0.027243748 0.75778514
0.048911605 0.028386626 0.75796044
0.048448212 0.029528432 0.75819868
0.048028074 0.030666793 0.75849909
0.047653358 0.031798109 0.75886196
0.047327247 0.032917872 0.75928849
0.047053948 0.034020532 0.75978041
0.046838816 0.035099119 0.76034009
0.046688609 0.036144681 0.76097029
0.046611719 0.037145484 0.76167405
0.046618454 0.038085852 0.76245409
0.046721142 0.038944583 0.76331151
0.046933655 0.039692931 0.7642436
0.047269184 0.040291987 0.76523846
0.04764691 0.04063879 0.76609021
0.051206268 0.023837842 0.75768578
0.051914517 0.022696953 0.75781643
0.052606512 0.021658851 0.75800675
0.053319994 0.020657778 0.75825971
0.054053415 0.019695709 0.7585746
0.054804903 0.018776413 0.75895166
0.05557235 0.017904999 0.7593919
0.056353319 0.017088018 0.75989705
0.057144795 0.016333759 0.76046932
0.057942826 0.015652744 0.76111138
0.058741998 0.015058385 0.76182616
0.059534602 0.014567828 0.76261604
0.06030935 0.014202855 0.76348186
0.061049446 0.013990564 0.76442063
0.061729208 0.01396284 0.76541978
0.062219579 0.014104536 0.76627296
0.059938952 0.028751956 0.77483654
0.060522426 0.027540851 0.7747221
0.061028227 0.026397973 0.77454674
0.06149162 0.025256168 0.77430856
0.061911758 0.024117807 0.77400815
0.062286474 0.022986492 0.77364522
0.062612586 0.021866726 0.77321869
0.062885888 0.020764066 0.77272677
0.063101016 0.019685481 0.77216715
0.06325122 0.018639918 0.77153695
0.063328117 0.017639114 0.77083313
0.063321382 0.016698748 0.77005315
0.06321869 0.015840016 0.76919574
0.063006178 0.015091669 0.76826358
0.062670648 0.014492613 0.76726872
0.062292922 0.014145809 0.76641697
0.058701862 0.030889789 0.77455038
0.058012299 0.032000575 0.77442318
0.057338562 0.033011287 0.77423787
0.056643907 0.033985946 0.77399158
0.055929836 0.03492263 0.77368504
0.055198178 0.035817672 0.77331793
0.054450978 0.036666092 0.77288932
0.053690616 0.037461516 0.77239752
0.052920025 0.038195875 0.77184033
0.052143048 0.03885892 0.77121514
0.051364962 0.039437596 0.77051926
0.050593272 0.039915211 0.76975024
0.049838964 0.040270556 0.76890725
0.049118396 0.040477242 0.76799327
0.048456572 0.040504236 0.76702046
0.047979139 0.040366281 0.76618981
0.050199591 0.026105335 0.7578522
0.049631514 0.027284486 0.7579636
0.049139056 0.028397208 0.75813431
0.04868789 0.029508885 0.75836623
0.048278838 0.030617211 0.75865871
0.04791401 0.031718675 0.75901204
0.047596503 0.032808896 0.75942731
0.047330413 0.033882461 0.75990623
0.047120962 0.034932591 0.76045114
0.046974715 0.035950564 0.76106471
0.046899851 0.036924962 0.76174992
0.046906412 0.037840515 0.76250935
0.047006391 0.03867659 0.76334417
0.047213294 0.039405193 0.76425171
0.047539972 0.03998844 0.76522028
0.047907729 0.040326096 0.76604956
0.051373173 0.023968445 0.75786692
0.052062735 0.022857659 0.75799406
0.052736472 0.021846946 0.75817943
0.053431127 0.020872287 0.75842571
0.054145198 0.019935602 0.75873226
0.054876857 0.019040562 0.75909936
0.055624057 0.018192142 0.75952798
0.056384418 0.017396716 0.76001978
0.057155009 0.016662357 0.76057696
0.057931986 0.015999312 0.7612021
0.058710072 0.015420636 0.76189798
0.059481762 0.014943022 0.76266706
0.06023607 0.014587679 0.76351005
0.060956638 0.014380991 0.76442403
0.061618462 0.014353997 0.76539683
0.062095895 0.014491955 0.76622748
0.059875447 0.028752899 0.7745651
0.060443521 0.027573748 0.7744537
0.060935978 0.026461026 0.77428299
0.061387144 0.025349349 0.77405107
0.061796196 0.024241023 0.77375859
0.062161025 0.023139557 0.77340525
0.062478531 0.022049338 0.77298993
0.062744625 0.02097577 0.77251101
0.062954076 0.019925645 0.77196616
0.063100316 0.01890767 0.77135253
0.063175179 0.017933272 0.77066737
0.063168623 0.017017717 0.76990789
0.063068643 0.016181644 0.76907313
0.062861741 0.015453042 0.76816559
0.062535062 0.014869792 0.76719701
0.062167305 0.014532139 0.76636773
0.058667924 0.030831603 0.77428085
0.057997048 0.031912286 0.77415711
0.057341568 0.032895606 0.7739768
0.056665737 0.033843853 0.77373719
0.055971019 0.034755152 0.77343893
0.05525919 0.035625938 0.77308178
0.054532241 0.036451366 0.77266479
0.053792484 0.037225235 0.77218628
0.053042777 0.037939694 0.77164423
0.052286856 0.038584769 0.77103603
0.051529855 0.039147761 0.77035898
0.050779082 0.039612431 0.76961076
0.050045215 0.039958145 0.7687906
0.049344175 0.040159233 0.76790142
0.048700284 0.040185496 0.76695496
0.048235793 0.040051278 0.76614684
0.050396066 0.02617681 0.75803518
0.049843386 0.027324006 0.75814354
0.049364273 0.028406572 0.7583096
0.048925336 0.029488124 0.75853527
0.048527367 0.030566413 0.75881982
0.048172425 0.031638026 0.75916362
0.047863524 0.032698702 0.75956762
0.047604647 0.033743177 0.76003355
0.047400869 0.034764841 0.76056367
0.047258589 0.035755228 0.76116061
0.047185753 0.036703221 0.76182729
0.047192134 0.037593964 0.76256615
0.047289405 0.038407378 0.76337832
0.047490701 0.039116234 0.76426125
0.047808524 0.039683677 0.7652036
0.048166316 0.040012181 0.7660104
0.051537845 0.024097832 0.75804949
0.052208722 0.023017148 0.75817323
0.052864198 0.022033827 0.75835353
0.053540029 0.021085581 0.75859314
0.054234747 0.020174282 0.7588914
0.054946575 0.019303495 0.75924855
0.055673528 0.018478068 0.75966555
0.056413285 0.017704198 0.760144
0.057162993 0.016989741 0.7606861
0.05791891 0.016344665 0.76129431
0.058675911 0.015781673 0.76197135
0.059426688 0.015317001 0.76271951
0.060160555 0.014971289 0.76353967
0.060861595 0.0147702 0.76442891
0.061505482 0.014743939 0.76537532
0.061969977 0.014878158 0.7661835
0.059809703 0.028752625 0.77429515
0.060362384 0.027605429 0.77418673
0.060841493 0.026522862 0.77402067
0.061280433 0.025441311 0.77379507
0.061678402 0.02436302 0.77351052
0.062033344 0.023291407 0.77316672
0.062342245 0.022230731 0.77276272
0.062601119 0.021186259 0.77229673
0.0628049 0.020164592 0.7717666
0.062947184 0.019174205 0.77116966
0.063020013 0.018226214 0.77050304
0.063013636 0.017335471 0.76976418
0.062916368 0.016522057 0.76895201
0.062715068 0.0158132 0.76806909
0.062397245 0.015245756 0.76712674
0.06203945 0.014917254 0.76631993
0.058631778 0.030772215 0.77401274
0.057979587 0.031822797 0.77389246
0.057342369 0.032778725 0.77371716
0.056685366 0.033700556 0.77348423
0.056009997 0.034586471 0.77319431
0.055317998 0.035433002 0.77284712
0.054611299 0.036235437 0.77244169
0.053892147 0.036987748 0.77197653
0.053163324 0.037682302 0.77144957
0.052428462 0.03830941 0.77085829
0.051692545 0.038856722 0.77020013
0.050962683 0.039308451 0.76947278
0.05024926 0.039644532 0.76867545
0.049567748 0.03984002 0.767811
0.048941795 0.03986555 0.76689094
0.048490241 0.039735068 0.76610535
0.050590336 0.026247084 0.7582196
0.050053053 0.027362324 0.75832498
0.049587287 0.028414736 0.75848645
0.049160577 0.02946616 0.75870579
0.048773695 0.030514412 0.75898242
0.04842864 0.031556178 0.75931662
0.048128344 0.032587305 0.75970936
0.047876675 0.033602681 0.76016235
0.047678575 0.034595892 0.7606777
0.047540255 0.035558689 0.76125801
0.047469452 0.036480274 0.76190609
0.047475655 0.037346207 0.76262438
0.047570214 0.038136963 0.76341391
0.047765903 0.038826074 0.76427227
0.048074875 0.039377708 0.76518834
0.048422702 0.039697062 0.76597267
0.051700313 0.024226017 0.75823355
0.052352499 0.023175435 0.75835383
0.052989721 0.022219505 0.75852913
0.053646725 0.021297675 0.75876206
0.05432209 0.02041176 0.75905198
0.055014092 0.01956523 0.75939918
0.055720791 0.018762797 0.75980455
0.056439944 0.018010484 0.7602697
0.057168767 0.017315928 0.76079673
0.057903629 0.01668882 0.76138794
0.058639545 0.01614151 0.76204616
0.059369408 0.015689781 0.76277351
0.06008283 0.0153537 0.76357079
0.060764343 0.015158213 0.76443523
0.061390296 0.015132682 0.76535529
0.061841849 0.015263163 0.76614094
0.05974175 0.028751148 0.77402669
0.060279038 0.027635908 0.77392131
0.060744803 0.026583496 0.77375984
0.061171513 0.025532072 0.7735405
0.061558396 0.02448382 0.77326387
0.061903451 0.023442056 0.77292967
0.062203746 0.022410927 0.77253687
0.062455416 0.021395549 0.77208394
0.062653512 0.02040234 0.7715686
0.062791832 0.019439541 0.77098823
0.062862642 0.018517956 0.7703402
0.062856436 0.017652025 0.76962191
0.062761873 0.016861269 0.76883239
0.062566184 0.016172158 0.76797402
0.062257215 0.015620521 0.7670579
0.061909389 0.015301169 0.76627362
0.058593445 0.030711636 0.77374613
0.057959944 0.031732112 0.77362925
0.057340983 0.032660652 0.77345902
0.056702804 0.03355607 0.77323276
0.056046791 0.034416597 0.77295113
0.055374619 0.035238869 0.77261388
0.054688167 0.036018312 0.77222008
0.053989623 0.036749069 0.77176827
0.053281683 0.037423722 0.77125639
0.052567877 0.03803286 0.77068204
0.05185305 0.038564488 0.77004272
0.051144101 0.039003272 0.76933622
0.050451118 0.039329723 0.76856178
0.049789134 0.039519608 0.76772213
0.049181119 0.039544407 0.76682842
0.048742503 0.039417665 0.7660653
0.050782423 0.026316168 0.75840551
0.050260536 0.027399451 0.75850785
0.049808115 0.028421706 0.75866467
0.049393632 0.029443003 0.75887775
0.049017835 0.03046122 0.75914645
0.048682667 0.031473134 0.75947106
0.048390973 0.032474715 0.75985259
0.04814652 0.033460997 0.76029259
0.047954097 0.034425747 0.76079315
0.047819741 0.035360958 0.76135689
0.047750965 0.036256135 0.76198637
0.047756989 0.037097253 0.76268405
0.047848839 0.037865352 0.76345098
0.048038922 0.038534719 0.76428473
0.048339039 0.039070547 0.76517457
0.048676901 0.039380748 0.76593643
0.051860593 0.024353012 0.75841904
0.052494094 0.023332534 0.75853586
0.053113054 0.022403996 0.75870615
0.053751234 0.021508578 0.75893241
0.054407246 0.020648049 0.75921404
0.055079419 0.019825775 0.75955129
0.055765871 0.019046335 0.75994509
0.056464415 0.01831558 0.7603969
0.057172354 0.017640926 0.76090878
0.057886161 0.017031787 0.76148307
0.058600988 0.016500158 0.76212239
0.059309937 0.016061375 0.76282889
0.060002919 0.015734922 0.76360339
0.060664903 0.015545038 0.76444304
0.061272919 0.015520238 0.76533675
0.061711535 0.015646981 0.76609987
0.059671614 0.028748479 0.77375966
0.060193505 0.027665196 0.77365726
0.060645923 0.026642941 0.77350044
0.061060406 0.025621643 0.77328742
0.061436202 0.024603428 0.77301872
0.06177137 0.023591515 0.77269405
0.062063064 0.022589931 0.77231258
0.062307518 0.021603648 0.77187258
0.062499944 0.0206389 0.77137196
0.062634297 0.019703688 0.77080828
0.062703073 0.01880851 0.77017879
0.062697053 0.017967394 0.76948112
0.062605202 0.017199295 0.76871419
0.062415116 0.016529929 0.76788044
0.062114999 0.0159941 0.7669906
0.061777141 0.015683897 0.76622874
0.058552943 0.030649874 0.77348095
0.057938132 0.03164025 0.77336752
0.057337429 0.032541394 0.7732023
0.056718078 0.0334104 0.77298272
0.056081414 0.034245543 0.77270937
0.055429071 0.03504356 0.77238208
0.05476287 0.035800006 0.7719999
0.054084934 0.036509205 0.77156144
0.053397875 0.037163958 0.77106464
0.052705128 0.037755128 0.77050728
0.052011389 0.038271073 0.76988679
0.051323354 0.038696911 0.76920116
0.050650816 0.039013732 0.76844954
0.050008357 0.039198019 0.76763463
0.049418278 0.039222084 0.76676726
0.0489926 0.039099082 0.76602668
0.050972346 0.026384072 0.75859284
0.050465852 0.0274354 0.7586922
0.050026778 0.028427498 0.75884438
0.049624521 0.029418666 0.7590512
0.049259812 0.030406846 0.75931197
0.04893453 0.031388909 0.75962698
0.048651442 0.032360945 0.75999725
0.048414197 0.033318132 0.76042426
0.048227452 0.034254421 0.76091009
0.048097059 0.035162043 0.76145715
0.048030313 0.036030814 0.76206809
0.048036158 0.036847118 0.7627452
0.048125301 0.03759256 0.76348948
0.048309777 0.03824218 0.76429868
0.048601039 0.038762204 0.76516223
0.048928931 0.039063253 0.76590163
0.052018709 0.024478829 0.75860602
0.05263352 0.023488455 0.75871938
0.053234223 0.022587307 0.75888461
0.053853575 0.021718305 0.75910419
0.054490238 0.02088316 0.75937754
0.055142581 0.020085145 0.75970483
0.055808783 0.019328697 0.76008701
0.056486722 0.018619496 0.76052547
0.057173777 0.017964745 0.76102227
0.057866525 0.017373577 0.76157963
0.058560263 0.016857632 0.76220012
0.059248302 0.016431792 0.76288575
0.05992084 0.016114969 0.76363736
0.060563296 0.015930686 0.76445228
0.061153375 0.015906619 0.76531965
0.061579052 0.016029621 0.76606023
0.059599306 0.028744631 0.77349406
0.060105801 0.027693303 0.7733947
0.060544875 0.026701204 0.77324253
0.060947131 0.025710037 0.77303571
0.061311841 0.024721857 0.77277493
0.061637122 0.023739794 0.77245992
0.061920211 0.022767758 0.77208966
0.062157456 0.021810569 0.77166265
0.062344201 0.02087428 0.77117682
0.062474594 0.019966658 0.77062976
0.062541343 0.019097887 0.77001882
0.062535495 0.018281583 0.76934171
0.062446352 0.017536143 0.76859742
0.062261879 0.016886523 0.76778823
0.061970614 0.0163665 0.76692468
0.061642721 0.016065449 0.76618528
0.058510296 0.030586945 0.77321714
0.057914171 0.031547215 0.77310723
0.05733173 0.03242097 0.77294701
0.056731205 0.033263557 0.77273411
0.056113895 0.034073316 0.77246904
0.055481382 0.034847073 0.77215171
0.054835431 0.035580531 0.77178115
0.0541781 0.036268171 0.77135599
0.053511929 0.03690302 0.77087432
0.052840237 0.037476219 0.77033389
0.052167583 0.037976481 0.7697323
0.051500462 0.038389377 0.76906747
0.050848369 0.038696568 0.76833868
0.05022544 0.038875252 0.76754856
0.049653295 0.038898587 0.7667076
0.049240559 0.038779322 0.76598948
0.051160127 0.026450809 0.75878167
0.050669026 0.027470179 0.75887799
0.050243299 0.028432122 0.75902551
0.049853269 0.029393161 0.75922602
0.049499646 0.030351304 0.75947887
0.049184252 0.031303514 0.75978434
0.048909772 0.032246005 0.76014334
0.048679736 0.033174098 0.76055741
0.048498668 0.034081925 0.76102841
0.048372239 0.034961957 0.76155889
0.048307519 0.03580432 0.76215124
0.048313189 0.036595814 0.76280773
0.04839962 0.037318595 0.76352942
0.04857849 0.037948467 0.764314
0.0488609 0.038452685 0.76515132
0.049178824 0.038744584 0.76586825
0.052174684 0.024603479 0.75879437
0.052770808 0.023643209 0.75890434
0.05335325 0.022769453 0.75906456
0.053953774 0.021926865 0.75927746
0.054571085 0.021117108 0.75954247
0.055203598 0.020343348 0.7598598
0.055849548 0.019609895 0.76023036
0.05650688 0.018922253 0.76065552
0.057173051 0.018287404 0.76113719
0.057844743 0.017714204 0.76167762
0.058517396 0.017213941 0.76227927
0.059184518 0.016801046 0.76294404
0.059836611 0.016493855 0.76367283
0.060459539 0.016315171 0.76446295
0.061031684 0.016291836 0.76530397
0.06144442 0.0164111 0.76602203
0.059524853 0.028739614 0.7732299
0.060015954 0.027720245 0.77313358
0.06044168 0.026758302 0.77298599
0.060831711 0.025797261 0.77278548
0.061185334 0.02483912 0.77253264
0.061500728 0.02388691 0.77222717
0.061775208 0.022944419 0.77186817
0.062005244 0.022016326 0.77145416
0.062186312 0.021108497 0.7709831
0.062312741 0.020228464 0.77045268
0.06237746 0.019386102 0.76986027
0.06237179 0.01859461 0.76920378
0.06228536 0.017871829 0.76848209
0.06210649 0.017241955 0.76769751
0.06182408 0.01673774 0.76686019
0.061506156 0.01644584 0.76614326
0.058465526 0.030522859 0.77295482
0.057888091 0.031453025 0.77284831
0.05732391 0.032299384 0.7726931
0.05674221 0.033115558 0.77248687
0.056144252 0.033899929 0.77223015
0.055531569 0.034649432 0.77192277
0.054905869 0.035359893 0.77156383
0.054269146 0.036025975 0.77115196
0.053623859 0.036640923 0.77068543
0.052973226 0.037196152 0.77016193
0.052321661 0.03768073 0.76957917
0.051675454 0.038080681 0.7689352
0.051043801 0.038378242 0.76822925
0.050440401 0.038551323 0.76746392
0.049886197 0.038573928 0.76664931
0.049486399 0.038458403 0.76595372
0.051345784 0.026516391 0.75897187
0.050870083 0.027503803 0.75906515
0.050457701 0.028435588 0.75920808
0.050079901 0.029366501 0.75940228
0.04973736 0.030294605 0.75964719
0.049431857 0.031216962 0.75994313
0.049165979 0.032129906 0.76029086
0.048943158 0.033028901 0.76069188
0.048767764 0.03390827 0.76114821
0.048645299 0.034760714 0.76166201
0.04858261 0.035576668 0.76223576
0.048588101 0.036343347 0.76287174
0.048671823 0.037043467 0.76357079
0.048845083 0.037653595 0.76433074
0.049118642 0.038142003 0.76514184
0.0494266 0.038424753 0.7658363
0.052328538 0.024726974 0.75898415
0.052905973 0.02379681 0.75909066
0.053470153 0.022950448 0.75924587
0.054051854 0.022134274 0.7594521
0.054649811 0.021349901 0.75970882
0.055262495 0.020600401 0.7600162
0.055888195 0.01988994 0.76037514
0.056524917 0.019223856 0.76078695
0.057170205 0.018608909 0.76125354
0.057820838 0.018053679 0.76177704
0.058472402 0.0175691 0.7623598
0.05911861 0.017169151 0.76300377
0.059750263 0.016871588 0.76370966
0.060353663 0.016698509 0.76447505
0.060907867 0.016675904 0.76528966
0.061307665 0.016791429 0.76598525
0.059448279 0.028733442 0.7729671
0.05992398 0.027746029 0.77287382
0.060336363 0.026814245 0.77273089
0.060714163 0.025883332 0.7725367
0.061056703 0.024955228 0.77229172
0.061362207 0.02403287 0.77199584
0.061628085 0.023119926 0.77164811
0.061850905 0.02222093 0.77124703
0.0620263 0.021341562 0.77079076
0.062148765 0.020489117 0.77027696
0.062211454 0.019673165 0.76970315
0.062205963 0.018906485 0.76906723
0.062122241 0.018206364 0.76836818
0.061948981 0.017596237 0.76760823
0.061675422 0.017107828 0.76679713
0.061367463 0.01682508 0.76610267
0.05841865 0.030457623 0.77269381
0.057859905 0.031357683 0.77259076
0.057313982 0.032176651 0.77244061
0.05675111 0.032966409 0.77224106
0.056172505 0.033725396 0.77199262
0.055579651 0.034450639 0.7716952
0.054974202 0.035138104 0.77134788
0.054358087 0.035782631 0.77094936
0.053733684 0.036377672 0.77049792
0.05310411 0.036914933 0.76999134
0.052473634 0.037383828 0.76942748
0.051848341 0.037770834 0.76880431
0.051237132 0.038058765 0.76812124
0.050653264 0.038226243 0.76738065
0.050116993 0.038248114 0.76659238
0.049730137 0.03813633 0.76591933
0.051529344 0.026580827 0.75916344
0.051069036 0.027536282 0.75925374
0.050670005 0.028437909 0.75939202
0.050304431 0.029338691 0.75957996
0.049972977 0.030236756 0.75981694
0.049677361 0.031129263 0.76010329
0.049420089 0.032012656 0.76043975
0.04920448 0.032882556 0.76082784
0.049034763 0.033733465 0.76126933
0.048916262 0.034558319 0.76176655
0.048855599 0.035347864 0.76232177
0.048860915 0.03608973 0.76293713
0.048941925 0.036767192 0.76361352
0.049109578 0.037357569 0.76434892
0.049374282 0.03783017 0.76513374
0.049672272 0.03810377 0.76580572
0.052480288 0.024849327 0.75917536
0.053039033 0.023949267 0.75927842
0.053584956 0.023130298 0.75942856
0.054147828 0.02234054 0.75962818
0.054726433 0.021581555 0.75987655
0.055319287 0.020856312 0.76017404
0.055924736 0.020168845 0.76052135
0.056540851 0.019524319 0.76091981
0.057165254 0.018929277 0.76137131
0.057794828 0.018392017 0.76187783
0.058425307 0.01792312 0.76244175
0.059050597 0.017536115 0.76306486
0.059661806 0.017248185 0.76374793
0.060245674 0.017080706 0.76448852
0.060781945 0.017058834 0.76527679
0.061168805 0.017170619 0.76594985
0.059369594 0.028726123 0.77270573
0.059829902 0.027770668 0.77261549
0.060228936 0.02686904 0.77247715
0.06059451 0.025968257 0.77228922
0.060925961 0.025070192 0.77205223
0.061221577 0.024177687 0.77176595
0.06147885 0.023294292 0.77142942
0.061694462 0.022424392 0.77104133
0.061864179 0.021573486 0.77059984
0.061982676 0.02074863 0.77010268
0.062043339 0.019959085 0.76954746
0.062038027 0.019217219 0.7689321
0.061957013 0.018539758 0.76825565
0.06178936 0.01794938 0.76752031
0.061524656 0.017476778 0.76673543
0.061226666 0.01720318 0.76606351
0.058369692 0.030391252 0.77243423
0.057829633 0.031261206 0.77233464
0.057301972 0.032052781 0.7721895
0.056757927 0.032816123 0.77199662
0.056198675 0.033549722 0.77175653
0.055625655 0.034250706 0.771469
0.055040456 0.034915175 0.7711333
0.05444495 0.035538144 0.77074814
0.053841431 0.036113285 0.77031177
0.053232916 0.036632571 0.76982212
0.052623529 0.037085783 0.76927716
0.052019149 0.037459843 0.76867485
0.051428389 0.037738144 0.76801461
0.050864048 0.037900019 0.76729882
0.050345715 0.03792116 0.76653689
0.049971797 0.037813116 0.76588637
0.051710822 0.026644131 0.75935644
0.051265914 0.027567627 0.7594437
0.050880227 0.028439095 0.75957739
0.05052688 0.029309748 0.75975901
0.050206516 0.030177774 0.75998807
0.049920786 0.031040426 0.76026481
0.049672119 0.03189427 0.76059008
0.049463723 0.032735076 0.76096517
0.049299683 0.033557519 0.76139188
0.049185146 0.034354784 0.76187247
0.049126513 0.03511792 0.76240909
0.04913165 0.035834972 0.76300389
0.049209952 0.036489774 0.76365769
0.049371995 0.037060402 0.76436847
0.049627844 0.037517197 0.76512706
0.049915869 0.037781645 0.76577652
0.052629959 0.024970546 0.75936794
0.053170014 0.024100594 0.75946754
0.053697679 0.023309018 0.75961268
0.054241724 0.022545677 0.75980562
0.054800972 0.021812078 0.76004571
0.055373996 0.021111093 0.76033318
0.055959195 0.020446623 0.76066887
0.056554701 0.019823655 0.76105404
0.057158217 0.019248515 0.76149046
0.057766736 0.018729227 0.76198006
0.058376122 0.018276015 0.76252508
0.058980498 0.017901955 0.76312739
0.059571262 0.017623655 0.76378757
0.060135603 0.017461779 0.76450342
0.060653936 0.017440638 0.76526529
0.061027855 0.017548684 0.76591587
0.059288826 0.028717669 0.77244574
0.059733737 0.027794173 0.77235854
0.060119424 0.026922705 0.77222484
0.060472768 0.026052052 0.77204317
0.060793135 0.025184026 0.77181411
0.061078861 0.024321374 0.77153736
0.061327528 0.023467528 0.77121216
0.061535928 0.022626724 0.77083707
0.061699968 0.021804279 0.7704103
0.061814506 0.021007014 0.76992977
0.061873138 0.020243879 0.76939309
0.061868001 0.019526828 0.76879835
0.061789699 0.018872028 0.76814455
0.061627652 0.018301396 0.76743376
0.061371803 0.017844602 0.76667517
0.061083782 0.017580157 0.76602566
0.058318667 0.030323755 0.77217603
0.057797298 0.031163603 0.77207989
0.057287898 0.031927783 0.77193975
0.05676268 0.032664709 0.77175355
0.056222785 0.03337292 0.77152175
0.055669591 0.034049645 0.77124417
0.055104647 0.034691118 0.7709201
0.054529749 0.035292525 0.77054828
0.053947117 0.035847764 0.770127
0.053359661 0.036349081 0.76965433
0.052771363 0.036786605 0.76912814
0.052187901 0.037147723 0.7685467
0.051617581 0.037416391 0.76790935
0.051072773 0.037572667 0.76721829
0.05057238 0.037593074 0.76648277
0.0502114 0.037488766 0.76585472
0.051890243 0.026706312 0.75955081
0.051460732 0.027597848 0.75963503
0.051088393 0.028439159 0.75976408
0.050747275 0.029279679 0.75993943
0.050437998 0.030117664 0.76016057
0.050162155 0.030950462 0.76042777
0.049922097 0.031774759 0.76074171
0.049720909 0.032586467 0.76110387
0.049562547 0.033380449 0.76151586
0.049451973 0.03415012 0.76197976
0.049395371 0.034886844 0.76249784
0.04940033 0.035579082 0.76307201
0.049475919 0.036211222 0.76370317
0.049632359 0.036762107 0.76438934
0.049879353 0.037203088 0.7651217
0.050157409 0.037458386 0.76574868
0.05277757 0.025090646 0.75956196
0.053298939 0.0242508 0.7596581
0.053808339 0.023486618 0.75979823
0.054333556 0.022749696 0.75998443
0.054873452 0.022041485 0.76021624
0.055426646 0.02136476 0.76049376
0.05599159 0.020723283 0.76081783
0.056566488 0.020121876 0.7611897
0.05714912 0.01956664 0.76161098
0.057736576 0.019065322 0.76208365
0.058324873 0.018627796 0.76260978
0.058908336 0.01826668 0.76319122
0.059478655 0.017998012 0.76382864
0.060023464 0.017841738 0.76451963
0.060523856 0.017821329 0.76525515
0.060884837 0.017925635 0.76588321
0.059205994 0.028708091 0.77218717
0.059635505 0.027816555 0.77210289
0.060007844 0.026975244 0.77197385
0.060348962 0.026134724 0.77179849
0.060658239 0.025296738 0.77157736
0.060934082 0.024463939 0.77131021
0.061174143 0.023639642 0.77099621
0.061375327 0.022827938 0.77063411
0.061533689 0.022033954 0.77022213
0.061644264 0.021264281 0.76975822
0.061700866 0.020527557 0.76924014
0.061695907 0.019835321 0.76866591
0.061620317 0.01920318 0.76803476
0.061463881 0.018652298 0.76734859
0.061216883 0.018211313 0.76661623
0.060938828 0.017956018 0.76598924
0.058265593 0.030255143 0.77191913
0.057762917 0.031064881 0.77182645
0.057271779 0.031801667 0.77169132
0.056765389 0.032512173 0.77151179
0.056244846 0.033194996 0.77128834
0.055711485 0.033847462 0.77102071
0.055166792 0.034465939 0.77070826
0.054612506 0.035045788 0.77034974
0.054050762 0.035581119 0.76994359
0.053484362 0.036064465 0.76948786
0.052917156 0.036486305 0.76898056
0.052354611 0.036834478 0.76841998
0.051804736 0.037093516 0.76780546
0.051279459 0.037244186 0.76713914
0.050797004 0.037263863 0.76643002
0.050448965 0.037163295 0.7658245
0.052067623 0.026767381 0.75974655
0.051653508 0.027626956 0.75982773
0.051294517 0.028438106 0.75995219
0.05096563 0.029248495 0.76012129
0.050667439 0.030056439 0.76033449
0.050401486 0.030859383 0.76059204
0.05017003 0.031654131 0.76089478
0.049976058 0.032436736 0.76124394
0.04982337 0.033202257 0.76164114
0.049716763 0.033944335 0.76208842
0.049662188 0.034654651 0.7625879
0.049666967 0.03532207 0.76314151
0.049739853 0.03593155 0.76375008
0.049890678 0.036462683 0.76441163
0.050128821 0.036887862 0.7651177
0.050396908 0.037134003 0.76572227
0.052923139 0.025209635 0.75975728
0.053425819 0.024399897 0.75984997
0.053916957 0.023663109 0.75998509
0.054423347 0.022952605 0.76016462
0.054943886 0.022269782 0.76038808
0.055477247 0.021617318 0.7606557
0.05602194 0.020998837 0.76096815
0.05657623 0.02041899 0.76132667
0.057137974 0.019883659 0.76173282
0.05770437 0.019400312 0.76218855
0.058271579 0.018978471 0.76269585
0.058834124 0.018630302 0.76325643
0.059383996 0.018371264 0.76387101
0.059909277 0.01822059 0.76453727
0.060391732 0.018200913 0.76524639
0.060739771 0.018301483 0.76585191
0.05912111 0.028697398 0.77192986
0.059535224 0.027837822 0.77184868
0.059894215 0.027026672 0.77172422
0.060223106 0.026216283 0.77155519
0.060521297 0.025408339 0.77134192
0.060787249 0.024605395 0.77108437
0.061018702 0.023810647 0.77078164
0.061212678 0.023028042 0.77043253
0.061365362 0.022262523 0.77003533
0.061471973 0.021520441 0.76958799
0.061526544 0.020810127 0.76908851
0.061521765 0.020142708 0.7685349
0.061448883 0.019533228 0.76792634
0.061298054 0.019002093 0.76726478
0.061059915 0.018576918 0.76655871
0.060791824 0.018330775 0.7659542
0.0582105 0.030185428 0.77166361
0.057726514 0.030965058 0.77157438
0.057253636 0.031674448 0.77144426
0.056766078 0.032358535 0.77127141
0.056264892 0.033015966 0.77105623
0.055751361 0.033644173 0.77079862
0.055226922 0.034239653 0.77049774
0.054693244 0.03479794 0.77015257
0.054152388 0.035313368 0.7697615
0.05360705 0.035778742 0.76932275
0.053060934 0.036184896 0.76883429
0.052519307 0.03652012 0.76829451
0.051989879 0.036769528 0.76770288
0.05148413 0.036914594 0.76706135
0.051019616 0.036933541 0.76637858
0.050684519 0.036836714 0.76579559
0.052242991 0.026827352 0.7599436
0.051844273 0.027654966 0.76002181
0.051498633 0.028435955 0.76014161
0.051181972 0.029216211 0.76030439
0.050894868 0.029994113 0.76050967
0.050638806 0.030767201 0.76075768
0.050415955 0.031532396 0.76104915
0.050229196 0.032285903 0.76138532
0.050082188 0.033022959 0.76176775
0.049979541 0.033737443 0.76219839
0.049926996 0.034421347 0.76267934
0.049931601 0.035063952 0.76321238
0.050001774 0.035650767 0.7637983
