# .PCD v0.7 - Point Cloud Data file format
VERSION 0.7
FIELDS x y z
SIZE 4 4 4
TYPE F F F
COUNT 1 1 1
WIDTH 1281
HEIGHT 1
VIEWPOINT 0 0 0 1 0 0 0
POINTS 1281
DATA ascii
-0.015947398 -0.017191842 0.78968441
-0.015154613 -0.018308146 0.79071516
-0.014135443 -0.019333877 0.79166234
-0.012905593 -0.020241003 0.79249996
-0.011494217 -0.021008389 0.7932086
-0.0099382717 -0.021624599 0.79377759
-0.0082753999 -0.022088295 0.79420578
-0.0065372945 -0.02240661 0.79449975
-0.0047420957 -0.022593061 0.79467195
-0.0028590972 -0.022666808 0.79474002
-0.0033158492 -0.022658387 0.79473227
-0.016876917 -0.01123366 0.78418267
-0.016720029 -0.010205918 0.78323364
-0.016368844 -0.0090147881 0.78213382
-0.015808173 -0.0078508053 0.78105897
-0.015023346 -0.0067457403 0.7800386
-0.014014415 -0.0057303365 0.77910101
-0.012796929 -0.0048323409 0.77827179
-0.011399746 -0.0040726811 0.77757037
-0.009859452 -0.0034626748 0.7770071
-0.0082133114 -0.0030036476 0.77658325
-0.0064926976 -0.0026885371 0.77629232
-0.0047155679 -0.0025039625 0.77612191
-0.0028515246 -0.0024309577 0.7760545
-0.0033036785 -0.0024392938 0.77606219
0.012622449 -0.01123366 0.78418297
0.012465581 -0.010205918 0.783234
0.012114421 -0.0090147881 0.78213412
0.011553773 -0.0078508053 0.78105927
0.01076897 -0.0067457403 0.78003889
0.0097600585 -0.0057303365 0.77910125
0.0085425917 -0.0048323409 0.77827203
0.0071454234 -0.0040726811 0.77757055
0.0056051421 -0.0034626748 0.77700728
0.0039590108 -0.0030036476 0.77658337
0.0022384038 -0.0026885371 0.77629238
0.00046127784 -0.0025039625 0.77612197
-0.0014027641 -0.0024309577 0.7760545
-0.0009506105 -0.0024392938 0.77606225
0.012622423 -0.01376173 0.78651738
0.012465535 -0.014789472 0.78746641
0.012114351 -0.015980603 0.78856623
0.011553678 -0.017144585 0.78964108
0.010768852 -0.01824965 0.79066145
0.0097599206 -0.019265054 0.79159904
0.0085424352 -0.02016305 0.79242826
0.0071452521 -0.020922709 0.79312968
0.0056049582 -0.021532716 0.79369295
0.0039588176 -0.021991743 0.7941168
0.0022382042 -0.022306854 0.79440773
0.00046107447 -0.022491427 0.79457814
-0.0014029689 -0.022564434 0.79464555
-0.00095081516 -0.022556096 0.79463786
-0.016876942 -0.01376173 0.78651702
-0.016720075 -0.014789472 0.78746605
-0.016368914 -0.015980603 0.78856593
-0.015808266 -0.017144585 0.78964072
-0.015023463 -0.01824965 0.79066116
-0.014014552 -0.019265054 0.7915988
-0.012797086 -0.02016305 0.79242802
-0.011399917 -0.020922709 0.7931295
-0.0098596355 -0.021532716 0.79369277
-0.0082135042 -0.021991743 0.79411662
-0.0064928974 -0.022306854 0.79440761
-0.0047157714 -0.022491427 0.79457808
-0.0028517295 -0.022564434 0.79464549
-0.0033038831 -0.022556096 0.7946378
-0.016726846 -0.011246521 0.78419453
-0.016571555 -0.010229236 0.78325522
-0.016223943 -0.0090502249 0.78216654
-0.015668975 -0.0078980848 0.78110266
-0.014892135 -0.0068042637 0.78009266
-0.013893468 -0.0057991906 0.77916455
-0.01268837 -0.0049103317 0.7783438
-0.011305403 -0.0041584014 0.77764952
-0.0097807804 -0.0035546017 0.77709198
-0.0081513887 -0.0031002448 0.77667248
-0.0064482819 -0.0027883407 0.77638447
-0.0046892334 -0.0026056436 0.77621579
-0.0028441555 -0.0025333811 0.77614909
-0.0032917089 -0.0025416331 0.77615672
0.012472377 -0.011246521 0.78419489
0.012317107 -0.010229236 0.78325552
0.01196952 -0.0090502249 0.78216684
0.011414575 -0.0078980848 0.78110296
0.010637756 -0.0068042637 0.7800929
0.0096391104 -0.0057991906 0.77916485
0.0084340312 -0.0049103317 0.77834404
0.0070510786 -0.0041584014 0.7776497
0.0055264686 -0.0035546017 0.77709216
0.003897086 -0.0031002448 0.7766726
0.0021939857 -0.0027883407 0.77638459
0.00043494088 -0.0026056436 0.77621585
-0.0014101353 -0.0025333811 0.77614909
-0.00096258218 -0.0025416331 0.77615672
0.012472351 -0.013748869 0.78650552
0.01231706 -0.014766155 0.78744483
0.011969449 -0.015945164 0.78853351
0.011414482 -0.017097306 0.78959739
0.010637641 -0.018191127 0.79060739
0.0096389744 -0.019196199 0.7915355
0.0084338766 -0.020085059 0.79235619
0.0070509091 -0.020836988 0.79305053
0.0055262865 -0.021440789 0.79360807
0.0038968949 -0.021895146 0.79402757
0.0021937881 -0.02220705 0.79431558
0.00043473954 -0.022389747 0.79448426
-0.0014103381 -0.022462009 0.79455096
-0.0009627848 -0.022453757 0.79454333
-0.01672687 -0.013748869 0.78650516
-0.0165716 -0.014766155 0.78744453
-0.016224014 -0.015945164 0.78853321
-0.01566907 -0.017097306 0.78959709
-0.01489225 -0.018191127 0.79060715
-0.013893604 -0.019196199 0.7915352
-0.012688525 -0.020085059 0.79235595
-0.011305572 -0.020836988 0.79305035
-0.009780962 -0.021440789 0.79360789
-0.0081515796 -0.021895146 0.79402745
-0.0064484794 -0.02220705 0.79431546
-0.0046894345 -0.022389747 0.7944842
-0.0028443583 -0.022462009 0.79455096
-0.0032919114 -0.022453757 0.79454333
-0.016576702 -0.011259388 0.78420645
-0.016423007 -0.010252565 0.78327674
-0.016078969 -0.0090856794 0.78219926
-0.015529711 -0.0079453876 0.78114635
-0.014760858 -0.0068628155 0.78014672
-0.013772462 -0.0058680796 0.77922821
-0.012579759 -0.0049883612 0.77841586
-0.011211013 -0.0042441641 0.77772874
-0.0097020706 -0.0036465735 0.77717692
-0.0080894353 -0.0031968893 0.77676171
-0.0064038434 -0.0028881929 0.77647668
-0.0046628853 -0.0027073747 0.77630973
-0.0028367827 -0.0026358559 0.77624369
-0.0032797332 -0.0026440222 0.77625126
0.012322233 -0.011259388 0.78420675
0.012168559 -0.010252565 0.78327703
0.011824545 -0.0090856794 0.78219956
0.01127531 -0.0079453876 0.78114665
0.01050648 -0.0068628155 0.78014696
0.0095181046 -0.0058680796 0.77922845
0.0083254175 -0.0049883612 0.7784161
0.0069566877 -0.0042441641 0.77772892
0.005447757 -0.0036465735 0.7771771
0.0038351312 -0.0031968893 0.77676183
0.0021495451 -0.0028881929 0.77647674
0.00040859109 -0.0027073747 0.77630979
-0.0014175101 -0.0026358559 0.77624375
-0.00097455975 -0.0026440222 0.77625126
0.012322208 -0.013736002 0.7864936
0.012168514 -0.014742826 0.78742331
0.011824477 -0.015909711 0.78850079
0.011275217 -0.017050002 0.7895537
0.010506365 -0.018132575 0.79055333
0.0095179696 -0.019127311 0.79147184
0.0083252648 -0.020007029 0.79228419
0.0069565196 -0.020751227 0.79297131
0.0054475768 -0.021348817 0.79352313
0.0038349419 -0.021798501 0.79393834
0.0021493498 -0.022107197 0.79422337
0.00040839185 -0.022288015 0.79439032
-0.0014177109 -0.022359535 0.7944563
-0.00097476033 -0.022351367 0.79444879
-0.016576726 -0.013736002 0.7864933
-0.016423052 -0.014742826 0.78742301
-0.01607904 -0.015909711 0.78850049
-0.015529804 -0.017050002 0.7895534
-0.014760973 -0.018132575 0.79055303
-0.013772598 -0.019127311 0.7914716
-0.012579911 -0.020007029 0.79228395
-0.011211181 -0.020751227 0.79297113
-0.0097022504 -0.021348817 0.79352295
-0.0080896243 -0.021798501 0.79393822
-0.006404039 -0.022107197 0.79422325
-0.0046630846 -0.022288015 0.79439026
-0.0028369834 -0.022359535 0.7944563
-0.0032799339 -0.022351367 0.79444879
-0.016426481 -0.011272262 0.78421831
-0.016274385 -0.010275906 0.78329831
-0.015933925 -0.0091211507 0.78223199
-0.015390377 -0.0079927146 0.78119004
-0.014629518 -0.0069213966 0.78020078
-0.013651397 -0.0059370021 0.77929181
-0.012471093 -0.0050664302 0.77848798
-0.011116577 -0.0043299687 0.77780795
-0.0096233208 -0.0037385912 0.77726191
-0.0080274511 -0.0032935825 0.776851
-0.006359383 -0.0029880949 0.77656895
-0.0046365247 -0.0028091571 0.77640373
-0.0028294062 -0.0027383815 0.7763384
-0.0032677518 -0.0027464628 0.77634585
0.012172014 -0.011272262 0.78421861
0.012019937 -0.010275906 0.78329861
0.011679501 -0.0091211507 0.78223228
0.011135974 -0.0079927146 0.78119034
0.010375137 -0.0069213966 0.78020108
0.0093970373 -0.0059370021 0.77929211
0.0082167499 -0.0050664302 0.77848822
0.0068622497 -0.0043299687 0.77780813
0.0053690057 -0.0037385912 0.77726203
0.0037731451 -0.0032935825 0.77685112
0.0021050829 -0.0029880949 0.77656901
0.00038222803 -0.0028091571 0.77640378
-0.0014248887 -0.0027383815 0.7763384
-0.00098654337 -0.0027464628 0.77634585
0.012171988 -0.013723128 0.78648174
0.012019892 -0.014719484 0.78740174
0.011679432 -0.015874239 0.788468
0.011135883 -0.017002676 0.78951001
0.010375024 -0.018073993 0.79049927
0.0093969032 -0.019058388 0.79140824
0.008216599 -0.01992896 0.79221207
0.0068620834 -0.020665422 0.7928921
0.0053688274 -0.021256799 0.79343814
0.0037729577 -0.021701807 0.79384905
0.0021048894 -0.022007296 0.7941311
0.00038203085 -0.022186233 0.79429632
-0.0014250873 -0.02225701 0.79436165
-0.00098674174 -0.022248928 0.7943542
-0.016426507 -0.013723128 0.78648144
-0.016274432 -0.014719484 0.78740144
-0.015933994 -0.015874239 0.78846771
-0.015390468 -0.017002676 0.78950971
-0.014629631 -0.018073993 0.79049897
-0.013651531 -0.019058388 0.79140794
-0.012471244 -0.01992896 0.79221183
-0.011116743 -0.020665422 0.79289192
-0.0096234996 -0.021256799 0.79343802
-0.0080276383 -0.021701807 0.79384893
-0.0063595767 -0.022007296 0.79413104
-0.0046367217 -0.022186233 0.79429626
-0.002829605 -0.02225701 0.79436165
-0.0032679504 -0.022248928 0.7943542
-0.016276186 -0.011285142 0.78423023
-0.016125688 -0.010299258 0.78331983
-0.015788807 -0.0091566416 0.78226477
-0.015250971 -0.0080400649 0.78123373
-0.01449811 -0.006980008 0.7802549
-0.013530269 -0.0060059601 0.77935553
-0.012362371 -0.0051445379 0.7785601
-0.011022093 -0.004415818 0.77788723
-0.0095445318 -0.0038306559 0.77734691
-0.0079654362 -0.0033903248 0.77694035
-0.0063149002 -0.0030880477 0.77666122
-0.0046101501 -0.002910991 0.77649772
-0.0028220261 -0.002840959 0.77643311
-0.0032557643 -0.0028489556 0.7764405
0.012021718 -0.011285142 0.78423053
0.01187124 -0.010299258 0.78332019
0.011534382 -0.0091566416 0.78226507
0.010996568 -0.0080400649 0.78123403
0.010243728 -0.006980008 0.7802552
0.0092759077 -0.0060059601 0.77935576
0.0081080263 -0.0051445379 0.77856034
0.0067677633 -0.004415818 0.7778874
0.0052902144 -0.0038306559 0.77734709
0.0037111279 -0.0033903248 0.77694046
0.0020605982 -0.0030880477 0.77666134
0.00035585149 -0.002910991 0.77649778
-0.001432271 -0.002840959 0.77643311
-0.00099853298 -0.0028489556 0.7764405
0.012021693 -0.013710248 0.78646982
0.011871195 -0.014696132 0.78738016
0.011534314 -0.01583875 0.78843528
0.010996477 -0.016955325 0.78946626
0.010243616 -0.018015383 0.79044515
0.0092757754 -0.018989431 0.79134452
0.0081078773 -0.019850852 0.79213995
0.0067675989 -0.020579573 0.79281282
0.005290038 -0.021164734 0.79335314
0.0037109423 -0.021605065 0.7937597
0.0020604066 -0.021907343 0.79403883
0.00035565638 -0.0220844 0.79420227
-0.0014324676 -0.022154432 0.79426694
-0.00099872926 -0.022146435 0.79425955
-0.016276212 -0.013710248 0.78646952
-0.016125733 -0.014696132 0.78737986
-0.015788876 -0.01583875 0.78843498
-0.015251062 -0.016955325 0.78946602
-0.014498222 -0.018015383 0.79044485
-0.013530402 -0.018989431 0.79134429
-0.01236252 -0.019850852 0.79213971
-0.011022257 -0.020579573 0.79281265
-0.0095447078 -0.021164734 0.79335296
-0.0079656215 -0.021605065 0.79375958
-0.0063150916 -0.021907343 0.79403871
-0.0046103452 -0.0220844 0.79420227
-0.0028222227 -0.022154432 0.79426694
-0.0032559608 -0.022146435 0.79425955
-0.016125813 -0.011298029 0.78424209
-0.015976915 -0.010322623 0.78334141
-0.015643613 -0.0091921501 0.78229755
-0.015111493 -0.0080874404 0.78127748
-0.014366632 -0.0070386492 0.78030908
-0.013409079 -0.0060749529 0.77941918
-0.012253592 -0.005222687 0.77863222
-0.010927559 -0.0045017116 0.7779665
-0.0094657009 -0.0039227689 0.77743196
-0.0079033878 -0.0034871171 0.77702969
-0.0062703942 -0.0031880531 0.77675354
-0.004583762 -0.0030128772 0.77659184
-0.0028146419 -0.0029435898 0.77652788
-0.0032437705 -0.0029515016 0.77653515
0.011871343 -0.011298029 0.78424239
0.011722465 -0.010322623 0.78334177
0.011389187 -0.0091921501 0.78229785
0.010857088 -0.0080874404 0.78127778
0.01011225 -0.0070386492 0.78030932
0.0091547156 -0.0060749529 0.77941948
0.0079992469 -0.005222687 0.77863246
0.0066732275 -0.0045017116 0.77796674
0.0052113822 -0.0039227689 0.77743214
0.0036490778 -0.0034871171 0.77702981
0.0020160901 -0.0031880531 0.77675366
0.00032946141 -0.0030128772 0.7765919
-0.0014396572 -0.0029435898 0.77652788
-0.0010105289 -0.0029515016 0.77653521
0.011871319 -0.013697362 0.78645796
0.01172242 -0.014672767 0.78735858
0.01138912 -0.01580324 0.7884025
0.010856999 -0.016907949 0.78942251
0.010112138 -0.017956741 0.79039097
0.0091545852 -0.018920437 0.79128081
0.0079990989 -0.019772703 0.79206777
0.006673065 -0.020493679 0.79273349
0.0052112076 -0.021072622 0.79326808
0.0036488946 -0.021508273 0.79367036
0.0020159008 -0.021807337 0.7939465
0.0003292684 -0.021982513 0.79410821
-0.0014398516 -0.0220518 0.79417217
-0.0010107231 -0.022043889 0.7941649
-0.016125837 -0.013697362 0.7864576
-0.015976958 -0.014672767 0.78735828
-0.01564368 -0.01580324 0.7884022
-0.015111582 -0.016907949 0.78942227
-0.014366744 -0.017956741 0.79039073
-0.013409209 -0.018920437 0.79128057
-0.01225374 -0.019772703 0.79206759
-0.010927721 -0.020493679 0.79273331
-0.009465876 -0.021072622 0.79326791
-0.0079035712 -0.021508273 0.79367024
-0.0062705837 -0.021807337 0.79394639
-0.0045839553 -0.021982513 0.79410815
-0.0028148366 -0.0220518 0.79417217
-0.0032439649 -0.022043889 0.79416484
-0.015975358 -0.011310923 0.78425401
-0.01582806 -0.010346 0.78336304
-0.015498341 -0.0092276772 0.78233039
-0.01497194 -0.0081348419 0.78132129
-0.014235086 -0.0070973225 0.78036326
-0.013287823 -0.0061439839 0.77948296
-0.012144756 -0.0053008776 0.77870446
-0.010832974 -0.0045876517 0.77804589
-0.0093868291 -0.0040149312 0.77751708
-0.0078413067 -0.0035839614 0.7771191
-0.0062258644 -0.0032881121 0.77684593
-0.0045573595 -0.0031148191 0.77668595
-0.002807254 -0.003046276 0.77662271
-0.0032317704 -0.0030541029 0.77662992
0.011720888 -0.011310923 0.78425431
0.011573611 -0.010346 0.78336334
0.011243914 -0.0092276772 0.78233069
0.010717535 -0.0081348419 0.78132153
0.0099807018 -0.0070973225 0.7803635
0.0090334592 -0.0061439839 0.7794832
0.0078904089 -0.0053008776 0.7787047
0.0065786415 -0.0045876517 0.77804607
0.005132508 -0.0040149312 0.7775172
0.0035869945 -0.0035839614 0.77711922
0.001971558 -0.0032881121 0.77684605
0.00030305694 -0.0031148191 0.77668601
-0.0014470473 -0.003046276 0.77662271
-0.0010225312 -0.0030541029 0.77662992
0.011720864 -0.013684467 0.78644603
0.011573567 -0.01464939 0.78733701
0.011243847 -0.015767714 0.78836966
0.010717446 -0.016860548 0.78937876
0.0099805919 -0.017898068 0.79033679
0.0090333298 -0.018851407 0.79121709
0.0078902617 -0.019694513 0.79199558
0.0065784804 -0.020407738 0.79265416
0.0051323352 -0.020980459 0.79318297
0.0035868131 -0.021411428 0.79358089
0.0019713705 -0.021707278 0.79385406
0.00030286596 -0.021880571 0.7940141
-0.0014472397 -0.021949114 0.79407734
-0.0010227233 -0.021941287 0.79407012
-0.015975382 -0.013684467 0.78644574
-0.015828105 -0.01464939 0.78733671
-0.015498408 -0.015767714 0.78836936
-0.014972029 -0.016860548 0.78937846
-0.014235196 -0.017898068 0.79033655
-0.013287952 -0.018851407 0.79121685
-0.012144903 -0.019694513 0.79199535
-0.010833135 -0.020407738 0.79265398
-0.0093870014 -0.020980459 0.79318285
-0.0078414883 -0.021411428 0.79358077
-0.0062260516 -0.021707278 0.793854
-0.0045575504 -0.021880571 0.79401404
-0.0028074463 -0.021949114 0.79407734
-0.0032319624 -0.021941287 0.79407012
-0.015824821 -0.011323824 0.78426594
-0.015679123 -0.01036939 0.78338462
-0.01535299 -0.009263224 0.78236318
-0.01483231 -0.0081822686 0.78136504
-0.014103467 -0.0071560279 0.78041744
-0.013166501 -0.0062130527 0.77954674
-0.01203586 -0.0053791115 0.77877671
-0.010738337 -0.0046736384 0.77812529
-0.0093079126 -0.0041071437 0.7776022
-0.0077791917 -0.003680859 0.77720863
-0.0061813099 -0.0033882256 0.77693838
-0.004530943 -0.0032168163 0.77678013
-0.0027998618 -0.0031490191 0.77671754
-0.0032197635 -0.0031567605 0.7767247
0.011570351 -0.011323824 0.78426623
0.011424673 -0.01036939 0.78338492
0.011098561 -0.009263224 0.78236347
0.010577904 -0.0081822686 0.78136533
0.0098490808 -0.0071560279 0.78041774
0.0089121358 -0.0062130527 0.77954698
0.0077815112 -0.0053791115 0.77877694
0.0064840033 -0.0046736384 0.77812546
0.0050535901 -0.0041071437 0.77760237
0.0035248776 -0.003680859 0.77720875
0.0019270015 -0.0033882256 0.7769385
0.00027663822 -0.0032168163 0.77678019
-0.0014544415 -0.0031490191 0.77671754
-0.0010345401 -0.0031567605 0.7767247
0.011570327 -0.013671567 0.78643411
0.01142463 -0.014626 0.78731543
0.011098496 -0.015732165 0.78833681
0.010577817 -0.016813122 0.78933495
0.0098489728 -0.017839363 0.79028261
0.0089120073 -0.018782338 0.79115331
0.0077813664 -0.01961628 0.79192334
0.006483844 -0.020321751 0.79257476
0.0050534192 -0.020888247 0.79309785
0.0035246981 -0.021314532 0.79349142
0.0019268162 -0.021607164 0.79376161
0.00027644934 -0.021778574 0.79391992
-0.0014546318 -0.021846371 0.79398251
-0.0010347301 -0.02183863 0.79397535
-0.015824845 -0.013671567 0.78643382
-0.015679168 -0.014626 0.78731513
-0.015353055 -0.015732165 0.78833658
-0.014832398 -0.016813122 0.78933471
-0.014103575 -0.017839363 0.79028231
-0.01316663 -0.018782338 0.79115307
-0.012036005 -0.01961628 0.79192311
-0.010738497 -0.020321751 0.79257458
-0.0093080839 -0.020888247 0.79309767
-0.007779371 -0.021314532 0.7934913
-0.0061814953 -0.021607164 0.79376155
-0.0045311321 -0.021778574 0.79391986
-0.0028000521 -0.021846371 0.79398245
-0.0032199535 -0.02183863 0.79397529
-0.0156742 -0.011336732 0.78427786
-0.015530104 -0.010392794 0.78340626
-0.015207556 -0.0092987912 0.78239602
-0.014692602 -0.0082297223 0.78140891
-0.013971772 -0.007214766 0.78047168
-0.013045111 -0.0062821601 0.77961057
-0.011926902 -0.0054573892 0.77884901
-0.010643647 -0.0047596735 0.77820474
-0.0092289522 -0.0041994085 0.77768743
-0.0077170413 -0.0037778113 0.77729809
-0.0061367303 -0.0034883958 0.77703089
-0.0045045111 -0.0033188709 0.77687436
-0.0027924657 -0.0032518189 0.77681249
-0.0032077499 -0.0032594756 0.77681953
0.011419729 -0.011336732 0.78427815
0.011275653 -0.010392794 0.78340656
0.010953127 -0.0092987912 0.78239632
0.010438195 -0.0082297223 0.78140914
0.0097173862 -0.007214766 0.78047198
0.0087907435 -0.0062821601 0.77961081
0.007672552 -0.0054573892 0.77884918
0.006389311 -0.0047596735 0.77820492
0.0049746279 -0.0041994085 0.77768755
0.0034627253 -0.0037778113 0.77729827
0.0018824199 -0.0034883958 0.777031
0.00025020438 -0.0033188709 0.77687442
-0.0014618398 -0.0032518189 0.77681249
-0.0010465558 -0.0032594756 0.77681959
0.011419705 -0.013658659 0.78642219
0.01127561 -0.014602596 0.78729379
0.010953062 -0.0156966 0.78830397
0.010438108 -0.016765669 0.78929114
0.0097172782 -0.017780624 0.79022837
0.0087906169 -0.01871323 0.79108948
0.0076724086 -0.019538002 0.79185104
0.0063891537 -0.020235717 0.79249531
0.0049744588 -0.020795982 0.79301262
0.0034625477 -0.021217579 0.7934019
0.0018822366 -0.021506995 0.79366916
0.00025001759 -0.02167652 0.79382569
-0.001462028 -0.021743571 0.79388756
-0.0010467438 -0.021735914 0.79388052
-0.015674222 -0.013658659 0.7864219
-0.015530147 -0.014602596 0.78729349
-0.015207621 -0.0156966 0.78830373
-0.014692689 -0.016765669 0.7892909
-0.01397188 -0.017780624 0.79022807
-0.013045237 -0.01871323 0.79108924
-0.011927046 -0.019538002 0.79185086
-0.010643804 -0.020235717 0.79249513
-0.0092291217 -0.020795982 0.7930125
-0.0077172187 -0.021217579 0.79340178
-0.0061369138 -0.021506995 0.79366904
-0.0045046979 -0.02167652 0.79382563
-0.0027926539 -0.021743571 0.79388756
-0.0032079378 -0.021735914 0.79388046
-0.01552349 -0.011349647 0.78428978
-0.015380999 -0.010416211 0.78342783
-0.015062039 -0.0093343789 0.78242892
-0.014552815 -0.008277202 0.78145272
-0.013840004 -0.007273538 0.78052598
-0.012923651 -0.006351307 0.77967441
-0.011817883 -0.0055357111 0.77892131
-0.010548904 -0.004845758 0.77828419
-0.0091499463 -0.0042917258 0.77777267
-0.0076548555 -0.0038748186 0.77738768
-0.0060921251 -0.0035886229 0.77712345
-0.0044780644 -0.0034209846 0.77696866
-0.0027850652 -0.0033546784 0.77690744
-0.0031957293 -0.0033622494 0.77691442
0.011269021 -0.011349647 0.78429008
0.011126548 -0.010416211 0.78342813
0.01080761 -0.0093343789 0.78242922
0.010298407 -0.008277202 0.78145301
0.0095856162 -0.007273538 0.78052622
0.0086692823 -0.006351307 0.77967465
0.0075635305 -0.0055357111 0.77892148
0.0062945657 -0.004845758 0.77828443
0.00489562 -0.0042917258 0.77777278
0.0034005374 -0.0038748186 0.7773878
0.0018378128 -0.0035886229 0.77712351
0.00022375565 -0.0034209846 0.77696872
-0.0014692424 -0.0033546784 0.7769075
-0.0010585783 -0.0033622494 0.77691448
0.011268998 -0.013645743 0.78641027
0.011126505 -0.01457918 0.78727216
0.010807546 -0.015661012 0.78827113
0.010298321 -0.016718188 0.78924733
0.00958551 -0.017721852 0.79017407
0.0086691575 -0.018644083 0.79102564
0.0075633889 -0.01945968 0.79177874
0.0062944102 -0.020149631 0.7924158
0.0048954529 -0.020703664 0.79292738
0.0034003621 -0.021120572 0.79331237
0.0018376315 -0.021406768 0.7935766
0.00022357093 -0.021574406 0.79373139
-0.0014694284 -0.021640712 0.79379261
-0.0010587643 -0.021633141 0.79378557
-0.015523514 -0.013645743 0.78640997
-0.015381042 -0.01457918 0.78727192
-0.015062103 -0.015661012 0.78827083
-0.014552901 -0.016718188 0.78924704
-0.01384011 -0.017721852 0.79017383
-0.012923776 -0.018644083 0.7910254
-0.011818024 -0.01945968 0.7917785
-0.010549059 -0.020149631 0.79241562
-0.0091501139 -0.020703664 0.79292727
-0.007655031 -0.021120572 0.79331219
-0.0060923062 -0.021406768 0.79357648
-0.0044782492 -0.021574406 0.79373133
-0.0027852512 -0.021640712 0.79379255
-0.0031959154 -0.021633141 0.79378557
-0.015372694 -0.01136257 0.7843017
-0.015231807 -0.010439641 0.78344947
-0.014916438 -0.0093699871 0.78246176
-0.014412945 -0.0083247107 0.78149658
-0.013708157 -0.0073323441 0.78058028
-0.01280212 -0.006420495 0.77973831
-0.011708799 -0.00561408 0.77899367
-0.010454104 -0.0049318927 0.77836376
-0.0090708947 -0.0043840967 0.77785796
-0.0075926334 -0.0039718831 0.77747732
-0.0060474942 -0.0036889082 0.77721608
-0.0044516022 -0.003523157 0.77706301
-0.0027776605 -0.0034575972 0.77700251
-0.003183702 -0.0034650834 0.77700943
0.011118225 -0.01136257 0.784302
0.010977356 -0.010439641 0.78344977
0.010662007 -0.0093699871 0.78246206
0.010158537 -0.0083247107 0.78149688
0.0094537698 -0.0073323441 0.78058052
0.0085477512 -0.006420495 0.77973855
0.0074544451 -0.00561408 0.7789939
0.006199765 -0.0049318927 0.77836394
0.0048165666 -0.0043840967 0.77785808
0.0033383134 -0.0039718831 0.77747744
0.00179318 -0.0036889082 0.77721614
0.00019729132 -0.003523157 0.77706307
-0.0014766492 -0.0034575972 0.77700251
-0.0010706078 -0.0034650834 0.77700943
0.011118202 -0.01363282 0.78639835
0.010977314 -0.014555749 0.78725052
0.010661944 -0.015625404 0.78823823
0.010158452 -0.01667068 0.78920346
0.0094536645 -0.017663047 0.79011977
0.0085476274 -0.018574895 0.79096174
0.007454305 -0.019381311 0.79170638
0.0061996109 -0.020063497 0.79233629
0.0048164013 -0.020611294 0.79284209
0.00333814 -0.021023508 0.79322273
0.0017930007 -0.021306481 0.79348397
0.00019710866 -0.021472234 0.79363704
-0.0014768332 -0.021537794 0.79369754
-0.0010707917 -0.021530308 0.79369062
-0.015372718 -0.01363282 0.78639805
-0.015231849 -0.014555749 0.78725028
-0.014916501 -0.015625404 0.78823799
-0.01441303 -0.01667068 0.78920317
-0.013708263 -0.017663047 0.79011953
-0.012802244 -0.018574895 0.7909615
-0.011708939 -0.019381311 0.79170614
-0.010454259 -0.020063497 0.79233611
-0.0090710605 -0.020611294 0.79284197
-0.0075928071 -0.021023508 0.79322261
-0.0060476735 -0.021306481 0.79348391
-0.0044517848 -0.021472234 0.79363698
-0.0027778444 -0.021537794 0.79369754
-0.0031838857 -0.021530308 0.79369062
-0.015221808 -0.011375502 0.78431368
-0.015082525 -0.010463086 0.78347117
-0.014770748 -0.0094056167 0.78249466
-0.014272991 -0.0083722482 0.78154051
-0.013576233 -0.007391186 0.78063458
-0.012680517 -0.0064897235 0.7798022
-0.01159965 -0.005692495 0.77906609
-0.010359248 -0.0050180792 0.77844334
-0.0089917956 -0.004476524 0.77794331
-0.007530374 -0.0040690061 0.77756703
-0.0060028364 -0.0037892552 0.7773087
-0.0044251243 -0.0036253915 0.77715743
-0.0027702511 -0.0035605791 0.77709758
-0.0031716672 -0.0035679797 0.77710444
0.010967337 -0.011375502 0.78431392
0.010828072 -0.010463086 0.78347141
0.010516318 -0.0094056167 0.78249496
0.010018581 -0.0083722482 0.78154075
0.0093218433 -0.007391186 0.78063488
0.0084261457 -0.0064897235 0.77980244
0.0073452941 -0.005692495 0.77906626
0.006104907 -0.0050180792 0.77844352
0.0047374656 -0.004476524 0.77794343
0.0032760517 -0.0040690061 0.77756715
0.0017485199 -0.0037892552 0.77730882
0.00017081114 -0.0036253915 0.77715749
-0.0014840607 -0.0035605791 0.77709758
-0.0010826447 -0.0035679797 0.77710444
0.010967314 -0.013619889 0.78638637
0.010828031 -0.014532304 0.78722888
0.010516254 -0.015589774 0.78820533
0.010018497 -0.016623143 0.78915954
0.009321739 -0.017604204 0.79006541
0.0084260227 -0.018505666 0.79089785
0.0073451558 -0.019302895 0.79163396
0.0061047547 -0.019977311 0.79225671
0.0047373022 -0.020518865 0.79275674
0.0032758801 -0.020926384 0.79313302
0.0017483428 -0.021206135 0.79339135
0.00017063058 -0.021369999 0.79354262
-0.0014842425 -0.021434812 0.79360247
-0.0010828265 -0.021427412 0.79359561
-0.01522183 -0.013619889 0.78638607
-0.015082566 -0.014532304 0.78722858
-0.014770811 -0.015589774 0.78820509
-0.014273074 -0.016623143 0.7891593
-0.013576337 -0.017604204 0.79006517
-0.01268064 -0.018505666 0.79089761
-0.011599788 -0.019302895 0.79163378
-0.010359401 -0.019977311 0.79225653
-0.0089919595 -0.020518865 0.79275662
-0.0075305454 -0.020926384 0.7931329
-0.0060030138 -0.021206135 0.79339123
-0.0044253049 -0.021369999 0.79354256
-0.002770433 -0.021434812 0.79360247
-0.0031718488 -0.021427412 0.79359561
-0.015070828 -0.011388441 0.7843256
-0.014933151 -0.010486545 0.7834928
-0.014624968 -0.0094412677 0.78252763
-0.01413295 -0.0084198145 0.78158444
-0.013444226 -0.0074500637 0.780689
-0.012558837 -0.0065589952 0.77986616
-0.011490433 -0.0057709585 0.77913851
-0.010264333 -0.0051043192 0.77852297
-0.0089126481 -0.0045690075 0.77802867
-0.0074680764 -0.0041661882 0.77765673
-0.0059581511 -0.0038896629 0.77740145
-0.00439863 -0.0037276892 0.7772519
-0.0027628373 -0.0036636239 0.77719271
-0.003159625 -0.003670939 0.77719951
0.010816356 -0.011388441 0.7843259
0.010678698 -0.010486545 0.7834931
0.010370538 -0.0094412677 0.78252786
0.0098785404 -0.0084198145 0.78158468
0.0091898348 -0.0074500637 0.78068924
0.0083044646 -0.0065589952 0.7798664
0.0072360761 -0.0057709585 0.77913874
0.0060099903 -0.0051043192 0.77852315
0.0046583158 -0.0045690075 0.77802885
0.0032137523 -0.0041661882 0.77765685
0.0017038324 -0.0038896629 0.77740151
0.00014431468 -0.0037276892 0.7772519
-0.0014914765 -0.0036636239 0.77719277
-0.0010946889 -0.003670939 0.77719951
0.010816334 -0.01360695 0.78637445
0.010678657 -0.014508845 0.78720725
0.010370475 -0.015554123 0.78817242
0.0098784575 -0.016575577 0.78911561
0.0091897324 -0.017545326 0.79001105
0.0083043436 -0.018436395 0.79083383
0.0072359391 -0.019224431 0.79156148
0.0060098399 -0.01989107 0.79217708
0.0046581542 -0.020426383 0.79267132
0.0032135826 -0.020829203 0.79304332
0.0017036573 -0.021105727 0.7932986
0.00014413618 -0.021267701 0.79344815
-0.0014916563 -0.021331767 0.79350728
-0.0010948686 -0.021324452 0.79350054
-0.01507085 -0.01360695 0.78637415
-0.014933192 -0.014508845 0.78720695
-0.014625031 -0.015554123 0.78817213
-0.014133033 -0.016575577 0.78911537
-0.013444329 -0.017545326 0.79001081
-0.012558958 -0.018436395 0.79083365
-0.011490569 -0.019224431 0.79156131
-0.010264484 -0.01989107 0.7921769
-0.0089128092 -0.020426383 0.7926712
-0.0074682459 -0.020829203 0.7930432
-0.0059583262 -0.021105727 0.79329854
-0.0043988083 -0.021267701 0.79344809
-0.0027630171 -0.021331767 0.79350728
-0.0031598047 -0.021324452 0.79350054
-0.014919751 -0.011401388 0.78433758
-0.014783681 -0.010510019 0.7835145
-0.014479097 -0.0094769429 0.78256053
-0.013992822 -0.0084674107 0.78162837
-0.013312135 -0.0075089796 0.78074336
-0.012437081 -0.0066283112 0.77993017
-0.011381146 -0.0058494732 0.77921104
-0.010169358 -0.0051906141 0.77860266
-0.0088334493 -0.0046615503 0.77811414
-0.0074057383 -0.0042634327 0.77774656
-0.0059134369 -0.0039901352 0.77749419
-0.0043721185 -0.0038300517 0.77734637
-0.0027554187 -0.0037667344 0.77728796
-0.0031475753 -0.003773964 0.77729464
0.01066528 -0.011401388 0.78433782
0.010529228 -0.010510019 0.78351474
0.010224665 -0.0094769429 0.78256083
0.0097384099 -0.0084674107 0.78162861
0.0090577435 -0.0075089796 0.7807436
0.0081827063 -0.0066283112 0.77993041
0.0071267886 -0.0058494732 0.77921122
0.0059150131 -0.0051906141 0.77860284
0.0045791147 -0.0046615503 0.77811432
0.0031514121 -0.0042634327 0.77774668
0.0016591164 -0.0039901352 0.77749431
0.0001178012 -0.0038300517 0.77734643
-0.0014988972 -0.0037667344 0.77728796
-0.0011067408 -0.003773964 0.77729464
0.010665257 -0.013594002 0.78636247
0.010529188 -0.014485371 0.78718555
0.010224603 -0.015518447 0.78813946
0.0097383279 -0.016527979 0.78907168
0.009057642 -0.01748641 0.78995669
0.0081825871 -0.018367078 0.79076988
0.0071266531 -0.019145917 0.79148901
0.0059148646 -0.019804776 0.79209739
0.0045789555 -0.02033384 0.79258591
0.0031512447 -0.020731958 0.79295349
0.0016589431 -0.021005256 0.79320586
0.0001176248 -0.021165339 0.79335362
-0.0014990749 -0.021228656 0.79341209
-0.0011069184 -0.021221427 0.79340541
-0.014919774 -0.013594002 0.78636217
-0.014783722 -0.014485371 0.78718525
-0.014479158 -0.015518447 0.78813922
-0.013992904 -0.016527979 0.78907138
-0.013312236 -0.01748641 0.78995639
-0.0124372 -0.018367078 0.79076964
-0.011381282 -0.019145917 0.79148883
-0.010169507 -0.019804776 0.79209721
-0.0088336086 -0.02033384 0.79258573
-0.007405906 -0.020731958 0.79295337
-0.0059136101 -0.021005256 0.79320574
-0.004372295 -0.021165339 0.79335362
-0.0027555965 -0.021228656 0.79341209
-0.0031477527 -0.021221427 0.79340541
-0.014768578 -0.011414343 0.7843495
-0.014634116 -0.010533508 0.7835362
-0.014333131 -0.0095126396 0.78259355
-0.013852602 -0.0085150376 0.78167236
-0.01317996 -0.0075679328 0.78079784
-0.012315247 -0.006697672 0.77999425
-0.011271791 -0.0059280368 0.77928358
-0.010074322 -0.0052769645 0.77868241
-0.0087541994 -0.0047541531 0.77819967
-0.0073433607 -0.0043607396 0.77783638
-0.0058686943 -0.0040906714 0.77758706
-0.0043455902 -0.0039324802 0.77744097
-0.0027479953 -0.0038699105 0.77738321
-0.0031355177 -0.0038770551 0.77738982
0.010514107 -0.011414343 0.7843498
0.010379663 -0.010533508 0.78353643
0.010078698 -0.0095126396 0.78259379
0.00959819 -0.0085150376 0.7816726
0.0089255664 -0.0075679328 0.78079808
0.0080608707 -0.006697672 0.77999449
0.0070174308 -0.0059280368 0.77928376
0.0058199754 -0.0052769645 0.77868259
0.0044998634 -0.0047541531 0.77819979
0.0030890326 -0.0043607396 0.7778365
0.0016143718 -0.0040906714 0.77758712
9.127074e-05 -0.0039324802 0.77744102
-0.0015063226 -0.0038699105 0.77738321
-0.0011188004 -0.0038770551 0.77738982
0.010514084 -0.013581048 0.78635049
0.010379623 -0.014461882 0.78716385
0.010078638 -0.015482751 0.7881065
0.0095981089 -0.016480353 0.78902769
0.0089254659 -0.017427457 0.78990221
0.0080607533 -0.018297719 0.7907058
0.0070172972 -0.019067355 0.79141647
0.0058198282 -0.019718425 0.79201764
0.004499706 -0.020241238 0.79250038
0.0030888671 -0.020634651 0.79286367
0.0016142006 -0.02090472 0.79311299
9.1096423e-05 -0.021062911 0.79325908
-0.0015064982 -0.021125481 0.79331684
-0.0011189759 -0.021118335 0.79331023
-0.0147686 -0.013581048 0.78635025
-0.014634156 -0.014461882 0.78716362
-0.014333191 -0.015482751 0.78810626
-0.013852683 -0.016480353 0.78902745
-0.01318006 -0.017427457 0.78990197
-0.012315365 -0.018297719 0.79070556
-0.011271925 -0.019067355 0.79141629
-0.010074469 -0.019718425 0.79201746
-0.0087543568 -0.020241238 0.79250026
-0.0073435265 -0.020634651 0.79286355
-0.0058688652 -0.02090472 0.79311293
-0.0043457644 -0.021062911 0.79325902
-0.0027481711 -0.021125481 0.79331678
-0.0031356933 -0.021118335 0.79331023
-0.014617304 -0.011427307 0.78436148
-0.014484451 -0.010557013 0.78355789
-0.014187068 -0.0095483605 0.78262651
-0.013712289 -0.0085626971 0.78171635
-0.013047696 -0.0076269251 0.78085232
-0.01219333 -0.0067670788 0.78005832
-0.011162361 -0.0060066539 0.77935618
-0.009979222 -0.0053633722 0.77876216
-0.0086748973 -0.0048468173 0.77828521
-0.0072809416 -0.0044581122 0.77792633
-0.0058239219 -0.0041912757 0.77767992
-0.0043190438 -0.0040349769 0.77753562
-0.0027405671 -0.0039731567 0.77747858
-0.0031234522 -0.0039802152 0.77748507
0.010362833 -0.011427307 0.78436178
0.010229996 -0.010557013 0.78355813
0.0099326335 -0.0095483605 0.78262675
0.009457875 -0.0085626971 0.78171664
0.0087933009 -0.0076269251 0.78085256
0.0079389531 -0.0067670788 0.78005856
0.0069079995 -0.0060066539 0.77935636
0.0057248734 -0.0053633722 0.77876234
0.0044205594 -0.0048468173 0.77828538
0.0030266116 -0.0044581122 0.77792645
0.0015695972 -0.0041912757 0.77768004
6.4722342e-05 -0.0040349769 0.77753568
-0.001513753 -0.0039731567 0.77747858
-0.0011308682 -0.0039802152 0.77748507
0.01036281 -0.013568084 0.78633857
0.010229957 -0.014438378 0.78714216
0.0099325739 -0.01544703 0.78807354
0.0094577949 -0.016432693 0.7889837
0.0087932022 -0.017368466 0.78984773
0.0079388367 -0.018228311 0.79064173
0.0069078673 -0.018988736 0.79134387
0.0057247281 -0.019632019 0.79193783
0.0044204039 -0.020148573 0.79241484
0.003026448 -0.020537278 0.79277372
0.0015694281 -0.020804115 0.79302013
6.4550113e-05 -0.020960413 0.79316443
-0.0015139264 -0.021022234 0.79322147
-0.0011310416 -0.021015175 0.79321498
-0.014617327 -0.013568084 0.78633827
-0.01448449 -0.014438378 0.78714186
-0.014187127 -0.01544703 0.78807324
-0.013712369 -0.016432693 0.7889834
-0.013047795 -0.017368466 0.78984749
-0.012193446 -0.018228311 0.79064149
-0.011162493 -0.018988736 0.79134369
-0.0099793673 -0.019632019 0.79193771
-0.0086750528 -0.020148573 0.79241467
-0.007281105 -0.020537278 0.7927736
-0.0058240909 -0.020804115 0.79302001
-0.0043192161 -0.020960413 0.79316437
-0.0027407408 -0.021022234 0.79322147
-0.0031236254 -0.021015175 0.79321498
-0.014465927 -0.01144028 0.78437346
-0.014334684 -0.010580533 0.78357959
-0.014040905 -0.0095841065 0.78265953
-0.01357188 -0.0086103883 0.78176039
-0.012915342 -0.0076859579 0.7809068
-0.012071331 -0.0068365326 0.78012246
-0.011052857 -0.0060853241 0.77942884
-0.0098840576 -0.0054498385 0.77884203
-0.0085955411 -0.004939544 0.77837086
-0.0072184796 -0.0045555504 0.77801627
-0.0057791187 -0.0042919475 0.7777729
-0.0042924797 -0.0041375435 0.77763033
-0.0027331337 -0.004076472 0.77757394
-0.0031113783 -0.0040834453 0.77758038
0.010211456 -0.01144028 0.78437376
0.010080229 -0.010580533 0.78357989
0.0097864708 -0.0095841065 0.78265977
0.0093174661 -0.0086103883 0.78176063
0.008660947 -0.0076859579 0.78090703
0.0078169527 -0.0068365326 0.7801227
0.0067984937 -0.0060853241 0.77942902
0.0056297076 -0.0054498385 0.77884221
0.0043412009 -0.004939544 0.77837098
0.0029641478 -0.0045555504 0.77801639
0.0015247921 -0.0042919475 0.77777296
3.8156257e-05 -0.0041375435 0.77763039
-0.0015211884 -0.004076472 0.77757394
-0.0011429442 -0.0040834453 0.77758044
0.010211434 -0.01355511 0.78632659
0.01008019 -0.014414857 0.78712046
0.0097864112 -0.015411285 0.78804052
0.0093173869 -0.016385002 0.78893965
0.0086608492 -0.017309433 0.78979325
0.0078168372 -0.018158859 0.79057759
0.0067983633 -0.018910067 0.79127121
0.0056295642 -0.019545551 0.79185802
0.0043410473 -0.020055847 0.79232919
0.002963986 -0.020439841 0.79268378
0.0015246251 -0.020703442 0.79292715
3.7986112e-05 -0.020857846 0.79306972
-0.0015213598 -0.020918919 0.79312611
-0.0011431153 -0.020911945 0.79311967
-0.014465949 -0.01355511 0.78632629
-0.014334723 -0.014414857 0.78712016
-0.014040965 -0.015411285 0.78804028
-0.013571959 -0.016385002 0.78893936
-0.01291544 -0.017309433 0.78979301
-0.012071447 -0.018158859 0.79057735
-0.011052988 -0.018910067 0.79127103
-0.009884201 -0.019545551 0.79185784
-0.0085956948 -0.020055847 0.79232907
-0.0072186412 -0.020439841 0.79268366
-0.0057792859 -0.020703442 0.79292709
-0.0042926497 -0.020857846 0.79306966
-0.0027333053 -0.020918919 0.79312605
-0.0031115494 -0.020911945 0.79311961
-0.014314443 -0.011453262 0.78438544
-0.014184812 -0.01060407 0.78360134
-0.013894639 -0.0096198767 0.78269255
-0.013431373 -0.0086581139 0.78180444
-0.012782896 -0.0077450322 0.78096133
-0.011949247 -0.0069060354 0.78018665
-0.010943277 -0.0061640493 0.7795015
-0.0097888261 -0.0055363658 0.7789219
-0.0085161291 -0.0050323368 0.77845651
-0.0071559739 -0.0046530566 0.77810633
-0.0057342844 -0.0043926905 0.77786589
-0.004265897 -0.0042401822 0.7777251
-0.0027256953 -0.0041798605 0.77766943
-0.003099296 -0.0041867481 0.77767581
0.010059971 -0.011453262 0.78438574
0.0099303573 -0.01060407 0.78360158
0.0096402047 -0.0096198767 0.78269279
0.0091769574 -0.0086581139 0.78180474
0.0085284989 -0.0077450322 0.78096157
0.0076948665 -0.0069060354 0.78018683
0.0066889119 -0.0061640493 0.77950168
0.0055344743 -0.0055363658 0.77892208
0.004261787 -0.0050323368 0.77845669
0.00290164 -0.0046530566 0.77810645
0.0014799555 -0.0043926905 0.77786601
1.1571306e-05 -0.0042401822 0.77772516
-0.001528629 -0.0041798605 0.77766943
-0.0011550286 -0.0041867481 0.77767581
0.01005995 -0.013542129 0.78631455
0.0099303182 -0.01439132 0.78709871
0.009640146 -0.015375514 0.7880075
0.0091768792 -0.016337277 0.78889555
0.0085284021 -0.017250357 0.78973871
0.0076947529 -0.018089354 0.7905134
0.0066887829 -0.018831341 0.79119855
0.0055343327 -0.019459024 0.79177809
0.0042616352 -0.019963054 0.79224354
0.0029014805 -0.020342333 0.79259372
0.0014797907 -0.020602699 0.7928341
1.1403254e-05 -0.020755207 0.79297495
-0.0015287984 -0.020815531 0.79303062
-0.0011551976 -0.020808643 0.79302424
-0.014314464 -0.013542129 0.78631431
-0.014184851 -0.01439132 0.78709841
-0.013894698 -0.015375514 0.78800726
-0.013431451 -0.016337277 0.78889531
-0.012782993 -0.017250357 0.78973848
-0.01194936 -0.018089354 0.79051316
-0.010943405 -0.018831341 0.79119831
-0.0097889677 -0.019459024 0.79177797
-0.0085162809 -0.019963054 0.79224336
-0.0071561337 -0.020342333 0.7925936
-0.0057344493 -0.020602699 0.79283404
-0.0042660651 -0.020755207 0.79297489
-0.0027258645 -0.020815531 0.79303062
-0.003099465 -0.020808643 0.79302424
-0.014162851 -0.011466254 0.78439748
-0.014034832 -0.010627625 0.7836231
-0.013748269 -0.0096556731 0.78272557
-0.013290765 -0.0087058721 0.78184855
-0.012650354 -0.0078041488 0.78101593
-0.011827074 -0.0069755879 0.78025085
-0.010833617 -0.0062428317 0.77957428
-0.0096935267 -0.0056229555 0.77900189
-0.0084366594 -0.0051251953 0.77854228
-0.007093423 -0.0047506331 0.77819639
-0.0056894175 -0.0044935062 0.77795899
-0.0042392951 -0.0043428945 0.77781993
-0.0027182514 -0.0042833234 0.77776498
-0.0030872051 -0.0042901253 0.77777123
0.0099083781 -0.011466254 0.78439772
0.0097803771 -0.010627625 0.78362334
0.0094938325 -0.0096556731 0.78272587
0.0090363491 -0.0087058721 0.78184885
0.008395955 -0.0078041488 0.78101617
0.0075726924 -0.0069755879 0.78025109
0.0065792506 -0.0062428317 0.77957445
0.005439173 -0.0056229555 0.77900207
0.0041823159 -0.0051251953 0.7785424
0.0028390873 -0.0047506331 0.77819651
0.0014350869 -0.0044935062 0.77795911
-1.5032735e-05 -0.0043428945 0.77781999
-0.0015360751 -0.0042833234 0.77776498
-0.0011671216 -0.0042901253 0.77777123
0.0099083576 -0.013529137 0.78630257
0.009780339 -0.014367766 0.78707695
0.0094937747 -0.015339717 0.78797442
0.0090362718 -0.016289517 0.78885144
0.00839586 -0.017191241 0.78968412
0.0075725801 -0.018019803 0.7904492
0.0065791234 -0.018752558 0.79112577
0.0054390333 -0.019372435 0.79169816
0.004182166 -0.019870196 0.79215777
0.0028389296 -0.020244757 0.7925036
0.001434924 -0.020501884 0.79274106
-1.5198698e-05 -0.020652495 0.79288006
-0.0015362423 -0.020712066 0.79293507
-0.0011672886 -0.020705266 0.79292881
-0.014162872 -0.013529137 0.78630233
-0.01403487 -0.014367766 0.78707671
-0.013748326 -0.015339717 0.78797418
-0.013290842 -0.016289517 0.7888512
-0.012650449 -0.017191241 0.78968388
-0.011827186 -0.018019803 0.79044896
-0.010833744 -0.018752558 0.7911256
-0.0096936664 -0.019372435 0.79169798
-0.0084368093 -0.019870196 0.79215765
-0.0070935809 -0.020244757 0.79250354
-0.0056895805 -0.020501884 0.79274094
-0.0042394609 -0.020652495 0.79288006
-0.0027184186 -0.020712066 0.79293507
-0.0030873721 -0.020705266 0.79292876
-0.014011147 -0.011479254 0.78440946
-0.013884741 -0.010651196 0.78364486
-0.013601789 -0.0096914954 0.78275865
-0.013150052 -0.0087536676 0.78189272
-0.012517713 -0.0078633102 0.78107059
-0.01170481 -0.0070451926 0.78031516
-0.010723875 -0.0063216719 0.77964705
-0.0095981564 -0.0057096095 0.77908188
-0.0083571319 -0.0052181236 0.77862811
-0.0070308265 -0.0048482828 0.77828658
-0.0056445175 -0.0045943963 0.77805215
-0.0042126733 -0.0044456837 0.77791488
-0.002710802 -0.0043868627 0.77786058
-0.0030751051 -0.0043935794 0.77786678
0.0097566731 -0.011479254 0.78440976
0.0096302843 -0.010651196 0.78364509
0.0093473531 -0.0096914954 0.78275895
0.0088956347 -0.0087536676 0.78189296
0.0082633141 -0.0078633102 0.78107077
0.0074504274 -0.0070451926 0.78031534
0.0064695072 -0.0063216719 0.77964723
0.0053438009 -0.0057096095 0.77908206
0.0041027861 -0.0052181236 0.77862823
0.0027764884 -0.0048482828 0.7782867
0.0013901847 -0.0045943963 0.77805227
-4.1656567e-05 -0.0044456837 0.77791494
-0.0015435267 -0.0043868627 0.77786058
-0.0011792236 -0.0043935794 0.77786678
0.0097566526 -0.013516136 0.78629059
0.009630247 -0.014344194 0.78705519
0.0093472954 -0.015303895 0.78794134
0.0088955583 -0.016241724 0.78880733
0.0082632191 -0.017132081 0.78962946
0.0074503166 -0.017950198 0.79038489
0.0064693815 -0.018673718 0.791053
0.0053436626 -0.019285781 0.79161817
0.004102638 -0.019777266 0.79207194
0.0027763327 -0.020147108 0.79241347
0.0013900239 -0.020400994 0.7926479
-4.182044e-05 -0.020549707 0.79278517
-0.0015436916 -0.020608528 0.79283947
-0.0011793886 -0.020601811 0.79283327
-0.014011167 -0.013516136 0.78629029
-0.013884778 -0.014344194 0.7870549
-0.013601847 -0.015303895 0.7879411
-0.013150129 -0.016241724 0.78880709
-0.012517808 -0.017132081 0.78962922
-0.011704921 -0.017950198 0.79038471
-0.010724001 -0.018673718 0.79105282
-0.0095982943 -0.019285781 0.79161799
-0.0083572799 -0.019777266 0.79207182
-0.0070309821 -0.020147108 0.79241335
-0.0056446781 -0.020400994 0.79264778
-0.0042128372 -0.020549707 0.79278511
-0.0027109671 -0.020608528 0.79283947
-0.00307527 -0.020601811 0.79283327
-0.013859327 -0.011492265 0.7844215
-0.013734536 -0.010674786 0.78366661
-0.0134552 -0.0097273458 0.78279179
-0.013009233 -0.0088014985 0.78193688
-0.012384973 -0.0079225153 0.78112525
-0.011582455 -0.0071148495 0.78037947
-0.010614051 -0.0064005721 0.77971989
-0.0095027136 -0.0057963287 0.77916199
-0.0082775438 -0.0053111222 0.77871394
-0.006968182 -0.0049460055 0.77837682
-0.0055995835 -0.0046953629 0.77814537
-0.0041860314 -0.0045485497 0.77800983
-0.002703347 -0.0044904803 0.77795625
-0.0030629958 -0.0044971113 0.77796239
0.0096048536 -0.011492265 0.78442174
0.0094800796 -0.010674786 0.78366691
0.009200762 -0.0097273458 0.78279203
0.0087548159 -0.0088014985 0.78193712
0.0081305718 -0.0079225153 0.78112549
0.0073280707 -0.0071148495 0.78037965
0.006359682 -0.0064005721 0.77972013
0.0052483566 -0.0057963287 0.77916217
0.0040231962 -0.0053111222 0.77871412
0.0027138421 -0.0049460055 0.77837694
0.0013452488 -0.0046953629 0.77814549
-6.8300425e-05 -0.0045485497 0.77800989
-0.0015509838 -0.0044904803 0.77795625
-0.0011913349 -0.0044971113 0.77796239
0.0096048331 -0.013503125 0.78627855
0.0094800424 -0.014320605 0.78703338
0.0092007061 -0.015268045 0.78790826
0.0087547405 -0.016193893 0.78876317
0.0081304787 -0.017072875 0.7895748
0.0073279613 -0.01788054 0.79032058
0.0063595581 -0.018594818 0.7909801
0.0052482202 -0.019199062 0.79153806
0.00402305 -0.019684268 0.79198611
0.0027136882 -0.020049384 0.79232323
0.00134509 -0.020300027 0.79255462
-6.8462199e-05 -0.020446841 0.79269016
-0.0015511467 -0.02050491 0.7927438
-0.0011914977 -0.020498279 0.79273766
-0.013859347 -0.013503125 0.78627831
-0.013734573 -0.014320605 0.78703314
-0.013455256 -0.015268045 0.78790802
-0.013009309 -0.016193893 0.78876293
-0.012385066 -0.017072875 0.78957456
-0.011582565 -0.01788054 0.7903204
-0.010614175 -0.018594818 0.79097992
-0.0095028505 -0.019199062 0.79153788
-0.00827769 -0.019684268 0.79198593
-0.0069683357 -0.020049384 0.79232311
-0.0055997423 -0.020300027 0.79255456
-0.004186193 -0.020446841 0.79269016
-0.0027035098 -0.02050491 0.7927438
-0.0030631588 -0.020498279 0.79273766
-0.013707388 -0.011505286 0.78443348
-0.013584214 -0.010698394 0.78368843
-0.013308495 -0.0097632231 0.78282493
-0.012868305 -0.0088493666 0.78198105
-0.012252129 -0.0079817669 0.78117996
-0.011460004 -0.0071845609 0.78044385
-0.010504141 -0.0064795339 0.77979285
-0.0094071962 -0.0058831163 0.7792421
-0.0081978934 -0.0054041925 0.77879989
-0.0069054887 -0.0050438051 0.77846712
-0.0055546146 -0.0047964086 0.77823871
-0.0041593686 -0.0046514962 0.7781049
-0.002695886 -0.0045941793 0.77805197
-0.0030508772 -0.0046007237 0.77805805
0.0094529148 -0.011505286 0.78443378
0.0093297577 -0.010698394 0.78368866
0.0090540573 -0.0097632231 0.78282517
0.0086138854 -0.0088493666 0.78198129
0.0079977261 -0.0079817669 0.7811802
0.0072056185 -0.0071845609 0.78044403
0.0062497705 -0.0064795339 0.77979302
0.0051528374 -0.0058831163 0.77924228
0.0039435439 -0.0054041925 0.77880001
0.0026511466 -0.0050438051 0.77846724
0.0013002777 -0.0047964086 0.77823877
-9.4965239e-05 -0.0046514962 0.77810496
-0.0015584468 -0.0045941793 0.77805203
-0.0012034556 -0.0046007237 0.77805805
0.0094528943 -0.013490104 0.78626651
0.0093297204 -0.014296997 0.78701162
0.0090540014 -0.015232167 0.78787512
0.0086138109 -0.016146025 0.78871894
0.0079976348 -0.017013624 0.78952008
0.0072055105 -0.017810829 0.7902562
0.0062496481 -0.018515857 0.7909072
0.0051527028 -0.019112274 0.79145795
0.0039433995 -0.019591197 0.79190016
0.002650995 -0.019951586 0.79223293
0.001300121 -0.020198982 0.79246134
-9.5124924e-05 -0.020343894 0.79259515
-0.0015586076 -0.020401211 0.79264802
-0.0012036163 -0.020394666 0.792642
-0.013707409 -0.013490104 0.78626627
-0.013584252 -0.014296997 0.78701133
-0.013308551 -0.015232167 0.78787488
-0.012868379 -0.016146025 0.7887187
-0.01225222 -0.017013624 0.78951985
-0.011460112 -0.017810829 0.79025602
-0.010504264 -0.018515857 0.79090703
-0.0094073312 -0.019112274 0.79145777
-0.0081980377 -0.019591197 0.79189998
-0.0069056405 -0.019951586 0.79223281
-0.0055547715 -0.020198982 0.79246128
-0.0041595283 -0.020343894 0.79259509
-0.0026960468 -0.020401211 0.79264802
-0.0030510381 -0.020394666 0.792642
-0.013555327 -0.011518317 0.78444552
-0.01343377 -0.010722021 0.78371024
-0.013161671 -0.0097991303 0.78285807
-0.012727262 -0.0088972738 0.78202534
-0.012119177 -0.0080410661 0.78123474
-0.011337454 -0.007254329 0.78050828
-0.010394143 -0.0065585594 0.7798658
-0.0093116025 -0.0059699733 0.77932233
-0.0081181778 -0.0054973387 0.7788859
-0.0068427445 -0.0051416834 0.77855754
-0.0055096094 -0.0048975353 0.77833211
-0.0041326848 -0.0047545256 0.77820003
-0.0026884191 -0.0046979617 0.77814782
-0.0030387489 -0.0047044209 0.77815378
0.0093008541 -0.011518317 0.78444582
0.0091793137 -0.010722021 0.78371048
0.0089072334 -0.0097991303 0.78285831
0.0084728412 -0.0088972738 0.78202558
0.0078647742 -0.0080410661 0.78123492
0.0070830672 -0.007254329 0.78050846
0.0061397702 -0.0065585594 0.77986598
0.0050572413 -0.0059699733 0.7793225
0.0038638269 -0.0054973387 0.77888602
0.0025884006 -0.0051416834 0.7785576
0.0012552702 -0.0048975353 0.77833217
-0.00012165147 -0.0047545256 0.77820009
-0.0015659158 -0.0046979617 0.77814782
-0.0012155861 -0.0047044209 0.77815384
0.0093008336 -0.013477073 0.78625447
0.0091792773 -0.01427337 0.78698981
0.0089071784 -0.01519626 0.78784198
0.0084727686 -0.016098117 0.78867471
0.0078646829 -0.016954323 0.78946531
0.0070829606 -0.017741062 0.79019177
0.0061396491 -0.01843683 0.79083425
0.0050571086 -0.019025417 0.79137772
0.0038636846 -0.019498052 0.79181415
0.0025882509 -0.019853707 0.79214251
