# .PCD v0.7 - Point Cloud Data file format
VERSION 0.7
FIELDS x y z rgba
SIZE 4 4 4 4
TYPE F F F U
COUNT 1 1 1 1
WIDTH 1002
HEIGHT 1
VIEWPOINT 0 0 0 1 0 0 0
POINTS 1002
DATA ascii
-0.0021139171 0.04721082 0.80900002 4289167476
-0.00070463907 0.04721082 0.80900002 4290154371
0.00070463907 0.04721082 0.80900002 4290879639
0.0021139171 0.04721082 0.80900002 4290879639
0.0035231954 0.04721082 0.80900002 4290551960
0.0049446677 0.047327533 0.81100005 4290749338
0.0063731079 0.047444243 0.81300002 4291011227
0.0077893534 0.047444243 0.81300002 4290221711
0.0092056002 0.047444243 0.81300002 4289034382
0.010647976 0.04756096 0.81500006 4288047487
0.012067707 0.04756096 0.81500006 4287518270
0.013520534 0.047677673 0.81700003 4287057719
0.014962039 0.04773603 0.81800002 4289099885
0.016386995 0.04773603 0.81800002 4290481537
0.017855503 0.047852743 0.82000005 4291666329
0.019330975 0.047969457 0.82200003 4293245105
-0.02208682 0.049160987 0.81800002 4290283656
-0.020661863 0.049160987 0.81800002 4289823105
-0.019236907 0.049160987 0.81800002 4287657578
-0.017790178 0.049100887 0.81700003 4286539354
-0.016366962 0.049100887 0.81700003 4286935127
-0.01494375 0.049100887 0.81700003 4287329885
-0.013487437 0.048980691 0.81500006 4288970347
-0.012067707 0.048980691 0.81500006 4289957242
-0.010621847 0.04886049 0.81300002 4289828234
-0.0092056002 0.04886049 0.81300002 4289959820
-0.0077893534 0.04886049 0.81300002 4289037718
-0.0063574295 0.048740294 0.81100005 4287195514
-0.0049446677 0.048740294 0.81100005 4287257681
-0.0035319056 0.048740294 0.81100005 4287191887
-0.0021191433 0.048740294 0.81100005 4287849052
-0.00070812309 0.04886049 0.81300002 4290612358
0.00070638111 0.048740294 0.81100005 4290025617
0.0021191433 0.048740294 0.81100005 4289959568
0.0035319056 0.048740294 0.81100005 4290024863
0.0049568615 0.04886049 0.81300002 4289630106
0.0063731079 0.04886049 0.81300002 4290023296
0.0078085158 0.048980691 0.81500006 4289365623
0.0092282463 0.048980691 0.81500006 4288046413
0.010674106 0.049100887 0.81700003 4287783497
0.012097321 0.049100887 0.81700003 4287517259
0.013537084 0.049160987 0.81800002 4287583052
0.014998622 0.049281184 0.82000005 4290148722
0.016427062 0.049281184 0.82000005 4292451477
0.017899051 0.049401384 0.82200003 4292126640
0.01937801 0.04952158 0.82400006 4291732138
-0.020661863 0.050585944 0.81800002 4289690742
-0.019236907 0.050585944 0.81800002 4286865514
-0.017811952 0.050585944 0.81800002 4284563015
-0.016386995 0.050585944 0.81800002 4285027128
-0.01494375 0.050524104 0.81700003 4285027128
-0.013520534 0.050524104 0.81700003 4288114788
-0.012097321 0.050524104 0.81700003 4289825406
-0.010674106 0.050524104 0.81700003 4290088830
-0.0092282463 0.050400425 0.81500006 4290746504
-0.0078085158 0.050400425 0.81500006 4290418577
-0.0063887858 0.050400425 0.81500006 4287852393
-0.0049690558 0.050400425 0.81500006 4286665543
-0.0035493255 0.050400425 0.81500006 4285349683
-0.0021295953 0.050400425 0.81500006 4288045409
-0.00070986507 0.050400425 0.81500006 4290085248
0.00070986507 0.050400425 0.81500006 4287715960
0.0021295953 0.050400425 0.81500006 4286926444
0.0035493255 0.050400425 0.81500006 4286798206
0.0049690558 0.050400425 0.81500006 4284626780
0.0063887858 0.050400425 0.81500006 4286269184
0.0078276778 0.050524104 0.81700003 4286269184
0.0092508914 0.050524104 0.81700003 4286727715
0.010674106 0.050524104 0.81700003 4291004261
0.012141741 0.050709628 0.82000005 4290942622
0.013570182 0.050709628 0.82000005 4291073951
0.015035204 0.050833307 0.82200003 4291798664
0.016467128 0.050833307 0.82200003 4292061837
0.017899051 0.050833307 0.82200003 4291074474
0.01937801 0.050956991 0.82400006 4289824150
-0.019330975 0.052265231 0.82200003 4286734932
-0.017855503 0.052138068 0.82000005 4285879623
-0.016427062 0.052138068 0.82000005 4285356874
-0.014998622 0.052138068 0.82000005 4285027909
-0.013570182 0.052138068 0.82000005 4288312674
-0.012141741 0.052138068 0.82000005 4289496691
-0.010687171 0.052010898 0.81800002 4289166958
-0.0092508914 0.051947318 0.81700003 4290745990
-0.0078276778 0.051947318 0.81700003 4290681261
-0.0064044637 0.051947318 0.81700003 4288115333
-0.0049812496 0.051947318 0.81700003 4287255364
-0.0035580352 0.051947318 0.81700003 4287189570
-0.0021348214 0.051947318 0.81700003 4288309603
-0.00071160705 0.051947318 0.81700003 4289559413
0.00071160705 0.051947318 0.81700003 4287387213
0.0021348214 0.051947318 0.81700003 4287255884
0.0035580352 0.051947318 0.81700003 4288706153
0.0049812496 0.051947318 0.81700003 4286140483
0.0064044637 0.051947318 0.81700003 4287121438
0.0078276778 0.051947318 0.81700003 4287318817
0.0092508914 0.051947318 0.81700003 4286992164
0.010687171 0.052010898 0.81800002 4291597674
0.012141741 0.052138068 0.82000005 4291732388
0.013603278 0.052265231 0.82200003 4291798181
0.015035204 0.052265231 0.82200003 4291932079
0.016467128 0.052265231 0.82200003 4290484633
0.017942604 0.052392401 0.82400006 4289693293
-0.017899051 0.053697154 0.82200003 4286865518
-0.016467128 0.053697154 0.82200003 4286341732
-0.014998622 0.053566508 0.82000005 4285684059
-0.013570182 0.053566508 0.82000005 4286997620
-0.012141741 0.053566508 0.82000005 4288839824
-0.010713302 0.053566508 0.82000005 4288839277
-0.0092848614 0.053566508 0.82000005 4290286723
-0.0078564212 0.053566508 0.82000005 4290353311
-0.0064123026 0.053435855 0.81800002 4288642692
-0.0049873465 0.053435855 0.81800002 4286862697
-0.0035623903 0.053435855 0.81800002 4286533733
-0.0021374342 0.053435855 0.81800002 4288046456
-0.00071247807 0.053435855 0.81800002 4289625488
0.00071247807 0.053435855 0.81800002 4288375144
0.0021374342 0.053435855 0.81800002 4287454042
0.0035623903 0.053435855 0.81800002 4287849333
0.0049873465 0.053435855 0.81800002 4289033351
0.0064123026 0.053435855 0.81800002 4290877814
0.0078372583 0.053435855 0.81800002 4291996296
0.0092848614 0.053566508 0.82000005 4291668630
0.010713302 0.053566508 0.82000005 4291602837
0.012171356 0.053697154 0.82200003 4290484118
0.013636378 0.053827807 0.82400006 4290352531
0.015071786 0.053827807 0.82400006 4290089371
0.016507195 0.053827807 0.82400006 4285484117
0.017942604 0.053827807 0.82400006 4287447882
-0.017942604 0.055263218 0.82400006 4287917677
-0.016467128 0.055129081 0.82200003 4287261530
-0.015035204 0.055129081 0.82200003 4286011463
-0.013603278 0.055129081 0.82200003 4286074951
-0.012171356 0.055129081 0.82200003 4288443499
-0.010739431 0.055129081 0.82200003 4288116322
-0.0092848614 0.054994944 0.82000005 4289958525
-0.0078564212 0.054994944 0.82000005 4290025115
-0.006427981 0.054994944 0.82000005 4288511620
-0.0049995407 0.054994944 0.82000005 4288047205
-0.0035711005 0.054994944 0.82000005 4288244841
-0.0021426601 0.054994944 0.82000005 4288772723
-0.00071422011 0.054994944 0.82000005 4289561982
0.00071422011 0.054994944 0.82000005 4289364871
0.0021426601 0.054994944 0.82000005 4287983218
0.0035711005 0.054994944 0.82000005 4288044396
0.0049995407 0.054994944 0.82000005 4289557635
0.006427981 0.054994944 0.82000005 4291533205
0.0078564212 0.054994944 0.82000005 4292651943
0.0093075074 0.055129081 0.82200003 4291669925
0.010739431 0.055129081 0.82200003 4290617236
0.01220097 0.055263218 0.82400006 4288120169
0.013636378 0.055263218 0.82400006 4288448877
0.015071786 0.055263218 0.82400006 4289366418
-0.016507195 0.056698628 0.82400006 4288574555
-0.015071786 0.056698628 0.82400006 4288903777
-0.013603278 0.056561004 0.82200003 4288443751
-0.012171356 0.056561004 0.82200003 4288904302
-0.010739431 0.056561004 0.82200003 4288773222
-0.0093075074 0.056561004 0.82200003 4290089082
-0.0078755822 0.056561004 0.82200003 4290156181
-0.0064436588 0.056561004 0.82200003 4290221975
-0.0050117346 0.056561004 0.82200003 4290222740
-0.0035798103 0.056561004 0.82200003 4290683291
-0.0021478862 0.056561004 0.82200003 4290682264
-0.00071596209 0.056561004 0.82200003 4290945436
0.00071596209 0.056561004 0.82200003 4290485416
0.0021478862 0.056561004 0.82200003 4290353574
0.0035798103 0.056561004 0.82200003 4289366168
0.0050117346 0.056561004 0.82200003 4289234326
0.0064436588 0.056561004 0.82200003 4290482293
0.0078755822 0.056561004 0.82200003 4290679416
0.0093301535 0.056698628 0.82400006 4289163644
0.010765561 0.056698628 0.82400006 4286400338
0.01220097 0.056698628 0.82400006 4287650569
0.013669475 0.056836244 0.82600003 4288900636
-0.016547261 0.058275133 0.82600003 4288572507
-0.015071786 0.058134031 0.82400006 4289098851
-0.013636378 0.058134031 0.82400006 4288902503
-0.01220097 0.058134031 0.82400006 4289363054
-0.010765561 0.058134031 0.82400006 4289100902
-0.0093075074 0.057992928 0.82200003 4290087797
-0.0078755822 0.057992928 0.82200003 4289629572
-0.0064436588 0.057992928 0.82200003 4290156172
-0.0050117346 0.057992928 0.82200003 4290222990
-0.0035798103 0.057992928 0.82200003 4290288783
-0.0021478862 0.057992928 0.82200003 4290615697
-0.00071596209 0.057992928 0.82200003 4290879125
0.00071596209 0.057992928 0.82200003 4289697947
0.0021478862 0.057992928 0.82200003 4289368726
0.0035798103 0.057992928 0.82200003 4287333258
0.0050117346 0.057992928 0.82200003 4287004293
0.0064593367 0.058134031 0.82400006 4288707659
0.0078947451 0.058134031 0.82400006 4288905294
0.0093301535 0.058134031 0.82400006 4288634470
0.010791691 0.058275133 0.82600003 4287581526
0.012230583 0.058275133 0.82600003 4288895775
-0.015108367 0.059714027 0.82600003 4288504402
-0.013636378 0.059569441 0.82400006 4288966749
-0.01220097 0.059569441 0.82400006 4289098592
-0.010765561 0.059569441 0.82400006 4288704858
-0.0093301535 0.059569441 0.82400006 4288507736
-0.0078947451 0.059569441 0.82400006 4289035095
-0.0064593367 0.059569441 0.82400006 4289627233
-0.0050239288 0.059569441 0.82400006 4288837995
-0.0035885205 0.059569441 0.82400006 4288509031
-0.0021531123 0.059569441 0.82400006 4288904292
-0.00071770413 0.059569441 0.82400006 4289167208
0.00071770413 0.059569441 0.82400006 4286604918
0.0021531123 0.059569441 0.82400006 4282986559
0.0035885205 0.059569441 0.82400006 4282659139
0.0050239288 0.059569441 0.82400006 4281672244
0.0064593367 0.059569441 0.82400006 4286203904
0.0078947451 0.059569441 0.82400006 4290151471
0.0093527995 0.059714027 0.82600003 4289820025
-0.013669475 0.06115292 0.82600003 4289426008
-0.012230583 0.06115292 0.82600003 4289294421
-0.010765561 0.061004851 0.82400006 4288111697
-0.0093301535 0.061004851 0.82400006 4288835163
-0.0078947451 0.061004851 0.82400006 4288836949
-0.0064593367 0.061004851 0.82400006 4288968791
-0.0050239288 0.061004851 0.82400006 4288902746
-0.0035885205 0.061004851 0.82400006 4288836697
-0.0021531123 0.061004851 0.82400006 4288905056
-0.00071770413 0.061004851 0.82400006 4289168228
0.00071770413 0.061004851 0.82400006 4285949793
0.0021531123 0.061004851 0.82400006 4281805090
0.0035885205 0.061004851 0.82400006 4280883718
0.0050239288 0.061004851 0.82400006 4281936406
0.0064750146 0.06115292 0.82600003 4286596352
0.0079139071 0.06115292 0.82600003 4290741293
0.0063174684 0.0085575674 0.76611406 4278190080
0.0026608862 0.01313133 0.76714778 4278190080
0.0040223994 0.012869881 0.76738054 4278190080
0.0047025513 0.0086805196 0.76725 4278190080
0.006057316 0.0084203677 0.76748163 4278190080
0.0070646564 0.0061975834 0.76753044 4278190080
-0.0006501202 0.011550166 0.76787382 4278190080
0.00070801884 0.011289365 0.76810604 4278190080
0.0023994369 0.012993446 0.76852214 4278190080
0.0041023712 0.0065797339 0.7684325 4278190080
0.0054537617 0.0063202293 0.76866353 4278190080
0.01993853 0.0015098094 0.77101302 4278190080
0.022634562 0.00099209615 0.77147394 4278190080
-0.00021130563 0.0072213891 0.76910353 4278190080
0.0048514935 0.0042207162 0.76983863 4278190080
0.012939591 0.0026675758 0.7712214 4278190080
0.014287608 0.0024087194 0.77145189 4278190080
0.015635623 0.0021498627 0.77168232 4278190080
0.016983639 0.001891006 0.77191281 4278190080
0.018331656 0.0016321491 0.7721433 4278190080
0.019679673 0.0013732923 0.77237374 4278190080
0.0044215834 0.0031030718 0.77110314 4278190080
0.0057679126 0.002844539 0.77133334 4278190080
0.011153229 0.0018104082 0.77225405 4278190080
0.012499559 0.0015518754 0.77248418 4278190080
0.016538545 0.00077627721 0.77317476 4278190080
0.018072799 0.0014956318 0.77350402 4278190080
0.019231204 0.00025921167 0.77363509 4278190080
0.020577531 6.7925475e-07 0.77386528 4278190080
0.0041630506 0.0029667255 0.77246219 4278190080
0.012241025 0.0014155291 0.77384323 4278190080
0.013587355 0.0011569964 0.77407342 4278190080
0.014933684 0.00089846365 0.77430362 4278190080
0.016280014 0.00063993089 0.77453381 4278190080
0.017626343 0.0003813981 0.77476394 4278190080
0.018972673 0.00012286534 0.77499413 4278190080
0.010278483 -0.00042061528 0.77476996 4278190080
0.011621438 -0.0006785001 0.77499956 4278190080
0.013328822 0.0010206503 0.77543247 4278190080
0.014307347 -0.0011942696 0.77545875 4278190080
0.018336212 -0.0019679242 0.77614754 4278190080
0.019679166 -0.0022258086 0.77637714 4278190080
0.021022122 -0.0024836936 0.77660674 4278190080
-0.0074378173 0.0027958825 0.77314079 4278190080
-0.0060948613 0.0025379974 0.77337039 4278190080
0.010020598 -0.00055661995 0.77612561 4278190080
0.011363553 -0.00081450475 0.77635521 4278190080
0.012706507 -0.0010723894 0.7765848 4278190080
0.014049462 -0.0013302743 0.7768144 4278190080
0.015392418 -0.0015881592 0.777044 4278190080
-0.0093478113 0.00095098524 0.77406591 4278190080
-0.0080082314 0.00069374841 0.77429497 4278190080
-0.0066686505 0.00043651159 0.77452397 4278190080
-0.0053290697 0.00017927475 0.77475303 4278190080
0.0027084141 -0.0013641462 0.77612716 4278190080
0.0040479945 -0.001621383 0.77635616 4278190080
0.0053875754 -0.0018786199 0.77658522 4278190080
0.0080667362 -0.0023930934 0.77704322 4278190080
0.009406317 -0.0026503303 0.77727228 4278190080
0.012448623 -0.001208394 0.77794045 4278190080
0.013791578 -0.0014662788 0.77817005 4278190080
0.01476464 -0.0036792776 0.77818835 4278190080
0.016104219 -0.0039365147 0.77841741 4278190080
0.0174438 -0.0041937511 0.77864641 4278190080
0.018783381 -0.004450988 0.77887541 4278190080
0.020122962 -0.0047082249 0.77910447 4278190080
0.021462543 -0.0049654618 0.77933347 4278190080
0.025481286 -0.0057371724 0.78002053 4278190080
-0.013623791 0.0015870328 0.7747311 4278190080
-0.0045687212 -0.0021774101 0.77612764 4278190080
-0.0032325145 -0.002433999 0.7763561 4278190080
-0.0018963083 -0.0026905879 0.77658457 4278190080
0.0011115965 -0.0012425722 0.77725035 4278190080
0.0074571366 -0.0044867098 0.7781837 4278190080
0.0091490801 -0.0027859933 0.77862448 4278190080
0.010488661 -0.0030432302 0.77885354 4278190080
0.011828242 -0.0033004668 0.77908254 4278190080
0.013167823 -0.0035577037 0.77931154 4278190080
0.014507403 -0.0038149406 0.7795406 4278190080
0.016810583 -0.0062828325 0.77978283 4278190080
0.018526144 -0.004586651 0.78022766 4278190080
0.019865725 -0.0048438879 0.78045666 4278190080
0.021205306 -0.0051011248 0.78068572 4278190080
0.022544887 -0.0053583616 0.78091472 4278190080
0.023884468 -0.0056155985 0.78114372 4278190080
0.025224049 -0.0058728354 0.78137279 4278190080
-0.012842549 -0.00077319803 0.77610582 4278190080
-0.011506343 -0.0010297867 0.77633423 4278190080
-0.010170136 -0.0012863757 0.77656269 4278190080
-0.0061615161 -0.0020561425 0.77724802 4278190080
-0.0048253103 -0.0023127312 0.77747649 4278190080
-0.0034891036 -0.0025693201 0.77770495 4278190080
-0.00081669074 -0.003082498 0.77816182 4278190080
0.00051951554 -0.0033390869 0.77839029 4278190080
0.001855722 -0.0035956758 0.77861869 4278190080
0.0031919284 -0.0038522647 0.77884716 4278190080
0.0098729609 -0.0051352093 0.77998942 4278190080
0.011209167 -0.005391798 0.78021783 4278190080
0.012545374 -0.0056483871 0.78044629 4278190080
0.013881579 -0.0059049758 0.78067476 4278190080
0.015217787 -0.0061615645 0.78090316 4278190080
0.016553994 -0.0064181536 0.78113163 4278190080
0.0178902 -0.0066747423 0.78136009 4278190080
0.019226404 -0.006931331 0.78158849 4278190080
0.020562612 -0.0071879202 0.78181696 4278190080
0.021898819 -0.0074445093 0.78204542 4278190080
0.023235025 -0.007701098 0.78227389 4278190080
0.024571232 -0.0079576867 0.78250229 4278190080
-0.015771551 -0.00039534151 0.77699775 4278190080
-0.014435343 -0.00065193058 0.77722621 4278190080
-0.013099138 -0.00090851926 0.77745461 4278190080
-0.011762932 -0.0011651079 0.77768308 4278190080
-0.0080682719 -0.003899331 0.77815616 4278190080
-0.0040697758 -0.0046671536 0.77883977 4278190080
-0.0024094863 -0.0029612302 0.77928221 4278190080
-0.0010732798 -0.0032178191 0.77951068 4278190080
0.00026292654 -0.0034744081 0.77973908 4278190080
0.001599133 -0.003730997 0.77996755 4278190080
0.0039272169 -0.0062027993 0.78020698 4278190080
0.010230187 -0.0094378302 0.78112602 4278190080
0.013257042 -0.0079943854 0.78180206 4278190080
0.014589873 -0.0082503268 0.78202993 4278190080
0.015922705 -0.0085062673 0.7822578 4278190080
0.017633609 -0.0068100635 0.78270888 4278190080
0.018969815 -0.0070666522 0.78293735 4278190080
0.020306023 -0.0073232413 0.78316581 4278190080
0.02164223 -0.0075798305 0.78339422 4278190080
0.022978436 -0.0078364192 0.78362268 4278190080
0.024314642 -0.0080930078 0.78385115 4278190080
-0.027249927 -0.0024242646 0.77610379 4278190080
-0.025920467 -0.0026795575 0.77633113 4278190080
-0.016321205 -0.0024986651 0.77813435 4278190080
-0.014691932 -0.00078725163 0.778575 4278190080
-0.013655541 -0.0030105468 0.77859008 4278190080
-0.012322709 -0.0032664877 0.77881795 4278190080
-0.0029928845 -0.0050580739 0.78041303 4278190080
-0.0016600523 -0.0053140149 0.7806409 4278190080
-0.00032722033 -0.0055699558 0.78086877 4278190080
0.0010056118 -0.0058258967 0.78109664 4278190080
0.0023384439 -0.0060818377 0.78132451 4278190080
0.013963268 -0.010338346 0.7831499 4278190080
0.016999597 -0.0088971881 0.78383112 4278190080
0.018332429 -0.0091531286 0.78405899 4278190080
0.01966526 -0.00940907 0.78428686 4278190080
0.020998092 -0.0096650105 0.78451473 4278190080
0.022721848 -0.0079717403 0.78497154 4278190080
0.024058053 -0.008228329 0.78519994 4278190080
0.025791919 -0.0065370607 0.78565848 4278190080
-0.032949012 -0.0025254185 0.77643234 4278190080
-0.027505219 -0.0025589021 0.77744579 4278190080
-0.016577145 -0.0026336445 0.77947974 4278190080
-0.015244314 -0.0028895852 0.77970767 4278190080
-0.013911482 -0.0031455262 0.77993554 4278190080
-0.011551725 -0.0056224181 0.78017336 4278190080
-0.0075633507 -0.0063882968 0.78085524 4278190080
-0.0062338929 -0.0066435901 0.78108251 4278190080
0.0007496709 -0.0059608761 0.78244209 4278190080
0.0020825029 -0.0062168171 0.78266996 4278190080
0.017696349 -0.011238864 0.78517377 4278190080
0.022074984 -0.01005593 0.78608799 4278190080
0.023407817 -0.010311872 0.78631586 4278190080
0.02513767 -0.0086202389 0.7867772 4278190080
-0.030806463 -0.0051436224 0.77801335 4278190080
-0.029220665 -0.0034247932 0.77845365 4278190080
-0.027760513 -0.00269354 0.77878785 4278190080
-0.026565125 -0.0039347308 0.77890766 4278190080
-0.01712485 -0.0047358838 0.78060615 4278190080
-0.015795391 -0.004991177 0.78083348 4278190080
-0.014465933 -0.0052464698 0.78106076 4278190080
-0.013287417 -0.006484421 0.7811777 4278190080
-0.011959647 -0.0067393901 0.78140467 4278190080
-0.010631876 -0.0069943587 0.78163171 4278190080
-0.0025008123 -0.0075441063 0.78310639 4278190080
-0.0011713544 -0.0077993996 0.78333366 4278190080
0.00015810359 -0.0080546923 0.78356099 4278190080
0.010249826 -0.013027575 0.78503263 4278190080
0.011574223 -0.013281896 0.78525907 4278190080
0.012898619 -0.013536217 0.78548545 4278190080
0.021429431 -0.01213938 0.78719765 4278190080
-0.033960201 -0.0067437994 0.77868193 4278190080
-0.032639183 -0.0069974717 0.77890778 4278190080
-0.031318158 -0.0072511453 0.77913362 4278190080
-0.020181241 -0.0053440426 0.78138298 4278190080
-0.017525701 -0.0058539803 0.78183699 4278190080
-0.016197929 -0.0061089499 0.78206396 4278190080
-0.014870158 -0.0063639185 0.782291 4278190080
-0.013542386 -0.0066188881 0.78251797 4278190080
-0.012519236 -0.0088382419 0.78252023 4278190080
-0.011194839 -0.0090925628 0.78274667 4278190080
-0.0082313037 -0.0076387636 0.78342599 4278190080
-0.0069035324 -0.0078937327 0.78365302 4278190080
-0.0055757621 -0.0081487019 0.78388 4278190080
0.0010630921 -0.0094235465 0.78501505 4278190080
0.0037186339 -0.0099334847 0.78546906 4278190080
0.0050464044 -0.010188454 0.78569603 4278190080
0.0086711077 -0.012907378 0.78614306 4278190080
0.0099955043 -0.013161699 0.7863695 4278190080
0.011319901 -0.013416021 0.78659594 4278190080
0.012644297 -0.013670342 0.78682238 4278190080
0.013968694 -0.013924663 0.78704882 4278190080
0.015293091 -0.014178984 0.78727525 4278190080
0.018324114 -0.012738144 0.78796607 4278190080
0.019651884 -0.012993113 0.78819311 4278190080
0.020979654 -0.013248082 0.78842008 4278190080
0.022307426 -0.013503051 0.78864712 4278190080
-0.03314621 -0.0091050183 0.78002179 4278190080
-0.031828564 -0.0093580438 0.78024703 4278190080
-0.030250806 -0.0076386021 0.78069299 4278190080
-0.027608763 -0.0081459479 0.78114468 4278190080
-0.026017522 -0.0064291563 0.78159291 4278190080
-0.016746745 -0.0082094045 0.78317785 4278190080
-0.01542235 -0.0084637245 0.78340429 4278190080
-0.014097953 -0.0087180464 0.78363073 4278190080
-0.012773557 -0.0089723673 0.78385717 4278190080
-0.01144916 -0.0092266882 0.7840836 4278190080
-0.010124763 -0.0094810091 0.78430998 4278190080
-0.0048271776 -0.010498294 0.78521574 4278190080
-0.0031751893 -0.0087931063 0.78567433 4278190080
-0.0018474183 -0.0090480754 0.78590131 4278190080
-0.00051964755 -0.0093030445 0.78612834 4278190080
0.00080812327 -0.0095580136 0.78635532 4278190080
0.0057679941 -0.012532862 0.78702712 4278190080
0.0070923902 -0.012787183 0.78725356 4278190080
0.0084167868 -0.013041504 0.78748 4278190080
0.00937986 -0.015248795 0.78746849 4278190080
0.010700881 -0.015502468 0.78769433 4278190080
0.012021904 -0.015756141 0.78792018 4278190080
0.013342925 -0.016009813 0.78814602 4278190080
0.01503877 -0.014313109 0.78861213 4278190080
0.016363164 -0.01456743 0.78883857 4278190080
0.017687563 -0.014821751 0.789065 4278190080
0.019011959 -0.015076072 0.78929144 4278190080
-0.034841549 -0.0099724401 0.78101546 4278190080
-0.033525586 -0.010225141 0.7812404 4278190080
-0.032209624 -0.010477843 0.78146541 4278190080
-0.02918346 -0.0080260579 0.78225231 4278190080
-0.024947446 -0.006817603 0.78315622 4278190080
-0.010689148 -0.011577481 0.78541422 4278190080
-0.0077302912 -0.010123776 0.78609979 4278190080
-0.0064058951 -0.010378097 0.78632617 4278190080
-0.0050814985 -0.010632418 0.78655261 4278190080
-0.0011083093 -0.011395382 0.78723192 4278190080
0.00021608721 -0.011649703 0.78745836 4278190080
0.0015404837 -0.011904024 0.78768474 4278190080
0.0028648803 -0.012158344 0.78791118 4278190080
0.0051631196 -0.014621559 0.78812444 4278190080
0.006484142 -0.014875232 0.78835028 4278190080
0.0078051644 -0.015128905 0.78857613 4278190080
-0.031146366 -0.010863815 0.78301877 4278190080
-0.029699316 -0.010130977 0.7833578 4278190080
-0.028381668 -0.010384003 0.78358305 4278190080
-0.021228578 -0.0077146911 0.7851724 4278190080
-0.019904181 -0.0079690116 0.78539884 4278190080
-0.018579785 -0.0082233334 0.78562528 4278190080
-0.009621799 -0.011964938 0.7869736 4278190080
-0.0083007766 -0.012218611 0.78719944 4278190080
-0.0069797537 -0.012472284 0.78742528 4278190080
-0.0056587318 -0.012725958 0.78765112 4278190080
-0.0043377094 -0.01297963 0.78787696 4278190080
-0.0030166872 -0.013233304 0.78810281 4278190080
-0.0016956648 -0.013486977 0.78832865 4278190080
0.0019242344 -0.01620358 0.78876436 4278190080
0.0032418822 -0.016456606 0.7889896 4278190080
0.0043845777 -0.017686747 0.78909338 4278190080
-0.027317047 -0.010770469 0.78513843 4278190080
-0.02572774 -0.009054644 0.78559685 4278190080
-0.024131691 -0.0073401742 0.78605646 4278190080
-0.022807295 -0.0075944951 0.7862829 4278190080
-0.0214829 -0.007848816 0.78650928 4278190080
-0.020158503 -0.0081031369 0.78673571 4278190080
-0.019122627 -0.01032301 0.78672612 4278190080
-0.011659654 -0.014787603 0.78772193 4278190080
-0.010343693 -0.015040305 0.78794694 4278190080
-0.0077117719 -0.015545706 0.78839689 4278190080
-0.0063958103 -0.015798407 0.7886219 4278190080
0.0028159153 -0.017567316 0.79019678 4278190080
0.0041318764 -0.017820017 0.79042178 4278190080
0.0054478366 -0.018072719 0.79064673 4278190080
0.0067637977 -0.018325418 0.79087174 4278190080
-0.033221859 -0.012849345 0.78521687 4278190080
-0.031909272 -0.013101398 0.78544128 4278190080
-0.027570073 -0.010903911 0.78646851 4278190080
-0.026252424 -0.011156936 0.78669375 4278190080
-0.02466039 -0.0094421012 0.78715622 4278190080
-0.023339368 -0.0096957739 0.78738207 4278190080
-0.022018343 -0.0099494476 0.78760791 4278190080
-0.020981831 -0.012169037 0.78759485 4278190080
-0.014544277 -0.014415472 0.78860039 4278190080
-0.013228316 -0.014668172 0.78882533 4278190080
-0.011912355 -0.014920874 0.78905034 4278190080
-0.010596394 -0.015173575 0.78927529 4278190080
-0.0079644732 -0.015678978 0.7897253 4278190080
-0.0066485116 -0.015931679 0.78995025 4278190080
0.0012472533 -0.017447885 0.79130018 4278190080
0.0025632139 -0.017700586 0.79152519 4278190080
0.0038791753 -0.017953288 0.79175013 4278190080
0.019670704 -0.020985702 0.79444999 4278190080
0.020986667 -0.021238403 0.79467493 4278190080
-0.0347865 -0.01273022 0.78631747 4278190080
-0.033473913 -0.012982273 0.78654188 4278190080
-0.032161325 -0.013234327 0.78676629 4278190080
-0.026640624 -0.012274432 0.7879039 4278190080
-0.025324665 -0.012527132 0.78812885 4278190080
-0.024008704 -0.012779834 0.78835386 4278190080
-0.022692742 -0.013032535 0.78857881 4278190080
-0.021376783 -0.013285236 0.78880382 4278190080
-0.020060822 -0.013537938 0.78902882 4278190080
-0.013481016 -0.014801444 0.79015374 4278190080
-0.012472528 -0.017015126 0.7901324 4278190080
-0.011159941 -0.017267179 0.79035681 4278190080
-0.0098473541 -0.017519232 0.79058123 4278190080
-0.0085347677 -0.017771285 0.79080564 4278190080
-0.00065924815 -0.019283604 0.79215205 4278190080
0.0006533385 -0.019535657 0.79237646 4278190080
0.0019659251 -0.01978771 0.79260087 4278190080
0.0032785116 -0.020039763 0.79282528 4278190080
0.0045910985 -0.020291816 0.79304969 4278190080
0.012466618 -0.021804137 0.79439616 4278190080
0.013779204 -0.022056188 0.79462057 4278190080
0.015091792 -0.022308243 0.79484499 4278190080
0.016404377 -0.022560297 0.7950694 4278190080
0.017716965 -0.02281235 0.79529381 4278190080
0.019029552 -0.023064403 0.79551822 4278190080
0.020342138 -0.023316456 0.79574263 4278190080
-0.035288025 -0.014834862 0.78740251 4278190080
-0.033978809 -0.015086267 0.78762633 4278190080
-0.0326696 -0.015337672 0.7878502 4278190080
-0.031360384 -0.015589078 0.78807402 4278190080
-0.030051176 -0.015840482 0.78829783 4278190080
-0.028741959 -0.016091889 0.78852165 4278190080
-0.027432749 -0.016343294 0.78874552 4278190080
-0.025577366 -0.012660404 0.78945726 4278190080
-0.024261406 -0.012913105 0.78968221 4278190080
-0.022945443 -0.013165806 0.78990722 4278190080
-0.021629484 -0.013418507 0.79013222 4278190080
-0.020600101 -0.015635734 0.79011095 4278190080
-0.019287514 -0.015887788 0.79033536 4278190080
-0.017974928 -0.016139841 0.79055977 4278190080
-0.012724581 -0.017148053 0.79145736 4278190080
-0.011411994 -0.017400108 0.79168177 4278190080
-0.010099407 -0.017652161 0.79190618 4278190080
-0.0077945641 -0.020114372 0.79210299 4278190080
-0.0064853518 -0.020365778 0.79232681 4278190080
-0.0051761395 -0.020617183 0.79255062 4278190080
0.0030264584 -0.020172693 0.79415029 4278190080
0.0039883466 -0.02237702 0.79411745 4278190080
0.0052975584 -0.022628425 0.79434127 4278190080
0.015771259 -0.024639668 0.79613197 4278190080
0.017080469 -0.024891073 0.79635578 4278190080
0.018389681 -0.025142478 0.7965796 4278190080
0.019698894 -0.025393883 0.79680341 4278190080
-0.03553943 -0.014967449 0.78872406 4278190080
-0.034230217 -0.015218855 0.78894794 4278190080
-0.032921005 -0.01547026 0.78917176 4278190080
-0.031611789 -0.015721666 0.78939557 4278190080
-0.03030258 -0.015973071 0.78961939 4278190080
-0.028993366 -0.016224476 0.78984326 4278190080
-0.027684154 -0.016475881 0.79006708 4278190080
-0.0261025 -0.014760451 0.79053825 4278190080
-0.024789914 -0.015012505 0.79076266 4278190080
-0.023477327 -0.015264558 0.79098707 4278190080
-0.02216474 -0.015516611 0.79121149 4278190080
-0.020852154 -0.015768664 0.7914359 4278190080
-0.019539567 -0.016020717 0.79166031 4278190080
-0.015901243 -0.018738529 0.79208153 4278190080
-0.014592031 -0.018989934 0.79230541 4278190080
-0.013282819 -0.019241339 0.79252923 4278190080
-0.011973606 -0.019492744 0.79275304 4278190080
-0.010664394 -0.019744148 0.79297692 4278190080
-0.0093551818 -0.019995555 0.79320073 4278190080
-0.0080459695 -0.02024696 0.79342455 4278190080
-0.0067367572 -0.020498365 0.79364836 4278190080
-0.0041183326 -0.021001175 0.79409605 4278190080
-0.0028091203 -0.02125258 0.79431987 4278190080
-0.001499908 -0.021503987 0.79454368 4278190080
-0.00019069573 -0.021755392 0.79476756 4278190080
0.0011185165 -0.022006797 0.79499137 4278190080
0.0024277291 -0.022258202 0.79521519 4278190080
0.0037369411 -0.022509607 0.795439 4278190080
0.0046927384 -0.024712238 0.79540163 4278190080
0.01421064 -0.02452085 0.79722971 4278190080
0.015519854 -0.024772255 0.79745352 4278190080
0.016829064 -0.02502366 0.79767734 4278190080
0.018138276 -0.025275065 0.79790115 4278190080
0.019447487 -0.02552647 0.79812503 4278190080
-0.034481622 -0.015351442 0.79026949 4278190080
-0.03317241 -0.015602847 0.79049331 4278190080
-0.031863198 -0.015854253 0.79071718 4278190080
-0.030292315 -0.014137221 0.79119003 4278190080
-0.029244771 -0.016357062 0.79116482 4278190080
-0.027935561 -0.016608467 0.79138863 4278190080
-0.026354553 -0.01489338 0.79186326 4278190080
-0.025041968 -0.015145433 0.79208767 4278190080
-0.02372938 -0.015397486 0.79231209 4278190080
-0.022416793 -0.01564954 0.7925365 4278190080
-0.021104207 -0.015901593 0.79276091 4278190080
-0.020080287 -0.018116899 0.79273164 4278190080
-0.018771073 -0.018368306 0.79295546 4278190080
-0.017461862 -0.018619711 0.79317933 4278190080
-0.016152648 -0.018871116 0.79340315 4278190080
-0.014843437 -0.01912252 0.79362696 4278190080
-0.011228075 -0.021835396 0.7940408 4278190080
-0.0099222371 -0.022086153 0.79426402 4278190080
-0.008616399 -0.022336911 0.7944873 4278190080
-0.0073105609 -0.022587668 0.79471052 4278190080
-0.0060047228 -0.022838425 0.7949338 4278190080
-0.0046988847 -0.023089183 0.79515702 4278190080
-0.0033930468 -0.02333994 0.79538029 4278190080
0.00052446744 -0.024092212 0.79605007 4278190080
0.0018303057 -0.024342969 0.79627329 4278190080
0.0031361438 -0.024593726 0.79649657 4278190080
0.0042655985 -0.025819926 0.79658753 4278190080
0.00556975 -0.02607036 0.79681051 4278190080
0.0068738996 -0.026320793 0.79703343 4278190080
0.016002957 -0.028073827 0.79859424 4278190080
0.01861126 -0.028574692 0.79904014 4278190080
-0.035794713 -0.013261937 0.79161739 4278190080
-0.034482125 -0.01351399 0.7918418 4278190080
-0.033169542 -0.013766043 0.79206622 4278190080
-0.031470492 -0.01106507 0.7926684 4278190080
-0.03028335 -0.012302113 0.79276747 4278190080
-0.029231779 -0.014522202 0.79273945 4278190080
-0.027919192 -0.014774256 0.7929638 4278190080
-0.026606606 -0.01502631 0.79318821 4278190080
-0.025294021 -0.015278363 0.79341263 4278190080
-0.023981435 -0.015530416 0.79363704 4278190080
-0.022668846 -0.01578247 0.79386145 4278190080
-0.02135626 -0.016034521 0.79408586 4278190080
-0.020331692 -0.018249488 0.7940532 4278190080
-0.019022478 -0.018500892 0.79427707 4278190080
-0.018008024 -0.020713855 0.79424268 4278190080
-0.016702186 -0.020964613 0.7944659 4278190080
-0.015396347 -0.02121537 0.79468918 4278190080
-0.014090508 -0.021466127 0.79491246 4278190080
-0.0090263449 -0.023447668 0.79567432 4278190080
-0.0064180428 -0.023948533 0.79612023 4278190080
-0.0049496423 -0.023221428 0.79647523 4278190080
-0.003643804 -0.023472186 0.79669845 4278190080
-0.0023379661 -0.023722943 0.79692173 4278190080
-0.0010321279 -0.0239737 0.79714495 4278190080
0.00010271217 -0.0252007 0.79723507 4278190080
0.0014068632 -0.025451135 0.79745805 4278190080
0.0027110139 -0.025701568 0.79768103 4278190080
0.0040151654 -0.025952 0.79790395 4278190080
0.0053193169 -0.026202435 0.79812694 4278190080
0.0062645893 -0.028402172 0.79808074 4278190080
0.012768474 -0.0296511 0.79919267 4278190080
0.014069249 -0.029900884 0.79941505 4278190080
0.015370026 -0.030150671 0.79963744 4278190080
0.017056676 -0.028456334 0.80013365 4278190080
0.018360827 -0.028706769 0.80035663 4278190080
-0.035799894 -0.011424579 0.7931959 4278190080
-0.034734178 -0.013646919 0.79316676 4278190080
-0.033421595 -0.013898972 0.79339117 4278190080
-0.031723518 -0.01119851 0.79399848 4278190080
-0.030536052 -0.012435383 0.79409581 4278190080
-0.029483832 -0.014655132 0.7940644 4278190080
-0.028171245 -0.014907185 0.79428881 4278190080
-0.026858659 -0.015159238 0.79451323 4278190080
-0.025546074 -0.015411291 0.79473764 4278190080
-0.024233488 -0.015663344 0.79496205 4278190080
-0.023201521 -0.017879264 0.79492712 4278190080
-0.021892307 -0.018130669 0.79515094 4278190080
-0.020870456 -0.020344587 0.79511434 4278190080
-0.019564619 -0.020595344 0.79533756 4278190080
-0.018258782 -0.020846101 0.79556084 4278190080
-0.016952943 -0.021096857 0.79578412 4278190080
-0.015647104 -0.021347616 0.79600734 4278190080
-0.014493383 -0.022578008 0.79609895 4278190080
-0.013189231 -0.022828443 0.79632187 4278190080
-0.01188508 -0.023078876 0.79654485 4278190080
-0.010580929 -0.023329308 0.79676783 4278190080
-0.0092767784 -0.023579743 0.79699081 4278190080
-0.0079726269 -0.023830175 0.79721373 4278190080
-0.0066684759 -0.024080608 0.79743671 4278190080
-0.0053643249 -0.024331043 0.7976597 4278190080
-0.0040601739 -0.024581475 0.79788268 4278190080
-0.0027560231 -0.02483191 0.7981056 4278190080
-0.0014518722 -0.025082342 0.79832858 4278190080
-0.00048907939 -0.027284978 0.79828185 4278190080
0.00081169733 -0.027534764 0.79850423 4278190080
0.0021124736 -0.027784549 0.79872662 4278190080
0.0034132511 -0.028034335 0.798949 4278190080
0.0047140275 -0.028284119 0.79917139 4278190080
0.0060148039 -0.028533906 0.79939377 4278190080
0.0073155807 -0.02878369 0.79961616 4278190080
0.0086163571 -0.029033476 0.79983854 4278190080
0.0099171335 -0.029283261 0.80006099 4278190080
0.011217912 -0.029533047 0.80028337 4278190080
0.012518689 -0.029782832 0.80050576 4278190080
0.013819464 -0.030032618 0.80072814 4278190080
0.015120241 -0.030282402 0.80095053 4278190080
0.016806243 -0.028588409 0.80145013 4278190080
0.018110393 -0.028838843 0.80167305 4278190080
-0.034736633 -0.011810551 0.79474926 4278190080
-0.033420675 -0.012063252 0.79497427 4278190080
-0.031463847 -0.007395891 0.79584593 4278190080
-0.030658895 -0.011584978 0.79555386 4278190080
-0.029472794 -0.012821355 0.79564923 4278190080
-0.028156832 -0.013074057 0.79587418 4278190080
-0.027110713 -0.015292168 0.79583818 4278190080
-0.025798127 -0.015544221 0.79606259 4278190080
-0.024485542 -0.015796274 0.796287 4278190080
-0.023452928 -0.018011851 0.79624867 4278190080
-0.022143712 -0.018263256 0.79647255 4278190080
-0.021121213 -0.020476831 0.7964325 4278190080
-0.019815376 -0.02072759 0.79665577 4278190080
-0.018509539 -0.020978346 0.79687899 4278190080
-0.0172037 -0.021229103 0.79710227 4278190080
-0.016047966 -0.02245965 0.79719239 4278190080
-0.014743816 -0.022710083 0.79741538 4278190080
-0.013439665 -0.022960518 0.79763836 4278190080
-0.012135513 -0.02321095 0.79786134 4278190080
-0.010831363 -0.023461383 0.79808426 4278190080
-0.0095272111 -0.023711817 0.79830724 4278190080
-0.0082230605 -0.02396225 0.79853022 4278190080
-0.0069189095 -0.024212684 0.7987532 4278190080
-0.0059419712 -0.02641757 0.79870534 4278190080
-0.003340418 -0.026917141 0.79915011 4278190080
-0.0020396414 -0.027166925 0.79937249 4278190080
0.00021783756 -0.029617652 0.79954362 4278190080
0.0015152399 -0.029866789 0.79976541 4278190080
0.0028126428 -0.030115927 0.79998726 4278190080
0.0041100448 -0.030365065 0.80020905 4278190080
0.0054074475 -0.030614201 0.80043089 4278190080
0.0096673481 -0.029414995 0.80137402 4278190080
0.010968126 -0.029664779 0.8015964 4278190080
0.012268904 -0.029914565 0.80181879 4278190080
0.013569678 -0.03016435 0.80204117 4278190080
0.014870455 -0.030414136 0.80226356 4278190080
0.016555808 -0.028720483 0.80276656 4278190080
0.01785996 -0.028970918 0.80298954 4278190080
-0.034366958 -0.0070213745 0.79672998 4278190080
-0.033042561 -0.007275695 0.79695642 4278190080
-0.031718165 -0.0075300164 0.79718286 4278190080
-0.030652842 -0.0097513488 0.79714662 4278190080
-0.029594274 -0.011971444 0.79710925 4278190080
-0.028409533 -0.013207328 0.79720259 4278190080
-0.027362766 -0.015425096 0.79716319 4278190080
-0.02605018 -0.01567715 0.7973876 4278190080
-0.024737595 -0.015929203 0.79761201 4278190080
-0.023704333 -0.018144438 0.79757029 4278190080
-0.022395119 -0.018395845 0.7977941 4278190080
-0.021371972 -0.020609077 0.79775065 4278190080
-0.020066135 -0.020859834 0.79797393 4278190080
-0.018760296 -0.021110592 0.79819715 4278190080
-0.01760255 -0.022341292 0.7982859 4278190080
-0.016298398 -0.022591725 0.79850888 4278190080
-0.01499425 -0.022842158 0.79873186 4278190080
-0.013690098 -0.023092592 0.79895484 4278190080
-0.012385947 -0.023343025 0.79917777 4278190080
-0.011081796 -0.023593459 0.79940075 4278190080
-0.0097776446 -0.023843892 0.79962373 4278190080
-0.0087933103 -0.026049731 0.79957366 4278190080
-0.0074925334 -0.026299518 0.79979604 4278190080
-0.0061917566 -0.026549302 0.80001843 4278190080
-0.0048909802 -0.026799088 0.80024081 4278190080
-0.0035902034 -0.027048875 0.8004632 4278190080
-0.0026261045 -0.029250769 0.80040967 4278190080
0.003507348 -0.032445382 0.80123991 4278190080
0.0048013763 -0.032693874 0.8014611 4278190080
0.006455713 -0.03099473 0.80196232 4278190080
0.0077531156 -0.031243868 0.80218416 4278190080
0.0094175627 -0.029546726 0.80268705 4278190080
0.010718341 -0.029796513 0.80290949 4278190080
0.012019117 -0.030046299 0.80313188 4278190080
0.013319893 -0.030296084 0.80335426 4278190080
0.015001223 -0.028602125 0.80386007 4278190080
0.016305376 -0.02885256 0.80408305 4278190080
0.017609525 -0.029102992 0.80430603 4278190080
-0.03462128 -0.0071554994 0.79806691 4278190080
-0.033296883 -0.0074098203 0.79829335 4278190080
-0.031972487 -0.0076641412 0.79851973 4278190080
-0.030906513 -0.0098851323 0.79848009 4278190080
-0.029847298 -0.012104886 0.79843932 4278190080
-0.028662233 -0.013340599 0.798531 4278190080
-0.027346274 -0.013593299 0.79875594 4278190080
-0.026302233 -0.015810078 0.79871255 4278190080
-0.024989648 -0.016062131 0.79893696 4278190080
-0.023955738 -0.018277027 0.79889184 4278190080
-0.022928566 -0.020490566 0.79884559 4278190080
-0.021765435 -0.021722067 0.79893351 4278190080
-0.020461285 -0.0219725 0.79915643 4278190080
-0.019157136 -0.022222932 0.79937941 4278190080
-0.017852984 -0.022473367 0.79960239 4278190080
-0.016847756 -0.024682753 0.79955238 4278190080
-0.015546978 -0.024932539 0.79977477 4278190080
-0.014246203 -0.025182324 0.79999715 4278190080
-0.012945425 -0.02543211 0.80021954 4278190080
-0.011644648 -0.025681894 0.80044192 4278190080
-0.010343872 -0.025931681 0.80066431 4278190080
-0.0090430956 -0.026181465 0.80088669 4278190080
-0.0077423188 -0.026431251 0.80110908 4278190080
-0.0067674494 -0.028634747 0.80105388 4278190080
-0.0054700468 -0.028883884 0.80127567 4278190080
-0.0041726446 -0.029133022 0.80149746 4278190080
0.00067080243 -0.032079455 0.80210364 4278190080
0.001964831 -0.032327943 0.80232489 4278190080
0.0032588586 -0.032576431 0.80254614 4278190080
0.0045528868 -0.032824922 0.8027674 4278190080
0.0062065753 -0.031126121 0.80327201 4278190080
0.0075039784 -0.031375259 0.8034938 4278190080
0.0091677774 -0.02967846 0.80400014 4278190080
0.010468556 -0.029928247 0.80422252 4278190080
0.012142489 -0.028233333 0.80473059 4278190080
0.013446639 -0.028483767 0.80495358 4278190080
0.01475079 -0.0287342 0.80517656 4278190080
0.016246576 -0.028013285 0.80554318 4278190080
0.017552413 -0.028264042 0.80576646 4278190080
-0.034875602 -0.0072896248 0.79940379 4278190080
-0.033551205 -0.0075439452 0.79963022 4278190080
-0.032226808 -0.0077982661 0.79985666 4278190080
-0.031160187 -0.010018916 0.79981363 4278190080
-0.030100323 -0.012238327 0.7997694 4278190080
-0.028914934 -0.013473869 0.79985934 4278190080
-0.027598975 -0.013726571 0.80008435 4278190080
-0.026554286 -0.015943008 0.80003756 4278190080
-0.025241701 -0.016195061 0.80026197 4278190080
-0.024207143 -0.018409614 0.8002134 4278190080
-0.023179322 -0.020622812 0.80016375 4278190080
-0.02201587 -0.021854142 0.80024993 4278190080
-0.02071172 -0.022104574 0.80047292 4278190080
-0.019407568 -0.022355007 0.8006959 4278190080
-0.018103417 -0.022605442 0.80091888 4278190080
-0.01709754 -0.024814487 0.80086541 4278190080
-0.015796764 -0.025064271 0.8010878 4278190080
-0.014495988 -0.025314057 0.80131018 4278190080
-0.01319521 -0.025563842 0.80153257 4278190080
-0.011894435 -0.025813628 0.80175495 4278190080
-0.010908795 -0.028018726 0.80169809 4278190080
-0.0096113915 -0.028267864 0.80191988 4278190080
-0.0083139893 -0.028517 0.80214173 4278190080
-0.0070165871 -0.028766138 0.80236351 4278190080
-0.0057191844 -0.029015277 0.8025853 4278190080
-0.0010427807 -0.03293708 0.8030467 4278190080
0.00024956066 -0.033185244 0.80326766 4278190080
0.0015419011 -0.033433408 0.80348861 4278190080
0.0030103689 -0.032707483 0.80385238 4278190080
0.0043043974 -0.032955971 0.80407363 4278190080
0.0059574381 -0.031257514 0.80458164 4278190080
0.0072548408 -0.03150665 0.80480343 4278190080
0.008917992 -0.029810194 0.80531317 4278190080
0.010587903 -0.028114974 0.8058241 4278190080
0.011892055 -0.028365409 0.80604708 4278190080
0.013196206 -0.028615842 0.80627006 4278190080
0.014500356 -0.028866274 0.80649298 4278190080
0.015995819 -0.028145531 0.8068614 4278190080
0.017301656 -0.028396288 0.80708462 4278190080
-0.03475941 -0.0044717947 0.8011474 4278190080
-0.033555139 -0.0057107299 0.80123883 4278190080
-0.032227371 -0.005965698 0.80146587 4278190080
-0.031156734 -0.0081867129 0.80141997 4278190080
-0.030092839 -0.010406372 0.80137295 4278190080
-0.0290357 -0.012624795 0.80132478 4278190080
-0.027851677 -0.013859841 0.8014127 4278190080
-0.026535716 -0.014112542 0.80163771 4278190080
-0.025493754 -0.01632799 0.80158693 4278190080
-0.024181167 -0.016580043 0.80181134 4278190080
-0.023430081 -0.020755058 0.8014819 4278190080
-0.022266302 -0.021986216 0.80156642 4278190080
-0.020962153 -0.022236649 0.8017894 4278190080
-0.019658003 -0.022487083 0.80201232 4278190080
-0.018648103 -0.024696434 0.80195606 4278190080
-0.017347327 -0.024946218 0.80217844 4278190080
-0.01604655 -0.025196005 0.80240089 4278190080
-0.014745774 -0.025445789 0.80262327 4278190080
-0.013444996 -0.025695575 0.80284566 4278190080
-0.012455334 -0.027900981 0.80278593 4278190080
-0.011157932 -0.028150117 0.80300772 4278190080
-0.0098605296 -0.028399255 0.80322957 4278190080
-0.0085631264 -0.028648393 0.80345136 4278190080
-0.0025832867 -0.032819793 0.80413032 4278190080
-0.0012909463 -0.033067957 0.80435127 4278190080
1.3950198e-06 -0.033316124 0.80457222 4278190080
0.0012937355 -0.033564288 0.80479318 4278190080
0.0027618797 -0.032838531 0.80515862 4278190080
0.0040559079 -0.033087023 0.80537987 4278190080
0.0057083005 -0.031388905 0.80589128 4278190080
0.0070057036 -0.031638041 0.80611312 4278190080
0.0086682066 -0.029941926 0.80662626 4278190080
0.010337469 -0.028247049 0.80714059 4278190080
0.011827546 -0.027525505 0.80750978 4278190080
0.013133386 -0.027776262 0.80773306 4278190080
0.014439223 -0.028027019 0.80795628 4278190080
-0.034768343 -0.0026388441 0.802764 4278190080
-0.033685245 -0.0048617255 0.80271673 4278190080
-0.032482337 -0.0061001652 0.8028062 4278190080
-0.031411055 -0.0083208373 0.80275691 4278190080
-0.030346511 -0.010540156 0.80270642 4278190080
-0.029025489 -0.010793828 0.80293232 4278190080
-0.028104378 -0.013993111 0.80274111 4278190080
-0.026788417 -0.014245813 0.80296612 4278190080
-0.025745807 -0.01646092 0.80291194 4278190080
-0.024709953 -0.018674789 0.80285656 4278190080
-0.023680838 -0.020887302 0.80280006 4278190080
-0.022516735 -0.022118291 0.80288291 4278190080
-0.021212585 -0.022368724 0.80310583 4278190080
-0.019908436 -0.022619158 0.80332881 4278190080
-0.018897889 -0.024828168 0.80326915 4278190080
-0.017597111 -0.025077952 0.80349153 4278190080
-0.016296335 -0.025327738 0.80371392 4278190080
-0.014995559 -0.025577523 0.8039363 4278190080
-0.013694781 -0.025827309 0.80415869 4278190080
-0.012704471 -0.028032372 0.80409557 4278190080
-0.011407069 -0.02828151 0.80431736 4278190080
-0.010109667 -0.028530646 0.8045392 4278190080
-0.0088122645 -0.028779784 0.80476099 4278190080
-0.0041237934 -0.032702506 0.80521393 4278190080
-0.0028314523 -0.03295067 0.80543488 4278190080
-0.0015391118 -0.033198837 0.80565584 4278190080
-0.00024677045 -0.033447001 0.80587673 4278190080
0.0012193625 -0.032721091 0.80624366 4278190080
0.00251339 -0.032969583 0.80646485 4278190080
0.0041617602 -0.03127116 0.80697912 4278190080
0.0058168685 -0.029574089 0.80749452 4278190080
0.0071176449 -0.029823875 0.80771691 4278190080
0.0087828869 -0.028128691 0.8082341 4278190080
0.010270952 -0.027406992 0.80860472 4278190080
0.011576789 -0.027657751 0.80882794 4278190080
-0.033940539 -0.0049963631 0.80405873 4278190080
-0.03261108 -0.0052516563 0.80428606 4278190080
-0.031409536 -0.006489601 0.8043735 4278190080
-0.030340981 -0.0087092835 0.80432022 4278190080
-0.029016582 -0.0089636054 0.80454665 4278190080
-0.028224101 -0.013144704 0.80421019 4278190080
-0.027041119 -0.014379084 0.80429447 4278190080
-0.025725156 -0.014631785 0.80451947 4278190080
-0.02496136 -0.018807376 0.80417812 4278190080
-0.023931595 -0.021019548 0.80411828 4278190080
-0.022767169 -0.022250365 0.80419934 4278190080
-0.02146302 -0.0225008 0.80442232 4278190080
-0.020158868 -0.022751233 0.8046453 4278190080
-0.018854717 -0.023001665 0.80486822 4278190080
-0.017846897 -0.025209686 0.80480456 4278190080
-0.016546121 -0.02545947 0.80502701 4278190080
-0.015245344 -0.025709257 0.80524939 4278190080
-0.013944566 -0.025959041 0.80547178 4278190080
-0.012953609 -0.028163763 0.8054052 4278190080
-0.011656207 -0.028412901 0.80562705 4278190080
-0.010358804 -0.028662037 0.80584884 4278190080
-0.0090614017 -0.028911175 0.80607069 4278190080
-0.0016171834 -0.032355163 0.80710739 4278190080
-0.0003231554 -0.032603651 0.80732864 4278190080
0.00097087311 -0.032852143 0.80754989 4278190080
0.0026152199 -0.031153413 0.80806696 4278190080
0.0042663058 -0.029456036 0.80858523 4278190080
0.0055670831 -0.029705822 0.80880761 4278190080
0.0072283028 -0.028010333 0.80932754 4278190080
0.0085324533 -0.028260766 0.80955052 4278190080
0.010387376 -0.025595319 0.81022161 4278190080
0.011696586 -0.025846723 0.81044543 4278190080
-0.033947393 -0.0031647442 0.80568272 4278190080
-0.032614563 -0.0034206847 0.80591059 4278190080
-0.031664506 -0.0066240677 0.80571377 4278190080
-0.030336736 -0.0068790368 0.80594081 4278190080
-0.029008964 -0.0071340059 0.80616778 4278190080
-0.028211813 -0.011315068 0.80582511 4278190080
-0.027159479 -0.01353117 0.80576557 4278190080
-0.025977857 -0.014765056 0.80584788 4278190080
-0.024937326 -0.01697883 0.80578631 4278190080
-0.023903551 -0.019191369 0.80572355 4278190080
-0.022876516 -0.021402551 0.80565965 4278190080
-0.021570679 -0.021653309 0.80588293 4278190080
-0.020409303 -0.022883307 0.80596173 4278190080
-0.019105151 -0.02313374 0.80618471 4278190080
-0.017801 -0.023384174 0.80640769 4278190080
-0.01649685 -0.023634607 0.80663067 4278190080
-0.01549513 -0.025840988 0.80656242 4278190080
-0.014194352 -0.026090775 0.80678481 4278190080
-0.013202746 -0.028295154 0.80671489 4278190080
-0.011905344 -0.028544292 0.80693668 4278190080
-0.010607942 -0.02879343 0.80715853 4278190080
-0.0093105398 -0.029042566 0.80738032 4278190080
