# .PCD v0.7 - Point Cloud Data file format
VERSION 0.7
FIELDS x y z
SIZE 4 4 4
TYPE F F F
COUNT 1 1 1
WIDTH 1341
HEIGHT 1
VIEWPOINT 0 0 0 1 0 0 0
POINTS 1341
DATA ascii
0.045425009 -0.039099302 0.79503435
0.0461272 -0.039170571 0.79510081
0.046840467 -0.03924264 0.79516798
0.047563795 -0.039315194 0.79523557
0.048296135 -0.039387777 0.79530317
0.049036302 -0.039459758 0.79537016
0.049880564 -0.039539203 0.79544389
0.05072891 -0.039614521 0.79551363
0.051580403 -0.039682876 0.79557645
0.05243374 -0.039739728 0.79562795
0.053286809 -0.03977751 0.79566079
0.054135576 -0.039782748 0.79566163
0.054970883 -0.039728664 0.79560429
0.05576745 -0.039552897 0.79542762
0.056445122 -0.0390848 0.79496437
0.05686279 -0.038026635 0.7939229
0.057123799 -0.036749974 0.79266763
0.037377104 -0.027284093 0.78346968
0.037516523 -0.027298329 0.78348297
0.037676401 -0.027314655 0.78349823
0.037859656 -0.027333369 0.78351563
0.038069248 -0.027354773 0.7835356
0.038307913 -0.027379144 0.78355837
0.03857787 -0.027406711 0.78358406
0.03888065 -0.027437631 0.78361291
0.039217044 -0.027471982 0.78364497
0.039587114 -0.027509773 0.7836802
0.03999028 -0.027550943 0.78371859
0.040425461 -0.027595384 0.78376007
0.040891211 -0.027642945 0.78380442
0.041385837 -0.027693454 0.7838515
0.041907523 -0.02774673 0.78390121
0.042454418 -0.027802577 0.78395331
0.043024678 -0.027860813 0.78400761
0.043616533 -0.027921256 0.78406399
0.044228315 -0.027983736 0.78412229
0.044858444 -0.0280481 0.78418231
0.045505468 -0.028114207 0.784244
0.046168033 -0.028181937 0.78430712
0.046844896 -0.028251186 0.78437173
0.04753489 -0.02832189 0.78443772
0.04823691 -0.028394016 0.78450501
0.048949882 -0.02846759 0.78457367
0.049672708 -0.028542716 0.78464383
0.050404202 -0.028619613 0.78471565
0.051142987 -0.02869866 0.78478956
0.051984649 -0.028791379 0.78487635
0.052828655 -0.028888879 0.78496784
0.053673007 -0.0289937 0.78506655
0.054514717 -0.029109942 0.78517646
0.055348851 -0.029244453 0.78530437
0.056166358 -0.029409371 0.78546226
0.056948159 -0.029628593 0.78567362
0.057646032 -0.029956967 0.78599262
0.058117457 -0.030542409 0.7865653
0.058112562 -0.031642724 0.78764606
0.057873275 -0.032921605 0.78890347
0.035477627 -0.027090121 0.78328878
0.035338208 -0.027075885 0.78327549
0.03517833 -0.027059559 0.78326029
0.034995079 -0.027040845 0.78324282
0.034785483 -0.027019441 0.78322285
0.034546819 -0.02699507 0.78320009
0.034276862 -0.026967503 0.7831744
0.033974081 -0.026936583 0.78314555
0.033637688 -0.026902232 0.78311354
0.033267617 -0.026864441 0.78307825
0.032864451 -0.026823271 0.78303987
0.03242927 -0.02677883 0.78299844
0.031963523 -0.026731269 0.78295404
0.031468894 -0.02668076 0.78290695
0.030947207 -0.026627487 0.78285724
0.030400315 -0.026571641 0.78280514
0.029830053 -0.026513409 0.78275084
0.029238194 -0.026452972 0.78269446
0.028626412 -0.026390506 0.78263623
0.027996276 -0.026326176 0.7825762
0.027349239 -0.026260136 0.78251463
0.026686646 -0.026192542 0.78245157
0.026009733 -0.026123548 0.78238726
0.025319647 -0.026053321 0.78232175
0.02461746 -0.025982052 0.78225529
0.023904191 -0.025909983 0.78218812
0.023180861 -0.025837431 0.78212047
0.022448525 -0.025764843 0.78205287
0.021708354 -0.025692863 0.78198594
0.020864094 -0.025613422 0.78191215
0.020015748 -0.025538102 0.78184247
0.019164255 -0.025469745 0.78177965
0.018310918 -0.025412895 0.78172809
0.017457848 -0.025375111 0.78169531
0.016609082 -0.025369875 0.78169447
0.015773775 -0.025423961 0.78175181
0.014977206 -0.025599726 0.78192848
0.014299534 -0.026067825 0.78239167
0.013881866 -0.02712599 0.7834332
0.013620857 -0.028402651 0.78468847
0.033367552 -0.03786853 0.79388636
0.033228133 -0.037854295 0.79387313
0.033068255 -0.037837967 0.79385787
0.032885004 -0.037819255 0.79384041
0.032675408 -0.03779785 0.79382044
0.032436743 -0.037773479 0.79379773
0.03216679 -0.037745912 0.79377204
0.031864006 -0.037714992 0.79374319
0.031527612 -0.037680641 0.79371113
0.031157544 -0.037642848 0.7936759
0.030754378 -0.03760168 0.79363751
0.030319197 -0.037557241 0.79359603
0.029853448 -0.03750968 0.79355168
0.029358821 -0.037459169 0.79350454
0.028837133 -0.037405893 0.79345489
0.028290242 -0.037350047 0.79340279
0.027719982 -0.03729181 0.79334849
0.027128123 -0.037231367 0.79329211
0.026516344 -0.037168887 0.79323381
0.025886215 -0.037104521 0.79317379
0.025239192 -0.037038416 0.7931121
0.024576623 -0.036970686 0.79304892
0.02389976 -0.036901437 0.79298431
0.023209769 -0.036830734 0.79291838
0.022507748 -0.036758605 0.79285109
0.021794776 -0.036685035 0.79278243
0.02107195 -0.036609907 0.79271227
0.020340456 -0.036533009 0.79264045
0.019601669 -0.036453962 0.79256654
0.018760007 -0.036361244 0.79247969
0.017916005 -0.036263745 0.7923882
0.017071649 -0.036158923 0.79228956
0.016229939 -0.036042679 0.79217958
0.015395807 -0.03590817 0.79205167
0.014578301 -0.035743251 0.79189384
0.013796499 -0.035524029 0.79168248
0.013098625 -0.035195656 0.79136348
0.012627202 -0.034610212 0.7907908
0.012632097 -0.033509899 0.78970999
0.012871383 -0.032231018 0.78845263
0.035268005 -0.038011819 0.79401749
0.035406135 -0.038025927 0.79403067
0.035564538 -0.038042102 0.79404575
0.035746094 -0.038060643 0.79406303
0.035953753 -0.038081847 0.79408282
0.036190212 -0.038105994 0.79410535
0.036457673 -0.038133305 0.7941308
0.036757659 -0.038163938 0.79415941
0.037090946 -0.038197976 0.79419112
0.037457593 -0.038235415 0.79422605
0.037857037 -0.038276207 0.79426414
0.038288195 -0.038320236 0.79430521
0.038749643 -0.038367357 0.79434913
0.039239697 -0.038417399 0.7943958
0.039756566 -0.038470183 0.79444504
0.040298406 -0.038525511 0.79449666
0.040863398 -0.038583204 0.79455048
0.041449789 -0.038643084 0.79460633
0.04205592 -0.038704973 0.79466403
0.042680234 -0.038768709 0.79472351
0.043321293 -0.038834136 0.79478449
0.043977767 -0.038901106 0.79484695
0.044648424 -0.038969465 0.79491073
0.045332134 -0.039039042 0.79497564
0.046027835 -0.039109651 0.79504144
0.046734512 -0.039181057 0.79510802
0.047451161 -0.039252937 0.79517502
0.048176732 -0.039324854 0.79524195
0.048910063 -0.039396167 0.79530829
0.049746525 -0.039474878 0.79538137
0.050587032 -0.0395495 0.79545045
0.051430658 -0.039617226 0.79551268
0.052276108 -0.039673552 0.79556376
0.053121299 -0.039710984 0.79559624
0.053962223 -0.039716173 0.79559708
0.054789811 -0.039662588 0.79554027
0.055579022 -0.039488446 0.79536521
0.056250434 -0.03902467 0.79490632
0.056664243 -0.037976284 0.79387444
0.056922842 -0.036711417 0.79263073
0.037358582 -0.027332991 0.78351784
0.037496712 -0.027347097 0.78353095
0.037655115 -0.027363272 0.78354603
0.037836675 -0.027381813 0.78356338
0.03804433 -0.027403019 0.7835831
0.038280793 -0.027427167 0.78360564
0.038548253 -0.027454479 0.78363115
0.038848236 -0.027485112 0.7836597
0.039181523 -0.027519146 0.78369147
0.039548174 -0.027556587 0.78372639
0.039947614 -0.027597377 0.78376442
0.040378775 -0.027641406 0.78380549
0.04084022 -0.027688529 0.78384942
0.041330278 -0.027738573 0.78389609
0.041847147 -0.027791355 0.78394532
0.042388987 -0.027846687 0.78399694
0.042953975 -0.027904384 0.78405076
0.043540366 -0.027964268 0.78410661
0.044146493 -0.028026171 0.78416437
0.044770803 -0.028089942 0.78422385
0.045411848 -0.028155439 0.78428495
0.046068292 -0.02822254 0.78434753
0.046738904 -0.028291151 0.78441155
0.047422521 -0.028361201 0.78447688
0.048118055 -0.028432662 0.78454357
0.048824441 -0.028505554 0.78461158
0.04954059 -0.028579988 0.78468108
0.050265323 -0.028656173 0.78475225
0.050997283 -0.02873449 0.78482544
0.051831171 -0.028826354 0.78491145
0.052667376 -0.028922953 0.78500211
0.053503931 -0.029026803 0.78509992
0.054337863 -0.029141974 0.78520882
0.055164289 -0.02927524 0.78533554
0.055974241 -0.029438637 0.78549194
0.056748822 -0.029655831 0.78570139
0.057440247 -0.029981172 0.78601742
0.057907317 -0.030561205 0.78658479
0.057902463 -0.031651355 0.78765559
0.057665389 -0.03291842 0.78890139
0.035476655 -0.027140813 0.78333855
0.035338525 -0.027126709 0.78332537
0.035180122 -0.027110532 0.78331029
0.034998562 -0.027091993 0.78329301
0.034790903 -0.027070787 0.78327322
0.034554444 -0.027046639 0.78325075
0.034286983 -0.027019328 0.78322524
0.033987001 -0.026988694 0.78319669
0.033653714 -0.026954658 0.78316492
0.033287063 -0.026917217 0.78312999
0.032887623 -0.026876427 0.78309196
0.032456461 -0.026832398 0.78305089
0.031995017 -0.026785277 0.78300697
0.031504959 -0.026735233 0.78296024
0.03098809 -0.026682453 0.782911
0.03044625 -0.026627121 0.78285944
0.029881259 -0.026569428 0.78280562
0.029294867 -0.026509549 0.78274977
0.028688738 -0.026447661 0.78269202
0.028064422 -0.026383925 0.78263259
0.027423365 -0.026318496 0.78257155
0.026766893 -0.026251527 0.78250909
0.026096232 -0.026183171 0.78244537
0.025412522 -0.026113592 0.78238046
0.024716821 -0.026042981 0.7823146
0.024010146 -0.025971577 0.78224808
0.023293497 -0.025899695 0.78218108
0.022567926 -0.02582778 0.78211409
0.021834595 -0.025756465 0.78204775
0.020998133 -0.025677755 0.78197467
0.020157626 -0.025603132 0.78190565
0.019314 -0.025535407 0.78184336
0.018468548 -0.025479082 0.78179234
0.017623359 -0.025441648 0.7817598
0.016782435 -0.025436459 0.78175896
0.015954845 -0.025490046 0.78181583
0.015165636 -0.025664188 0.78199083
0.014494224 -0.026127962 0.78244978
0.014080415 -0.02717635 0.7834816
0.013821817 -0.028441215 0.78472531
0.033386074 -0.037819643 0.79383826
0.033247944 -0.037805535 0.79382509
0.033089541 -0.03778936 0.79381001
0.032907985 -0.037770819 0.79379272
0.032700326 -0.037749615 0.79377294
0.032463867 -0.037725467 0.79375041
0.032196406 -0.037698153 0.79372495
0.03189642 -0.03766752 0.7936964
0.031563133 -0.037633486 0.79366463
0.031196484 -0.037596047 0.79362971
0.030797044 -0.037555255 0.79359168
0.030365882 -0.037511226 0.79355061
0.029904436 -0.037464105 0.79350662
0.02941438 -0.037414063 0.79345995
0.028897511 -0.037361279 0.79341072
0.028355673 -0.037305947 0.7933591
0.027790681 -0.03724825 0.79330534
0.02720429 -0.037188366 0.79324943
0.026598163 -0.037126463 0.79319173
0.025973855 -0.037062693 0.79313225
0.02533281 -0.036997195 0.79307115
0.024676364 -0.036930092 0.79300857
0.024005754 -0.036861483 0.79294455
0.023322137 -0.036791433 0.79287922
0.022626601 -0.036719974 0.79281253
0.021920217 -0.036647078 0.79274452
0.021204069 -0.036572646 0.79267502
0.020479335 -0.03649646 0.79260385
0.019747375 -0.036418144 0.7925306
0.018913487 -0.036326278 0.79244459
0.018077282 -0.036229681 0.79235393
0.017240727 -0.036125831 0.79225618
0.016406795 -0.03601066 0.79214728
0.015580367 -0.035877392 0.7920205
0.014770415 -0.035713997 0.79186416
0.013995836 -0.035496801 0.79165471
0.013304411 -0.03517146 0.79133862
0.012837343 -0.034591429 0.79077125
0.012842193 -0.033501279 0.78970045
0.013079267 -0.032234214 0.78845471
0.035268977 -0.037961114 0.79396772
0.035405818 -0.037975088 0.79398072
0.035562743 -0.037991114 0.79399568
0.035742607 -0.03800948 0.79401278
0.035948329 -0.03803049 0.79403239
0.036182582 -0.03805441 0.79405475
0.036447547 -0.038081467 0.79407996
0.036744736 -0.038111817 0.79410827
0.037074912 -0.038145531 0.79413974
0.037438139 -0.038182624 0.79417431
0.037833855 -0.038223036 0.79421198
0.038260993 -0.038266651 0.79425269
0.038718134 -0.038313333 0.79429621
0.039203621 -0.038362913 0.79434246
0.039715666 -0.038415201 0.79439121
0.040252451 -0.038470015 0.79444236
0.040812172 -0.038527172 0.7944957
0.041393094 -0.03858649 0.79455101
0.04199357 -0.038647801 0.79460818
0.042612061 -0.038710941 0.79466707
0.043247137 -0.038775761 0.79472756
0.043897487 -0.038842104 0.79478943
0.044561889 -0.038909823 0.79485255
0.045239221 -0.038978755 0.79491687
0.04592843 -0.039048705 0.79498208
0.046628516 -0.039119445 0.79504806
0.047338478 -0.039190654 0.7951144
0.04805728 -0.0392619 0.79518074
0.048783768 -0.03933255 0.79524648
0.049612429 -0.039410524 0.79531884
0.050445095 -0.039484452 0.79538727
0.051280849 -0.039551545 0.79544896
0.052118417 -0.039607342 0.7954995
0.052955721 -0.039644428 0.79553169
0.0537888 -0.039649568 0.79553252
0.054608665 -0.039596483 0.79547626
0.055390514 -0.039423965 0.79530287
0.056055661 -0.038964517 0.7948482
0.056465611 -0.03792591 0.79382598
0.056721799 -0.036672845 0.7925939
0.037340052 -0.02738191 0.78356594
0.037476894 -0.027395884 0.78357899
0.037633821 -0.027411908 0.78359395
0.037813686 -0.027430275 0.78361106
0.038019404 -0.027451282 0.78363067
0.038253658 -0.027475204 0.78365296
0.038518626 -0.027502263 0.78367817
0.038815811 -0.027532609 0.78370649
0.039145987 -0.027566327 0.78373796
0.039509218 -0.027603419 0.78377253
0.039904933 -0.027643828 0.78381026
0.040332071 -0.027687447 0.78385091
0.040789213 -0.027734129 0.78389448
0.041274697 -0.027783705 0.78394073
0.041786741 -0.027835995 0.78398949
0.042323526 -0.027890811 0.78404063
0.042883247 -0.02794797 0.78409392
0.043464169 -0.028007295 0.78414929
0.044064641 -0.028068623 0.78420645
0.044683125 -0.028131798 0.7842654
0.04531819 -0.028196683 0.7843259
0.04596851 -0.028263159 0.78438795
0.046632864 -0.028331131 0.78445131
0.047310106 -0.028400527 0.7845161
0.047999151 -0.028471319 0.78458214
0.048698947 -0.028543534 0.78464949
0.049408413 -0.028617272 0.78471833
0.050126389 -0.028692747 0.78478885
0.05085152 -0.028770333 0.78486139
0.051677626 -0.02886134 0.78494662
0.052506033 -0.028957037 0.78503644
0.05333478 -0.029059919 0.7851333
0.054160934 -0.029174015 0.78524119
0.054979652 -0.029306039 0.78536671
0.05578205 -0.029467911 0.78552169
0.0565494 -0.02968308 0.78572911
0.057234377 -0.030005384 0.78604227
0.057697088 -0.030580007 0.78660434
0.057692282 -0.031659987 0.78766513
0.057457421 -0.032915231 0.7888993
0.035475679 -0.027191523 0.78338838
0.035338838 -0.02717755 0.78337532
0.035181914 -0.027161526 0.78336036
0.035002049 -0.027143158 0.78334326
0.034796327 -0.027122149 0.78332365
0.034562074 -0.027098229 0.78330135
0.034297109 -0.027071171 0.78327608
0.033999924 -0.027040822 0.78324783
0.033669744 -0.027007107 0.78321636
0.033306517 -0.026970014 0.78318179
0.032910801 -0.026929604 0.78314406
0.032483663 -0.026885986 0.78310341
0.032026522 -0.026839303 0.78305984
0.031541038 -0.026789727 0.78301358
0.031028992 -0.026737439 0.78296483
0.030492205 -0.026682625 0.78291368
0.029932484 -0.026625467 0.7828604
0.029351562 -0.02656615 0.78280509
0.028751088 -0.026504839 0.78274786
0.028132597 -0.026441695 0.78268898
0.027497521 -0.026376877 0.78262854
0.026847171 -0.026310533 0.78256667
0.026182769 -0.026242815 0.78250349
0.025505437 -0.026173884 0.78243923
0.024816226 -0.026103932 0.78237396
0.024116142 -0.026033195 0.78230804
0.02340618 -0.025961984 0.7822417
0.022687377 -0.02589074 0.78217536
0.021960888 -0.02582009 0.78210962
0.021132229 -0.025742115 0.7820372
0.020299563 -0.025668187 0.78196883
0.019463807 -0.025601095 0.78190714
0.018626241 -0.025545293 0.78185654
0.017788937 -0.02550821 0.78182435
0.016955858 -0.025503069 0.78182352
0.016135991 -0.025556156 0.78187984
0.015354143 -0.025728673 0.78205323
0.014688995 -0.02618812 0.7825079
0.014279046 -0.027226729 0.78353012
0.01402286 -0.028479794 0.7847622
0.033404604 -0.03777073 0.7937901
0.033267763 -0.037756756 0.79377711
0.033110838 -0.03774073 0.79376215
0.032930974 -0.037722364 0.79374498
0.032725252 -0.037701357 0.79372543
0.032490999 -0.037677433 0.79370308
0.032226034 -0.037650377 0.79367787
0.031928848 -0.037620027 0.79364955
0.031598669 -0.037586313 0.79361808
0.03123544 -0.03754922 0.79358351
0.030839726 -0.037508808 0.79354584
0.030412586 -0.037465192 0.79350513
0.029955447 -0.037418511 0.79346162
0.029469961 -0.037368931 0.79341537
0.028957915 -0.037316643 0.79336655
0.02842113 -0.037261829 0.79331547
0.027861409 -0.037204668 0.79326212
0.027280489 -0.037145343 0.79320681
0.026680017 -0.037084017 0.79314959
0.026061533 -0.03702084 0.7930907
0.025426468 -0.036955956 0.79303014
0.024776146 -0.036889479 0.79296815
0.024111792 -0.036821507 0.79290473
0.023434553 -0.036752112 0.79284
0.022745507 -0.036681321 0.79277396
0.022045711 -0.036609106 0.79270655
0.021336244 -0.036535367 0.79263771
0.020618269 -0.036459893 0.79256719
0.019893138 -0.036382306 0.79249465
0.01906703 -0.036291298 0.79240948
0.018238625 -0.036195602 0.79231966
0.017409878 -0.036092721 0.7922228
0.016583724 -0.035978623 0.79211485
0.015765006 -0.035846598 0.79198933
0.014962609 -0.035684727 0.79183441
0.014195257 -0.035469558 0.79162693
0.01351028 -0.035147253 0.79131383
0.01304757 -0.034572631 0.79075176
0.013052376 -0.033492651 0.78969091
0.013287237 -0.032237407 0.7884568
0.03526995 -0.037910391 0.79391789
0.035405502 -0.03792423 0.79393077
0.035560951 -0.037940107 0.79394561
0.03573912 -0.037958298 0.79396254
0.035942901 -0.037979111 0.79398197
0.036174949 -0.038002804 0.79400408
0.036437418 -0.038029607 0.79402906
0.036731806 -0.03805967 0.79405713
0.037058875 -0.038093071 0.79408824
0.037418678 -0.038129814 0.79412252
0.037810668 -0.038169842 0.79415989
0.038233783 -0.038213048 0.79420018
0.038686614 -0.03825929 0.79424328
0.039167527 -0.038308401 0.79428911
0.039674751 -0.038360197 0.79433739
0.040206477 -0.038414493 0.79438806
0.040760927 -0.038471114 0.79444087
0.041336376 -0.038529873 0.7944957
0.041931193 -0.038590606 0.79455233
0.042543858 -0.038653154 0.79461068
0.043172952 -0.038717363 0.79467058
0.043817174 -0.038783081 0.79473186
0.044475317 -0.038850162 0.79479444
0.045146268 -0.038918443 0.7948581
0.045828987 -0.038987733 0.79492271
0.046522476 -0.039057806 0.79498804
0.047225747 -0.039128345 0.79505378
0.047937781 -0.03919892 0.79511946
0.048657425 -0.039268903 0.79518455
0.049478278 -0.039346144 0.79525632
0.050303102 -0.039419375 0.79532403
0.05113098 -0.039485835 0.79538512
0.051960658 -0.03954111 0.79543525
0.052790076 -0.039577845 0.79546714
0.053615306 -0.039582938 0.79546797
0.054427452 -0.039530352 0.79541218
0.055201933 -0.039359462 0.79524046
0.055860814 -0.038904339 0.79479009
0.0562669 -0.037875514 0.79377747
0.056520674 -0.036634255 0.792557
0.037321515 -0.027430845 0.7836141
0.037457068 -0.027444689 0.78362703
0.037612516 -0.027460562 0.78364182
0.037790686 -0.027478756 0.7836588
0.037994467 -0.027499566 0.78367817
0.038226515 -0.027523262 0.78370029
0.038488984 -0.027550066 0.78372532
0.038783371 -0.027580127 0.78375334
0.039110437 -0.027613526 0.78378451
0.039470244 -0.027650269 0.78381878
0.03986223 -0.027690299 0.78385609
0.040285345 -0.027733507 0.78389639
0.04073818 -0.027779749 0.78393954
0.041219093 -0.027828857 0.78398532
0.041726317 -0.027880654 0.78403366
0.042258043 -0.027934954 0.78408432
0.042812493 -0.027991574 0.78413713
0.043387938 -0.028050341 0.78419191
0.043982752 -0.028111091 0.78424859
0.044595409 -0.02817367 0.78430694
0.045224492 -0.028237944 0.78436691
0.045868691 -0.028303795 0.78442836
0.046526782 -0.028371125 0.78449112
0.047197644 -0.028439868 0.78455526
0.047880199 -0.028509993 0.7846207
0.048573401 -0.028581528 0.78468746
0.049276184 -0.028654572 0.78475565
0.049987394 -0.028729334 0.7848255
0.050705697 -0.028806191 0.78489733
0.051524021 -0.028896339 0.78498179
0.05234462 -0.028991135 0.78507072
0.053165562 -0.029093048 0.78516668
0.053983934 -0.029206069 0.78527355
0.054794941 -0.029336849 0.78539795
0.055589776 -0.029497195 0.78555137
0.0563499 -0.029710338 0.78575689
0.057028424 -0.030029608 0.78606707
0.057486776 -0.030598816 0.78662384
0.057482015 -0.031668622 0.78767467
0.057249367 -0.032912042 0.78889722
0.035474706 -0.027242254 0.78343821
0.035339154 -0.027228411 0.78342527
0.035183709 -0.027212538 0.78341049
0.035005536 -0.027194344 0.7833935
0.034801755 -0.027173534 0.78337407
0.034569707 -0.027149837 0.78335202
0.034307238 -0.027123036 0.78332698
0.03401285 -0.027092973 0.78329897
0.033685785 -0.027059574 0.7832678
0.033325978 -0.027022831 0.78323352
0.032933991 -0.026982803 0.78319621
0.032510877 -0.026939595 0.78315592
0.032058042 -0.026893353 0.78311276
0.031577129 -0.026844243 0.78306693
0.031069906 -0.026792446 0.78301865
0.030538179 -0.026738148 0.78296798
0.029983731 -0.026681531 0.78291517
0.029408282 -0.02662277 0.7828604
0.028813465 -0.026562037 0.78280371
0.0282008 -0.026499491 0.78274542
0.027571706 -0.026435282 0.78268552
0.026927484 -0.026369562 0.78262419
0.026269341 -0.026302483 0.78256166
0.025598388 -0.026234202 0.782498
0.024915671 -0.02616491 0.78243339
0.024222182 -0.026094837 0.78236806
0.023518909 -0.026024297 0.78230232
0.022806877 -0.025953723 0.78223658
0.022087231 -0.02588374 0.78217149
0.02126638 -0.0258065 0.78209978
0.020441558 -0.025733268 0.78203201
0.019613676 -0.025666807 0.78197092
0.018783998 -0.025611533 0.78192079
0.017954584 -0.025574798 0.7818889
0.01712935 -0.025569707 0.78188807
0.016317206 -0.025622291 0.78194386
0.015542726 -0.025793184 0.78211564
0.014883843 -0.026248304 0.78256601
0.014477757 -0.027277127 0.78357857
0.014223984 -0.028518388 0.7847991
0.033423141 -0.037721798 0.79374194
0.033287589 -0.037707955 0.79372907
0.033132143 -0.037692081 0.79371423
0.032953974 -0.037673887 0.7936973
0.032750189 -0.037653077 0.79367787
0.032518141 -0.037629381 0.79365575
0.032255672 -0.037602577 0.79363078
0.031961288 -0.037572518 0.79360271
0.031634219 -0.037539117 0.79357159
0.031274412 -0.037502375 0.79353732
0.030882426 -0.037462346 0.79349995
0.030459311 -0.037419137 0.79345965
0.030006476 -0.037372895 0.7934165
0.029525565 -0.037323784 0.79337072
0.029018342 -0.037271988 0.79332238
0.028486615 -0.037217692 0.79327178
0.027932167 -0.037161071 0.79321897
0.02735672 -0.037102301 0.79316413
0.026761904 -0.037041552 0.79310745
0.026149247 -0.036978975 0.7930491
0.025520165 -0.036914699 0.79298913
0.024875969 -0.036848851 0.79292774
0.024217874 -0.03678152 0.79286492
0.023547012 -0.036712777 0.79280078
0.022864459 -0.036642652 0.79273534
0.022171255 -0.036571115 0.79266858
0.021468472 -0.036498073 0.79260039
0.020757262 -0.036423307 0.79253054
0.020038961 -0.036346454 0.79245871
0.019220635 -0.036256306 0.79237431
0.018400036 -0.036161508 0.79228532
0.017579095 -0.036059596 0.79218936
0.016760722 -0.035946574 0.79208249
0.015949719 -0.035815794 0.79195815
0.01515488 -0.035655446 0.79180467
0.014394756 -0.035442304 0.79159915
0.013716234 -0.035123035 0.79128897
0.013257883 -0.034553826 0.7907322
0.013262642 -0.033484019 0.78968138
0.013495292 -0.032240603 0.78845888
0.035270926 -0.037859645 0.79386801
0.035405189 -0.037873354 0.79388082
0.035559155 -0.037889078 0.79389548
0.035735629 -0.037907097 0.79391229
0.035937473 -0.03792771 0.79393148
0.036167312 -0.037951179 0.79395342
0.036427286 -0.037977729 0.79397815
0.036718871 -0.038007505 0.79400593
0.037042826 -0.038040586 0.79403681
0.03739921 -0.038076978 0.79407072
0.037787467 -0.038116626 0.79410774
0.038206559 -0.038159423 0.79414761
0.038655084 -0.038205225 0.79419035
0.039131418 -0.038253866 0.79423571
0.039633818 -0.038305171 0.79428357
0.040160485 -0.038358953 0.79433376
0.040709659 -0.03841503 0.79438603
0.041279633 -0.038473234 0.79444033
0.041868791 -0.03853339 0.79449642
0.042475626 -0.038595341 0.79455423
0.043098737 -0.038658936 0.79461354
0.04373683 -0.038724031 0.79467428
0.044388711 -0.038790476 0.79473621
0.045053277 -0.038858104 0.79479927
0.045729499 -0.038926739 0.79486328
0.046416391 -0.038996141 0.79492795
0.047112975 -0.039066013 0.7949931
0.047818232 -0.039135914 0.79505819
0.048531029 -0.039205234 0.79512268
0.049344074 -0.039281737 0.79519373
0.050161045 -0.039354272 0.79526085
0.050981052 -0.039420102 0.79532135
0.051802836 -0.039474849 0.79537094
0.05262436 -0.039511234 0.79540253
0.053441741 -0.039516278 0.79540336
0.054246157 -0.039464191 0.79534811
0.055013269 -0.039294928 0.795178
0.055665884 -0.038844138 0.79473191
0.056068107 -0.0378251 0.79372895
0.056319464 -0.03659565 0.79252005
0.037302971 -0.027479803 0.78366226
0.037437234 -0.027493514 0.78367507
0.0375912 -0.027509237 0.78368974
0.037767675 -0.027527258 0.78370655
0.037969518 -0.02754787 0.78372574
0.038199361 -0.027571341 0.78374767
0.038459331 -0.027597887 0.78377241
0.038750917 -0.027627664 0.78380018
0.039074875 -0.027660746 0.78383106
0.039431259 -0.027697138 0.78386497
0.039819516 -0.027736787 0.78390199
0.040238604 -0.027779583 0.78394186
0.040687129 -0.027825385 0.7839846
0.041163467 -0.027874028 0.78402996
0.041665863 -0.027925333 0.78407782
0.04219253 -0.027979115 0.78412801
0.042741705 -0.028035197 0.78418028
0.043311678 -0.028093405 0.78423458
0.043900833 -0.028153576 0.78429073
0.044507664 -0.028215559 0.78434855
0.045130759 -0.028279223 0.78440791
0.045768827 -0.028344447 0.78446877
0.04642066 -0.028411137 0.784531
0.047085136 -0.028479224 0.78459448
0.047761198 -0.028548684 0.78465933
0.048447806 -0.028619537 0.78472543
0.049143903 -0.028691886 0.78479296
0.049848348 -0.028765939 0.78486216
0.050559811 -0.028842062 0.78493333
0.051370353 -0.028931353 0.78501695
0.052183144 -0.029025247 0.78510505
0.052996278 -0.029126192 0.78520006
0.05380686 -0.029238136 0.78530598
0.054610148 -0.029367672 0.78542912
0.055397425 -0.029526493 0.78558117
0.056150317 -0.029737609 0.78578472
0.056822386 -0.030053839 0.78609192
0.057276376 -0.030617634 0.78664339
0.057271659 -0.031677261 0.7876842
0.057041224 -0.032908849 0.78889513
0.035473734 -0.027293006 0.78348804
0.035339471 -0.027279295 0.78347528
0.035185501 -0.027263572 0.78346062
0.035009027 -0.027245551 0.78344381
0.034807183 -0.027224939 0.78342456
0.034577344 -0.027201468 0.78340268
0.034317371 -0.027174922 0.78337789
0.034025785 -0.027145145 0.78335011
0.03370183 -0.027112063 0.78331929
0.033345446 -0.027075671 0.78328532
0.032957189 -0.027036022 0.78324836
0.032538101 -0.026993226 0.78320843
0.032089572 -0.026947424 0.78316569
0.031613238 -0.026898781 0.78312033
0.031110842 -0.026847478 0.78307247
0.030584171 -0.026793696 0.78302234
0.030034998 -0.026737617 0.78297001
0.029465025 -0.026679417 0.78291571
0.028875865 -0.026619261 0.78285962
0.02826903 -0.026557308 0.78280187
0.027645921 -0.026493711 0.7827425
0.027007829 -0.026428618 0.78268182
0.026355946 -0.026362175 0.78261983
0.025691381 -0.026294544 0.78255677
0.025015157 -0.026225911 0.78249276
0.024328265 -0.026156506 0.78242809
0.023631683 -0.026086638 0.782363
0.022926427 -0.026016735 0.78229785
0.022213629 -0.025947416 0.78223342
0.021400586 -0.025870912 0.78216237
0.020583611 -0.025798377 0.78209525
0.019763606 -0.025732549 0.7820347
0.018941822 -0.0256778 0.7819851
0.018120298 -0.025641413 0.78195351
0.017302917 -0.025636371 0.78195268
0.0164985 -0.025688456 0.78200793
0.015731389 -0.025857722 0.78217804
0.015078773 -0.026308512 0.78262413
0.014676551 -0.027327547 0.78362709
0.014425192 -0.028556999 0.78483599
0.033441685 -0.037672844 0.79369378
0.033307422 -0.037659135 0.79368097
0.033153456 -0.03764341 0.7936663
0.032976981 -0.037625391 0.79364949
0.032775138 -0.037604779 0.7936303
0.032545298 -0.03758131 0.79360843
0.032285325 -0.03755476 0.79358363
0.031993739 -0.037524983 0.79355586
0.031669784 -0.037491903 0.79352498
0.031313401 -0.03745551 0.79349107
0.030925144 -0.037415862 0.79345411
0.030506054 -0.037373066 0.79341418
0.030057527 -0.037327264 0.79337144
0.029581191 -0.037278622 0.79332608
0.029078795 -0.037227318 0.79327822
0.028552126 -0.037173532 0.79322803
0.028002953 -0.037117451 0.79317576
0.02743298 -0.037059244 0.79312146
0.026843823 -0.036999073 0.79306531
0.026236996 -0.036937088 0.79300749
0.025613898 -0.036873426 0.79294813
0.024975833 -0.036808204 0.79288727
0.024323998 -0.036741514 0.7928251
0.023659522 -0.036673423 0.79276156
0.02298346 -0.036603965 0.79269677
0.022296852 -0.036533114 0.79263061
0.021600755 -0.036460765 0.79256308
0.020896312 -0.03638671 0.79249388
0.020184845 -0.036310587 0.79242271
0.019374305 -0.036221296 0.79233915
0.018561512 -0.036127403 0.79225099
0.01774838 -0.036026459 0.79215598
0.016937796 -0.035914514 0.79205012
0.016134508 -0.035784975 0.79192692
0.015347231 -0.035626154 0.79177493
0.01459434 -0.035415042 0.79157138
0.013922273 -0.03509881 0.79126412
0.013468281 -0.034535017 0.79071265
0.013472997 -0.033475388 0.78967184
0.013703433 -0.032243799 0.78846097
0.035271898 -0.037808873 0.79381812
0.035404872 -0.037822451 0.79383081
0.035557359 -0.037838023 0.79384536
0.035732139 -0.037855871 0.79386199
0.035932042 -0.037876286 0.793881
0.036159672 -0.037899528 0.7939027
0.036417149 -0.037925821 0.79392719
0.03670593 -0.03795531 0.79395473
0.037026774 -0.037988074 0.79398531
0.037379734 -0.03802412 0.79401892
0.037764259 -0.038063385 0.79405552
0.038179323 -0.038105771 0.79409504
0.038623538 -0.038151134 0.79413736
0.039095294 -0.038199309 0.7941823
0.039592866 -0.038250118 0.79422969
0.040114474 -0.038303383 0.7942794
0.04065837 -0.038358923 0.79433119
0.041222867 -0.038416564 0.79438496
0.041806363 -0.038476143 0.79444051
0.042407367 -0.038537499 0.79449773
0.043024488 -0.038600486 0.7945565
0.04365645 -0.038664956 0.79461664
0.044302065 -0.038730759 0.79467797
0.044960245 -0.03879774 0.79474044
0.045629971 -0.038865712 0.79480386
0.046310261 -0.038934451 0.79486793
0.047000151 -0.039003648 0.79493243
0.047698628 -0.039072879 0.79499686
0.048404578 -0.039141532 0.79506075
0.049209807 -0.039217301 0.79513109
0.050018933 -0.039289139 0.79519755
0.050831057 -0.039354336 0.79525751
0.051644944 -0.039408557 0.79530662
0.052458573 -0.039444592 0.79533792
0.053268097 -0.039449587 0.79533875
0.054064784 -0.039398003 0.79528403
0.054824527 -0.039230362 0.79511553
0.055470869 -0.038783904 0.79467374
0.055869229 -0.037774663 0.79368043
0.056118172 -0.036557026 0.79248315
0.037284419 -0.02752878 0.78371048
0.037417389 -0.027542358 0.78372312
0.03756988 -0.02755793 0.78373766
0.037744656 -0.027575778 0.78375429
0.037944563 -0.027596192 0.78377336
0.038172193 -0.027619436 0.78379506
0.038429666 -0.027645729 0.78381956
0.038718451 -0.027675219 0.78384709
0.039039291 -0.027707983 0.78387761
0.039392252 -0.027744027 0.78391123
0.03977678 -0.027783293 0.78394789
0.04019184 -0.02782568 0.7839874
0.040636055 -0.027871041 0.78402972
0.041107815 -0.027919216 0.78407466
0.041605383 -0.027970027 0.78412205
0.042126991 -0.028023293 0.7841717
0.042670887 -0.028078835 0.78422356
0.04323538 -0.028136484 0.78427732
0.043818876 -0.028196076 0.78433287
0.044419874 -0.028257465 0.78439015
0.045036983 -0.028320516 0.78444898
0.045668919 -0.028385114 0.78450924
0.046314489 -0.028451163 0.78457081
0.04697258 -0.028518597 0.78463376
0.047642145 -0.028587388 0.78469795
0.048322152 -0.028657561 0.7847634
0.049011562 -0.028729213 0.78483033
0.049709238 -0.028802555 0.78489882
0.050413866 -0.028877947 0.78496933
0.051216617 -0.02896638 0.78505212
0.0520216 -0.029059373 0.78513938
0.052826915 -0.029159347 0.7852335
0.053629711 -0.029270215 0.78533834
0.054425281 -0.029398507 0.78546035
0.055204991 -0.029555801 0.78561091
0.055950645 -0.029764887 0.7858125
0.056616254 -0.03007808 0.78611678
0.057065886 -0.030636456 0.78666294
0.057061218 -0.0316859 0.7876938
0.056832995 -0.032905653 0.78889304
0.035472758 -0.027343778 0.78353792
0.035339788 -0.027330197 0.78352523
0.035187297 -0.027314626 0.78351074
0.035012517 -0.027296778 0.78349406
0.034812614 -0.027276365 0.78347504
0.034584984 -0.027253119 0.78345335
0.034327511 -0.027226826 0.78342885
0.034038726 -0.027197337 0.78340131
0.033717882 -0.027164573 0.78337079
0.033364926 -0.027128531 0.78333718
0.032980397 -0.027089262 0.78330052
0.032565337 -0.027046878 0.783261
0.032121122 -0.027001515 0.78321868
0.031649362 -0.026953341 0.78317374
0.031151792 -0.02690253 0.78312635
0.030630184 -0.026849266 0.78307664
0.030086288 -0.026793726 0.78302485
0.029521793 -0.026736084 0.78297108
0.028938295 -0.026676506 0.78291553
0.028337291 -0.02661515 0.78285831
0.02772017 -0.026552163 0.78279954
0.027088208 -0.026487695 0.7827394
0.026442591 -0.026421892 0.78267807
0.025784411 -0.026354909 0.7826156
0.025114685 -0.026286935 0.78255224
0.024434395 -0.026218198 0.78248811
0.023744507 -0.026149001 0.78242368
0.023046028 -0.02607977 0.78235918
0.022340078 -0.026011117 0.78229535
0.021534849 -0.025935348 0.78222495
0.020725725 -0.02586351 0.78215849
0.019913599 -0.025798315 0.78209859
0.019099714 -0.025744092 0.78204942
0.018286087 -0.025708057 0.78201813
0.017476559 -0.025703061 0.78201735
0.016679872 -0.025754647 0.78207201
0.015920131 -0.025922285 0.78224051
0.015273788 -0.026368745 0.7826823
0.01487543 -0.027377987 0.78367567
0.014626487 -0.028595623 0.78487289
0.033460237 -0.037623867 0.79364556
0.033327267 -0.037610289 0.79363292
0.033174779 -0.037594717 0.79361838
0.033 -0.037576869 0.79360175
0.032800097 -0.037556458 0.79358268
0.032572463 -0.037533212 0.79356104
0.03231499 -0.037506919 0.79353648
0.032026205 -0.03747743 0.79350901
0.031705365 -0.037444666 0.79347843
0.031352405 -0.037408624 0.79344481
0.030967878 -0.037369356 0.79340822
0.030552818 -0.037326969 0.79336864
0.030108601 -0.037281606 0.79332632
0.029636843 -0.037233435 0.79328144
0.029139273 -0.037182622 0.79323399
0.028617665 -0.037129357 0.79318434
0.028073771 -0.037073813 0.79313254
0.027509276 -0.037016165 0.79307878
0.02692578 -0.036956571 0.79302317
0.026324783 -0.036895182 0.79296589
0.025707675 -0.036832131 0.79290712
0.025075739 -0.036767535 0.79284686
0.024430169 -0.036701486 0.79278523
0.023772078 -0.036634054 0.79272234
0.023102513 -0.036565263 0.79265815
0.022422504 -0.03649509 0.79259264
0.021733096 -0.036423434 0.79252577
0.021035422 -0.036350094 0.79245722
0.02033079 -0.036274701 0.79238677
0.019528041 -0.036186267 0.79230392
0.018723058 -0.036093276 0.79221666
0.017917741 -0.035993304 0.79212254
0.017114947 -0.035882432 0.7920177
0.016319377 -0.03575414 0.79189569
0.015539667 -0.035596848 0.79174513
0.014794011 -0.035387762 0.79154354
0.014128402 -0.035074569 0.79123926
0.013678773 -0.034516193 0.7906931
0.013683441 -0.033466749 0.7896623
0.013911664 -0.032246996 0.78846306
0.035272874 -0.037758082 0.79376823
0.035404555 -0.03777153 0.7937808
0.035555564 -0.037786949 0.79379517
0.035728645 -0.037804626 0.79381168
0.03592661 -0.037824839 0.79383051
0.036152031 -0.037847858 0.79385197
0.036407005 -0.037873898 0.79387629
0.036692984 -0.0379031 0.79390353
0.037010714 -0.037935548 0.79393375
0.037360247 -0.03797124 0.79396707
0.037741039 -0.038010124 0.79400331
0.038152073 -0.038052101 0.79404247
0.038591977 -0.03809702 0.79408437
0.039059155 -0.038144726 0.79412889
0.039551895 -0.038195044 0.7941758
0.04006844 -0.038247794 0.79422504
0.040607058 -0.038302794 0.7942763
0.041166075 -0.038359877 0.79432952
0.041743908 -0.038418874 0.7943846
0.042339075 -0.038479637 0.79444128
0.042950209 -0.03854201 0.79449946
0.043576036 -0.038605854 0.794559
0.044215385 -0.03867102 0.79461974
0.044867177 -0.038737349 0.79468161
0.045530401 -0.038804665 0.79474437
0.046204086 -0.038872734 0.79480785
0.046887279 -0.03894126 0.79487169
0.047578979 -0.039009821 0.79493552
0.048278075 -0.039077803 0.79499876
0.049075488 -0.039152838 0.79506844
0.049876757 -0.03922398 0.79513425
0.050680999 -0.039288543 0.79519361
0.051486984 -0.039342239 0.79524231
0.052292716 -0.039377924 0.79527324
0.053094383 -0.039382871 0.79527408
0.053883336 -0.039331786 0.7952199
0.054635704 -0.039165776 0.79505306
0.055275772 -0.038723651 0.79461557
0.055670261 -0.037724204 0.79363185
0.055916786 -0.036518387 0.7924462
0.03726586 -0.027577778 0.7837587
0.037397541 -0.027591227 0.78377122
0.037548546 -0.027606647 0.78378564
0.03772163 -0.027624322 0.78380209
0.037919592 -0.027644537 0.78382099
0.038145013 -0.027667556 0.78384244
0.038399991 -0.027693594 0.7838667
0.03868597 -0.027722798 0.78389394
0.039003696 -0.027755244 0.78392422
0.039353229 -0.027790938 0.78395754
0.039734025 -0.027829822 0.78399378
0.040145058 -0.027871797 0.78403294
0.040584959 -0.027916718 0.78407484
0.04105214 -0.027964426 0.78411931
0.041544881 -0.028014744 0.78416628
0.042061422 -0.028067492 0.78421545
0.042600039 -0.028122496 0.78426677
0.043159056 -0.028179584 0.78432
0.043736886 -0.028238598 0.78437507
0.04433205 -0.028299391 0.78443176
0.044943169 -0.028361831 0.78448999
0.045568969 -0.0284258 0.78454965
0.046208274 -0.028491208 0.78461069
0.046859976 -0.028557988 0.78467298
0.04752304 -0.028626112 0.78473657
0.04819645 -0.028695602 0.78480142
0.048879165 -0.028766559 0.78486764
0.049570069 -0.02883919 0.78493547
0.050267857 -0.02891385 0.78500533
0.051062815 -0.029001426 0.78508729
0.051859982 -0.029093513 0.78517371
0.052657485 -0.029192518 0.78526694
0.053452488 -0.02930231 0.78537077
0.054240331 -0.029429357 0.78549159
0.055012476 -0.029585125 0.78564066
0.055750892 -0.02979218 0.78584033
0.056410041 -0.030102333 0.78614163
0.056855302 -0.030655289 0.78668249
0.056850679 -0.031694546 0.78770334
0.056624673 -0.032902461 0.78889096
0.035471782 -0.027394572 0.78358781
0.035340101 -0.027381126 0.7835753
0.035189092 -0.027365705 0.78356087
0.035016011 -0.02734803 0.78354442
0.03481805 -0.027327815 0.78352553
0.034592625 -0.027304795 0.78350407
0.034337651 -0.027278757 0.78347981
0.034051672 -0.027249554 0.78345257
0.033733942 -0.027217109 0.78342229
0.033384409 -0.027181415 0.78338897
0.033003617 -0.027142528 0.78335273
0.032592583 -0.027100556 0.78331357
0.032152679 -0.027055634 0.78327167
0.031685501 -0.027007926 0.78322715
0.031192761 -0.026957609 0.78318024
0.030676218 -0.026904861 0.78313106
0.0301376 -0.02684986 0.78307974
0.029578583 -0.026792778 0.78302652
0.02900075 -0.026733778 0.78297144
0.028405581 -0.026673017 0.78291482
0.027794449 -0.026610643 0.78285664
0.027168624 -0.026546801 0.7827971
0.026529273 -0.026481634 0.7827363
0.025877481 -0.026415303 0.78267443
0.025214257 -0.026347991 0.78261167
0.024540571 -0.026279919 0.78254825
0.023857379 -0.026211394 0.78248435
0.02316568 -0.026142836 0.78242052
0.022466583 -0.026074849 0.78235728
0.02166917 -0.025999814 0.7822876
0.020867901 -0.025928674 0.78222179
0.020063657 -0.025864111 0.78216243
0.019257672 -0.025810415 0.78211379
0.018451942 -0.02577473 0.7820828
0.017650273 -0.025769783 0.78208196
0.01686132 -0.025820868 0.78213614
0.016108954 -0.02598688 0.78230304
0.015468886 -0.026429003 0.78274053
0.015074395 -0.02742845 0.78372419
0.01482787 -0.028634267 0.78490984
0.0334788 -0.037574876 0.79359734
0.033347119 -0.037561428 0.79358482
0.03319611 -0.037546009 0.79357046
0.03302303 -0.037528332 0.79355395
0.032825064 -0.037508119 0.79353511
0.032599643 -0.037485097 0.7935136
0.032344669 -0.037459061 0.79348934
0.032058686 -0.037429858 0.7934621
0.03174096 -0.037397411 0.79343182
0.031391427 -0.037361719 0.79339856
0.031010633 -0.03732283 0.79336226
0.0305996 -0.037280858 0.7933231
0.030159697 -0.037235934 0.7932812
0.029692518 -0.037188228 0.79323673
0.029199779 -0.037137911 0.79318976
0.028683234 -0.037085161 0.79314059
0.028144618 -0.037030157 0.79308927
0.027585603 -0.03697307 0.79303604
0.027007772 -0.036914054 0.79298097
0.026412608 -0.036853261 0.79292428
0.025801489 -0.036790822 0.79286605
0.025175689 -0.036726855 0.79280639
0.024536386 -0.036661446 0.79274535
0.023884682 -0.036594667 0.79268306
0.023221616 -0.036526542 0.79261953
0.022548208 -0.036457051 0.79255462
0.021865493 -0.036386095 0.7924884
0.021174589 -0.036313463 0.79242057
0.020476801 -0.036238804 0.79235077
0.019681843 -0.03615123 0.79226875
0.018884674 -0.036059141 0.79218233
0.018087173 -0.035960138 0.7920891
0.01729217 -0.035850342 0.79198527
0.016504325 -0.035723299 0.79186445
0.015732182 -0.035567529 0.79171538
0.014993764 -0.035360474 0.79151571
0.014334616 -0.035050321 0.79121441
0.013889354 -0.034497365 0.79067355
0.013893977 -0.033458106 0.78965271
0.014119985 -0.032250196 0.78846514
0.03527385 -0.037707265 0.79371834
0.035404239 -0.03772058 0.79373074
0.035553768 -0.03773585 0.79374498
0.03572515 -0.037753351 0.79376131
0.035921175 -0.037773371 0.79377997
0.036144383 -0.037796162 0.79380125
0.036396857 -0.037821945 0.79382527
0.036680035 -0.037850864 0.79385227
0.036994647 -0.037882991 0.79388225
0.037340753 -0.037918333 0.79391521
0.037717812 -0.037956838 0.79395109
0.038124815 -0.037998401 0.7939899
0.038560405 -0.038042881 0.79403138
0.039023001 -0.038090121 0.79407543
0.039510909 -0.038139943 0.79412192
0.040022388 -0.038192175 0.79417062
0.040555723 -0.038246635 0.7942214
0.041109256 -0.038303159 0.79427415
0.041681424 -0.038361579 0.79432863
0.042270757 -0.038421746 0.79438472
0.042875893 -0.038483508 0.79444236
0.043495584 -0.038546726 0.7945013
0.044128664 -0.038611252 0.79456151
0.044774063 -0.038676932 0.79462272
0.045430783 -0.038743585 0.79468489
0.046097863 -0.038810987 0.79474771
0.046774354 -0.038878843 0.79481095
0.047459271 -0.038946729 0.79487419
0.048151512 -0.039014049 0.79493678
0.048941106 -0.039088346 0.7950058
0.049734518 -0.039158788 0.79507095
0.050530873 -0.039222717 0.79512972
0.051328953 -0.039275888 0.79517794
0.052126784 -0.039311223 0.79520857
0.052920591 -0.039316121 0.79520941
0.053701807 -0.039265539 0.79515576
0.054446794 -0.039101154 0.79499054
0.055080585 -0.038663365 0.79455733
0.055471208 -0.037673723 0.79358327
0.055715315 -0.03647973 0.79240924
0.037247289 -0.027626798 0.78380692
0.037377678 -0.027640114 0.78381938
0.037527207 -0.027655382 0.78383362
0.037698589 -0.027672883 0.7838499
0.037894614 -0.027692901 0.78386861
0.038117822 -0.027715694 0.78388983
0.0383703 -0.027741477 0.78391391
0.038653474 -0.027770394 0.78394085
0.038968086 -0.027802521 0.78397083
0.039314192 -0.027837865 0.78400379
0.039691251 -0.02787637 0.78403974
0.040098254 -0.027917933 0.78407848
0.040533844 -0.027962413 0.78411996
0.04099644 -0.028009653 0.78416401
0.041484348 -0.028059477 0.7842105
0.041995827 -0.028111709 0.78425926
0.042529158 -0.028166173 0.78431004
0.043082695 -0.028222702 0.78436273
0.043654859 -0.028281137 0.78441727
0.044244185 -0.028341334 0.78447342
0.04484931 -0.028403161 0.78453106
0.045468975 -0.028466502 0.78459018
0.04610201 -0.02853127 0.78465056
0.046747319 -0.028597394 0.78471226
0.047403883 -0.02866485 0.7847752
0.048070688 -0.02873366 0.78483945
0.048746709 -0.028803922 0.78490502
0.049430836 -0.028875839 0.78497219
0.050121784 -0.028949767 0.78504133
0.050908946 -0.029036483 0.78512251
0.051698294 -0.029127669 0.78520811
0.052487973 -0.029225701 0.78530037
0.053275179 -0.029334418 0.78540319
0.0540553 -0.029460218 0.78552282
0.054819871 -0.029614458 0.78567046
0.055551048 -0.029819483 0.78586817
0.05620373 -0.030126594 0.78616649
0.05664463 -0.030674128 0.7867021
0.056640051 -0.031703193 0.78771287
0.056416258 -0.032899261 0.78888887
0.035470806 -0.027445387 0.7836377
0.035340417 -0.027432073 0.7836253
0.035190891 -0.027416803 0.78361106
0.035019506 -0.027399302 0.78359473
0.034823485 -0.027379284 0.78357607
0.034600273 -0.02735649 0.78355479
0.034347799 -0.02733071 0.78353077
0.034064624 -0.027301792 0.78350377
0.033750009 -0.027269663 0.78347385
0.033403907 -0.02723432 0.78344089
0.033026844 -0.027195817 0.78340495
0.032619845 -0.027154254 0.7833662
0.032184254 -0.027109772 0.78332472
0.031721655 -0.027062533 0.78328061
0.031233748 -0.02701271 0.78323418
0.03072227 -0.026960479 0.78318542
0.030188935 -0.026906017 0.78313464
0.029635401 -0.026849495 0.78308195
0.029063234 -0.026791075 0.78302741
0.028473901 -0.02673091 0.78297132
0.027868763 -0.026669146 0.78291368
0.027249074 -0.026605928 0.78285474
0.026615994 -0.026541403 0.78279459
0.025970593 -0.026475724 0.78273332
0.025313875 -0.026409069 0.78267115
0.024646793 -0.026341666 0.78260833
0.023970302 -0.026273813 0.78254509
0.023285385 -0.026205925 0.78248191
0.022593144 -0.026138607 0.78241926
0.021803552 -0.026064308 0.7823503
0.021010142 -0.025993865 0.78228509
0.020213785 -0.025929935 0.78222632
0.019415705 -0.025876766 0.78217816
0.018617874 -0.02584143 0.78214747
0.017824067 -0.025836533 0.78214663
0.017042851 -0.025887115 0.78220028
0.016297862 -0.026051499 0.7823655
0.015664071 -0.026489288 0.78279877
0.015273449 -0.027478933 0.78377277
0.015029341 -0.028672924 0.7849468
0.033497367 -0.037525855 0.79354912
0.033366978 -0.037512541 0.79353672
0.033217452 -0.037497271 0.79352248
0.033046067 -0.037479769 0.79350615
0.032850046 -0.037459753 0.79348743
0.032626834 -0.037436958 0.79346621
0.03237436 -0.037411176 0.79344213
0.032091182 -0.03738226 0.79341519
0.03177657 -0.037350133 0.79338521
0.031430464 -0.037314788 0.79335225
0.031053407 -0.037276283 0.7933163
0.030646404 -0.037234724 0.79327756
0.030210815 -0.03719024 0.79323608
0.029748216 -0.037143003 0.79319203
0.029260309 -0.037093177 0.79314554
0.028748831 -0.037040945 0.79309684
0.028215498 -0.036986481 0.793046
0.027661964 -0.036929954 0.79299331
0.027089801 -0.036871515 0.79293877
0.026500473 -0.036811322 0.79288262
0.025895348 -0.036749493 0.79282498
0.025275683 -0.036686152 0.79276592
0.02464265 -0.036621384 0.79270548
0.023997337 -0.03655526 0.79264379
0.023340775 -0.036487803 0.79258084
0.022673968 -0.036418993 0.79251665
0.021997949 -0.036348734 0.79245102
0.021313822 -0.036276817 0.79238385
0.020622876 -0.036202885 0.79231471
0.019835712 -0.036116172 0.79223353
0.019046362 -0.036024984 0.79214793
0.018256683 -0.035926953 0.79205567
0.017469477 -0.035818238 0.79195285
0.016689356 -0.035692435 0.79183322
0.015924785 -0.035538197 0.79168558
0.01519361 -0.035333171 0.79148793
0.014540926 -0.035026059 0.79118955
0.014100028 -0.034478527 0.79065394
0.014104608 -0.03344946 0.78964317
0.014328398 -0.032253392 0.78846723
0.035274826 -0.03765643 0.79366839
0.035403922 -0.037669614 0.79368067
0.035551969 -0.037684731 0.79369479
0.035721656 -0.037702061 0.79371095
0.035915736 -0.03772188 0.79372942
0.036136735 -0.037744448 0.79375046
0.036386706 -0.037769973 0.79377431
0.036667079 -0.037798602 0.79380101
0.036978573 -0.037830412 0.79383063
0.037321247 -0.037865408 0.7938633
0.037694573 -0.037903529 0.79389888
0.038097542 -0.037944678 0.79393727
0.038528815 -0.037988719 0.79397833
0.038986828 -0.038035493 0.79402196
0.039469901 -0.03808482 0.79406798
0.039976314 -0.038136534 0.7941162
0.040504362 -0.038190458 0.79416651
0.041052412 -0.038246419 0.79421866
0.04161891 -0.038304262 0.7942726
0.042202406 -0.038363829 0.79432821
0.042801548 -0.03842498 0.79438525
0.043415096 -0.038487572 0.79444361
0.044041906 -0.038551457 0.79450321
0.044680908 -0.038616486 0.79456383
0.04533112 -0.038682479 0.79462534
0.045991592 -0.038749214 0.79468757
0.046661381 -0.038816396 0.79475015
0.04733951 -0.038883612 0.7948128
0.048024893 -0.038950264 0.79487479
0.048806664 -0.039023824 0.79494309
0.049592212 -0.039093569 0.79500759
0.050380677 -0.039156865 0.79506582
0.051170852 -0.039209507 0.7951135
0.051960774 -0.039244495 0.7951439
0.052746717 -0.039249346 0.79514468
0.053520195 -0.039199263 0.79509157
0.054257799 -0.039036509 0.79492795
0.054885313 -0.038603056 0.79449904
0.055272065 -0.037623219 0.7935347
0.055513754 -0.036441054 0.79237229
0.037228711 -0.027675841 0.7838552
0.037357811 -0.027689025 0.78386748
0.037505854 -0.027704142 0.7838816
0.037675541 -0.02772147 0.78389776
0.037869621 -0.027741291 0.78391623
0.03809062 -0.027763858 0.78393728
0.038340595 -0.027789384 0.78396112
0.038620964 -0.027818015 0.78398782
0.038932458 -0.027849825 0.7840175
0.039275136 -0.027884817 0.78405011
0.039648458 -0.027922941 0.78408569
0.040051427 -0.027964091 0.78412408
0.0404827 -0.028008131 0.78416514
0.040940717 -0.028054902 0.78420877
0.041423786 -0.028104233 0.78425479
0.041930199 -0.028155947 0.78430301
0.042458247 -0.028209873 0.78435332
0.043006297 -0.028265841 0.78440553
0.043572791 -0.028323697 0.78445947
0.044156279 -0.028383298 0.78451508
0.04475541 -0.028444512 0.78457218
0.045368936 -0.028507227 0.78463066
0.045995694 -0.028571352 0.7846905
0.046634614 -0.028636821 0.78475153
0.04728467 -0.028703608 0.78481388
0.04794487 -0.028771736 0.78487748
0.048614193 -0.028841302 0.78494239
0.04929154 -0.028912507 0.78500891
0.049975641 -0.028985703 0.78507733
0.050755002 -0.02907156 0.78515774
0.051536534 -0.029161841 0.7852425
0.052318387 -0.029258903 0.78533387
0.053097796 -0.029366542 0.78543568
0.053870182 -0.029491095 0.78555411
0.05462718 -0.029643808 0.78570026
0.055351112 -0.029846802 0.785896
0.055997327 -0.03015087 0.7861914
0.056433856 -0.030692978 0.78672165
0.056429327 -0.031711847 0.78772247
0.05620775 -0.032896064 0.78888673
0.035469834 -0.02749623 0.78368765
0.035340734 -0.027483046 0.78367537
0.035192687 -0.027467927 0.78366125
0.035023 -0.027450599 0.78364509
