# .PCD v0.7 - Point Cloud Data file format
VERSION 0.7
FIELDS x y z rgba
SIZE 4 4 4 4
TYPE F F F U
COUNT 1 1 1 1
WIDTH 1004
HEIGHT 1
VIEWPOINT 0 0 0 1 0 0 0
POINTS 1004
DATA ascii
0.040340371 -0.015725907 0.78500003 4289758625
0.04170784 -0.015725907 0.78500003 4289827984
0.043075308 -0.015725907 0.78500003 4289433226
0.04444278 -0.015725907 0.78500003 4289761174
0.045810249 -0.015725907 0.78500003 4289892760
0.047177717 -0.015725907 0.78500003 4289761176
0.048668873 -0.015765974 0.78700006 4289300625
0.050039828 -0.015765974 0.78700006 4289234066
0.051410783 -0.015765974 0.78700006 4288247171
0.052781735 -0.015765974 0.78700006 4288376677
0.054221496 -0.015786005 0.78800005 4289495158
0.055594195 -0.015786005 0.78800005 4289364382
0.056966893 -0.015786005 0.78800005 4288640660
0.058339588 -0.015786005 0.78800005 4286799221
0.059863836 -0.015826071 0.79000002 4283575364
0.061084978 -0.015786005 0.78800005 4283768073
0.062457677 -0.015786005 0.78800005 4283504901
0.063830368 -0.015786005 0.78800005 4285339680
0.065368555 -0.015826071 0.79000002 4290010983
0.066575766 -0.015786005 0.78800005 4289228697
0.067948461 -0.015786005 0.78800005 4286860149
0.069497094 -0.015826071 0.79000002 4283900954
-0.0033969004 -0.014266982 0.78000003 4288116333
-0.0020381403 -0.014266982 0.78000003 4284492353
-0.00067938009 -0.014266982 0.78000003 4283768630
0.00067763811 -0.0142304 0.77800006 4284099641
0.0020329142 -0.0142304 0.77800006 4283244589
0.0033881904 -0.0142304 0.77800006 4283574072
0.0047556604 -0.014266982 0.78000003 4287324273
0.0061144209 -0.014266982 0.78000003 4287196544
0.007482762 -0.014285273 0.78100002 4288578197
0.0088432636 -0.014285273 0.78100002 4288579216
0.010203766 -0.014285273 0.78100002 4286342254
0.011564268 -0.014285273 0.78100002 4286406721
0.012924771 -0.014285273 0.78100002 4285485619
0.014285273 -0.014285273 0.78100002 4284300327
0.015645776 -0.014285273 0.78100002 4281734144
0.017006276 -0.014285273 0.78100002 4283370755
0.018366778 -0.014285273 0.78100002 4284357650
0.019777799 -0.014321854 0.78300005 4286123800
0.021141784 -0.014321854 0.78300005 4286452764
0.022505773 -0.014321854 0.78300005 4287300882
0.023869758 -0.014321854 0.78300005 4286775306
0.025298197 -0.014358437 0.78500003 4286775568
0.026665669 -0.014358437 0.78500003 4290459976
0.028033137 -0.014358437 0.78500003 4288434277
0.029400608 -0.014358437 0.78500003 4288039519
0.030768078 -0.014358437 0.78500003 4287318597
0.032135546 -0.014358437 0.78500003 4286331702
0.03358838 -0.014395018 0.78700006 4286391628
0.034959335 -0.014395018 0.78700006 4285009975
0.036330286 -0.014395018 0.78700006 4286125094
0.037701242 -0.014395018 0.78700006 4291256948
0.039072197 -0.014395018 0.78700006 4289297041
0.040443148 -0.014395018 0.78700006 4289954971
0.041814104 -0.014395018 0.78700006 4289430646
0.043185059 -0.014395018 0.78700006 4288114786
0.044556011 -0.014395018 0.78700006 4287915628
0.045926966 -0.014395018 0.78700006 4287455077
0.047297921 -0.014395018 0.78700006 4286463342
0.048668873 -0.014395018 0.78700006 4286068585
0.050039828 -0.014395018 0.78700006 4286064712
0.051410783 -0.014395018 0.78700006 4284090921
0.052848801 -0.014413309 0.78800005 4285335310
0.054359112 -0.014449891 0.79000002 4289809491
0.055735294 -0.014449891 0.79000002 4289099646
0.057111472 -0.014449891 0.79000002 4289231488
0.058487654 -0.014449891 0.79000002 4287325563
0.059863836 -0.014449891 0.79000002 4283641411
0.061240017 -0.014449891 0.79000002 4284354816
0.062616192 -0.014449891 0.79000002 4284683781
0.064154387 -0.014486475 0.79200006 4286253602
-0.00067938009 -0.012908221 0.78000003 4283767849
0.00067938009 -0.012908221 0.78000003 4283903543
0.0020381403 -0.012908221 0.78000003 4283048491
0.0033969004 -0.012908221 0.78000003 4282916609
0.0047556604 -0.012908221 0.78000003 4286403639
0.0061222594 -0.012924771 0.78100002 4287655028
0.0075019244 -0.012957868 0.78300005 4289168523
0.0088659106 -0.012957868 0.78300005 4289760672
0.010229897 -0.012957868 0.78300005 4286931573
0.011593882 -0.012957868 0.78300005 4286669157
0.012957868 -0.012957868 0.78300005 4285221711
0.014321854 -0.012957868 0.78300005 4284102435
0.015685841 -0.012957868 0.78300005 4281470720
0.017049827 -0.012957868 0.78300005 4283695104
0.018413812 -0.012957868 0.78300005 4285470744
0.019828318 -0.012990966 0.78500003 4286517020
0.021195788 -0.012990966 0.78500003 4286648862
0.022563256 -0.012990966 0.78500003 4287365401
0.023930727 -0.012990966 0.78500003 4286644239
0.025298197 -0.012990966 0.78500003 4286382611
0.026665669 -0.012990966 0.78500003 4290922327
0.028033137 -0.012990966 0.78500003 4288897406
0.029400608 -0.012990966 0.78500003 4287318118
0.030768078 -0.012990966 0.78500003 4287513923
0.032135546 -0.012990966 0.78500003 4286987578
0.03358838 -0.013024065 0.78700006 4286650939
0.034959335 -0.013024065 0.78700006 4285993008
0.036330286 -0.013024065 0.78700006 4286781214
0.037701242 -0.013024065 0.78700006 4290991966
0.039072197 -0.013024065 0.78700006 4288507259
0.040443148 -0.013024065 0.78700006 4288046708
0.041867234 -0.013040613 0.78800005 4288110945
0.043239933 -0.013040613 0.78800005 4287716187
0.044612624 -0.013040613 0.78800005 4286860358
0.045985319 -0.013040613 0.78800005 4284031259
0.047358017 -0.013040613 0.78800005 4285926168
0.048730712 -0.013040613 0.78800005 4285926168
0.050103407 -0.013040613 0.78800005 4286316544
0.051476106 -0.013040613 0.78800005 4286775297
0.052848801 -0.013040613 0.78800005 4286251008
0.054496735 -0.01310681 0.79200006 4291448381
0.055876404 -0.01310681 0.79200006 4289362319
0.057256065 -0.01310681 0.79200006 4289164939
0.05863573 -0.01310681 0.79200006 4286998122
0.060166944 -0.013139907 0.79400003 4282392612
0.061550092 -0.013139907 0.79400003 4284942603
0.062933244 -0.013139907 0.79400003 4285666583
0.070200868 -0.013206104 0.79800004 4282846999
0.071590982 -0.013206104 0.79800004 4283899687
0.073072553 -0.013222652 0.79900002 4283246372
0.074464411 -0.013222652 0.79900002 4281469961
0.075856268 -0.013222652 0.79900002 4278648832
0.077248126 -0.013222652 0.79900002 4284500815
-0.00068199309 -0.011593882 0.78300005 4283506711
0.00068199309 -0.011593882 0.78300005 4283774776
0.0020459793 -0.011593882 0.78300005 4283445811
0.0034099654 -0.011593882 0.78300005 4284031802
0.0047739516 -0.011593882 0.78300005 4286860901
0.0061379378 -0.011593882 0.78300005 4288837730
0.0075210854 -0.011623496 0.78500003 4289232488
0.0088885557 -0.011623496 0.78500003 4288380286
0.010256026 -0.011623496 0.78500003 4285419858
0.011623496 -0.011623496 0.78500003 4284958555
0.012990966 -0.011623496 0.78500003 4284892506
0.014358437 -0.011623496 0.78500003 4284036385
0.015725907 -0.011623496 0.78500003 4281733632
0.017093375 -0.011623496 0.78500003 4283761453
0.018460847 -0.011623496 0.78500003 4285406277
0.019828318 -0.011623496 0.78500003 4286714385
0.02124979 -0.01165311 0.78700006 4286517263
0.022620745 -0.01165311 0.78700006 4286973212
0.023991698 -0.01165311 0.78700006 4286251025
0.025362652 -0.01165311 0.78700006 4286776081
0.026733607 -0.01165311 0.78700006 4291052882
0.02810456 -0.01165311 0.78700006 4289159015
0.029475516 -0.01165311 0.78700006 4287579983
0.030846467 -0.01165311 0.78700006 4287515469
0.032217424 -0.01165311 0.78700006 4288042069
0.03358838 -0.01165311 0.78700006 4286917970
0.034959335 -0.01165311 0.78700006 4284681008
0.036330286 -0.01165311 0.78700006 4286251008
0.037749145 -0.011667917 0.78800005 4286316544
0.039121844 -0.011667917 0.78800005 4286316544
0.040494539 -0.011667917 0.78800005 4285923328
0.041867234 -0.011667917 0.78800005 4286055168
0.043349672 -0.011697531 0.79000002 4286844425
0.044725854 -0.011697531 0.79000002 4286456106
0.046218749 -0.011727145 0.79200006 4286587692
0.047598414 -0.011727145 0.79200006 4287316280
0.048978075 -0.011727145 0.79200006 4287974466
0.050357744 -0.011727145 0.79200006 4287837761
0.051737409 -0.011727145 0.79200006 4287837761
0.05311707 -0.011727145 0.79200006 4288103441
0.054634351 -0.011756759 0.79400003 4290735160
0.056017499 -0.011756759 0.79400003 4289625479
0.057400648 -0.011756759 0.79400003 4287585895
0.058783799 -0.011756759 0.79400003 4286533151
0.0603185 -0.011786374 0.79600006 4282388224
0.061705135 -0.011786374 0.79600006 4285990192
0.063091762 -0.011786374 0.79600006 4287437638
0.064478397 -0.011786374 0.79600006 4287309384
0.066113256 -0.011830794 0.79900002 4290335606
0.067505121 -0.011830794 0.79900002 4287783215
0.068896979 -0.011830794 0.79900002 4282651392
0.070464782 -0.011860408 0.80100006 4283111454
0.07186012 -0.011860408 0.80100006 4283769384
0.073255464 -0.011860408 0.80100006 4283246120
0.074650809 -0.011860408 0.80100006 4280811779
0.076046146 -0.011860408 0.80100006 4278321152
0.077441491 -0.011860408 0.80100006 4288054405
-0.00068634807 -0.010295222 0.78800005 4283835431
0.00068373507 -0.010256026 0.78500003 4283841864
0.0020512051 -0.010256026 0.78500003 4282854969
0.0034186754 -0.010256026 0.78500003 4285078570
0.0047861454 -0.010256026 0.78500003 4288434014
0.0061536157 -0.010256026 0.78500003 4290018688
0.0075402479 -0.010282157 0.78700006 4289558137
0.0089112027 -0.010282157 0.78700006 4287921030
0.010282157 -0.010282157 0.78700006 4285157724
0.01165311 -0.010282157 0.78700006 4285022279
0.013024065 -0.010282157 0.78700006 4285548623
0.014395018 -0.010282157 0.78700006 4284363555
0.015765974 -0.010282157 0.78700006 4281666048
0.017136928 -0.010282157 0.78700006 4283826193
0.018507883 -0.010282157 0.78700006 4285668141
0.019878836 -0.010282157 0.78700006 4286715668
0.021276791 -0.010295222 0.78800005 4286386960
0.022620745 -0.010282157 0.78700006 4287366428
0.023991698 -0.010282157 0.78700006 4286644240
0.025362652 -0.010282157 0.78700006 4287365905
0.026767576 -0.010295222 0.78800005 4291510864
0.028140271 -0.010295222 0.78800005 4289355127
0.029475516 -0.010282157 0.78700006 4287710302
0.030846467 -0.010282157 0.78700006 4287252302
0.032217424 -0.010282157 0.78700006 4288239197
0.033631057 -0.010295222 0.78800005 4288371312
0.035003752 -0.010295222 0.78800005 4285739592
0.03637645 -0.010295222 0.78800005 4287037490
0.037940763 -0.010347482 0.79200006 4286906416
0.039320432 -0.010347482 0.79200006 4287299584
0.040700093 -0.010347482 0.79200006 4287759872
0.042079758 -0.010347482 0.79200006 4287237417
0.043459423 -0.010347482 0.79200006 4288092726
0.044952314 -0.010373611 0.79400003 4288298811
0.046335462 -0.010373611 0.79400003 4287706931
0.047718611 -0.010373611 0.79400003 4287973715
0.049101759 -0.010373611 0.79400003 4287973715
0.050484907 -0.010373611 0.79400003 4287313468
0.051868055 -0.010373611 0.79400003 4287247675
0.053251203 -0.010373611 0.79400003 4288434456
0.054771975 -0.010399741 0.79600006 4290539833
0.056158606 -0.010399741 0.79600006 4289559195
0.057545237 -0.010399741 0.79600006 4286664303
0.058931869 -0.010399741 0.79600006 4285540121
0.060470052 -0.010425871 0.79800004 4284158468
0.061937686 -0.010438936 0.79900002 4286187571
0.06332954 -0.010438936 0.79900002 4288950877
0.064721398 -0.010438936 0.79900002 4288302173
0.066278756 -0.010465067 0.80100006 4287973209
0.0676741 -0.010465067 0.80100006 4286135604
0.069069438 -0.010465067 0.80100006 4283306505
0.070464782 -0.010465067 0.80100006 4283048227
0.07186012 -0.010465067 0.80100006 4283442985
0.073438369 -0.010491196 0.80300003 4283246372
0.0748372 -0.010491196 0.80300003 4280221696
0.076046146 -0.010465067 0.80100006 4278648832
0.077441491 -0.010465067 0.80100006 4289960602
-0.0020694963 -0.0089678168 0.79200006 4283572525
-0.00068809005 -0.0089451708 0.79000002 4283506476
0.00068634807 -0.0089225248 0.78800005 4283775308
0.0020564313 -0.0089112027 0.78700006 4283643721
0.0034273856 -0.0089112027 0.78700006 4283705126
0.0047983397 -0.0089112027 0.78700006 4285613123
0.006169294 -0.0089112027 0.78700006 4287719540
0.0075402479 -0.0089112027 0.78700006 4287851126
0.0089112027 -0.0089112027 0.78700006 4287921270
0.010282157 -0.0089112027 0.78700006 4286736997
0.01165311 -0.0089112027 0.78700006 4285419356
0.013024065 -0.0089112027 0.78700006 4285353562
0.014395018 -0.0089112027 0.78700006 4284166438
0.015765974 -0.0089112027 0.78700006 4281732097
0.017136928 -0.0089112027 0.78700006 4283893013
0.018531399 -0.0089225248 0.78800005 4285603631
0.019904094 -0.0089225248 0.78800005 4286715668
0.021276791 -0.0089225248 0.78800005 4286386960
0.022649487 -0.0089225248 0.78800005 4287430683
0.024022182 -0.0089225248 0.78800005 4287234072
0.025394879 -0.0089225248 0.78800005 4287234824
0.026767576 -0.0089225248 0.78800005 4290656059
0.02821169 -0.0089451708 0.79000002 4288959326
0.029587872 -0.0089451708 0.79000002 4288104017
0.031042445 -0.0089678168 0.79200006 4287449174
0.032422107 -0.0089678168 0.79200006 4290081151
0.033801772 -0.0089678168 0.79200006 4289691785
0.035181437 -0.0089678168 0.79200006 4289691785
0.036653426 -0.0089904629 0.79400003 4289424754
0.038036574 -0.0089904629 0.79400003 4287121999
0.039419722 -0.0089904629 0.79400003 4287973685
0.04080287 -0.0089904629 0.79400003 4288500029
0.042186018 -0.0089904629 0.79400003 4287709019
0.043569166 -0.0089904629 0.79400003 4287774812
0.044952314 -0.0089904629 0.79400003 4287308853
0.046335462 -0.0089904629 0.79400003 4286256164
0.047718611 -0.0089904629 0.79400003 4286779949
0.049225442 -0.0090131089 0.79600006 4286319398
0.050612077 -0.0090131089 0.79600006 4286515225
0.051998708 -0.0090131089 0.79600006 4285333512
0.05338534 -0.0090131089 0.79600006 4286781440
0.054978397 -0.009047078 0.79900002 4290992175
0.056370255 -0.009047078 0.79900002 4289226619
0.057762112 -0.009047078 0.79900002 4286068555
0.05915397 -0.009047078 0.79900002 4286586147
0.060545828 -0.009047078 0.79900002 4285730838
0.061937686 -0.009047078 0.79900002 4286844747
0.063488074 -0.0090697249 0.80100006 4290002811
0.064883411 -0.0090697249 0.80100006 4287975009
0.066278756 -0.0090697249 0.80100006 4284619310
0.0676741 -0.0090697249 0.80100006 4283701263
0.069069438 -0.0090697249 0.80100006 4283767056
0.07064072 -0.00909237 0.80300003 4283311143
0.072039545 -0.00909237 0.80300003 4283376936
0.073438369 -0.00909237 0.80300003 4283311895
0.0748372 -0.00909237 0.80300003 4280090624
0.076236024 -0.00909237 0.80300003 4279631872
0.077634849 -0.00909237 0.80300003 4291667106
-0.0020694963 -0.0075881532 0.79200006 4282981385
-0.00068983209 -0.0075881532 0.79200006 4283244557
0.00068809005 -0.0075689908 0.79000002 4283707455
0.0020590443 -0.0075498288 0.78800005 4283838784
0.0034317404 -0.0075498288 0.78800005 4282921005
0.0047983397 -0.0075402479 0.78700006 4284302658
0.006169294 -0.0075402479 0.78700006 4286604907
0.0075498288 -0.0075498288 0.78800005 4287592058
0.0089225248 -0.0075498288 0.78800005 4288117632
0.010295222 -0.0075498288 0.78800005 4286275428
0.011667917 -0.0075498288 0.78800005 4286273116
0.013040613 -0.0075498288 0.78800005 4285812565
0.014413309 -0.0075498288 0.78800005 4284166438
0.015786005 -0.0075498288 0.78800005 4282192648
0.017158702 -0.0075498288 0.78800005 4283894560
0.018578431 -0.0075689908 0.79000002 4285078578
0.019954611 -0.0075689908 0.79000002 4286650396
0.021384794 -0.0075881532 0.79200006 4286847518
0.022764459 -0.0075881532 0.79200006 4287629093
0.024144122 -0.0075881532 0.79200006 4287234335
0.025523787 -0.0075881532 0.79200006 4287234576
0.026903452 -0.0075881532 0.79200006 4289932089
0.028283117 -0.0075881532 0.79200006 4288565583
0.02966278 -0.0075881532 0.79200006 4288105032
0.031042445 -0.0075881532 0.79200006 4287317845
0.032422107 -0.0075881532 0.79200006 4289949565
0.033887129 -0.0076073147 0.79400003 4289299862
0.035270277 -0.0076073147 0.79400003 4288970640
0.036653426 -0.0076073147 0.79400003 4288572791
0.038036574 -0.0076073147 0.79400003 4286598744
0.039419722 -0.0076073147 0.79400003 4286860846
0.040905651 -0.0076264772 0.79600006 4287189811
0.042292282 -0.0076264772 0.79600006 4285999963
0.043678913 -0.0076264772 0.79600006 4285013068
0.045065548 -0.0076264772 0.79600006 4286316544
0.04645218 -0.0076264772 0.79600006 4286775552
0.047838811 -0.0076264772 0.79600006 4287103542
0.049225442 -0.0076264772 0.79600006 4288024644
0.05073924 -0.0076456391 0.79800004 4287433570
0.052129354 -0.0076456391 0.79800004 4285595718
0.053519472 -0.0076456391 0.79800004 4285988864
0.054978397 -0.0076552201 0.79900002 4291184189
0.056511357 -0.0076743821 0.80100006 4289421452
0.057906698 -0.0076743821 0.80100006 4286789475
0.059302043 -0.0076743821 0.80100006 4287373603
0.060697384 -0.0076743821 0.80100006 4288031276
0.062092725 -0.0076743821 0.80100006 4287572043
0.063488074 -0.0076743821 0.80100006 4289348197
0.064883411 -0.0076743821 0.80100006 4286991694
0.066444241 -0.0076935436 0.80300003 4283175700
0.067843072 -0.0076935436 0.80300003 4282783772
0.069241896 -0.0076935436 0.80300003 4283441446
0.07064072 -0.0076935436 0.80300003 4283311913
0.072218977 -0.007712706 0.80500007 4283311913
0.073621288 -0.007712706 0.80500007 4283180840
0.075023599 -0.007712706 0.80500007 4279631872
0.07642591 -0.007712706 0.80500007 4280418304
0.077828221 -0.007712706 0.80500007 4293046188
-0.0020694963 -0.0062084887 0.79200006 4283967542
-0.00068983209 -0.0062084887 0.79200006 4285349195
0.00068983209 -0.0062084887 0.79200006 4284564308
0.0020694963 -0.0062084887 0.79200006 4284300879
0.0034491604 -0.0062084887 0.79200006 4285223004
0.0048044366 -0.0061771329 0.78800005 4287788930
0.0061771329 -0.0061771329 0.78800005 4287330424
0.0075689908 -0.0061928104 0.79000002 4287462266
0.0089451708 -0.0061928104 0.79000002 4287789178
0.010321351 -0.0061928104 0.79000002 4285025872
0.011727145 -0.0062084887 0.79200006 4285156177
0.01310681 -0.0062084887 0.79200006 4285682521
0.014486475 -0.0062084887 0.79200006 4284034852
0.015866138 -0.0062084887 0.79200006 4282521870
0.017245801 -0.0062084887 0.79200006 4283765550
0.018625466 -0.0062084887 0.79200006 4283436841
0.020005131 -0.0062084887 0.79200006 4286320915
0.021384794 -0.0062084887 0.79200006 4287175967
0.022764459 -0.0062084887 0.79200006 4287761193
0.024144122 -0.0062084887 0.79200006 4287498277
0.025523787 -0.0062084887 0.79200006 4287366689
0.026903452 -0.0062084887 0.79200006 4287827240
0.028283117 -0.0062084887 0.79200006 4288034560
0.029737685 -0.0062241666 0.79400003 4289876760
0.031120831 -0.0062241666 0.79400003 4288698718
0.032503981 -0.0062241666 0.79400003 4289422185
0.033887129 -0.0062241666 0.79400003 4289295733
0.035359122 -0.006239845 0.79600006 4287256149
0.036745753 -0.006239845 0.79600006 4286324256
0.038132384 -0.006239845 0.79600006 4284482052
0.039519019 -0.006239845 0.79600006 4286588686
0.041008424 -0.0062555224 0.79800004 4288825648
0.042398542 -0.0062555224 0.79800004 4287448424
0.04378866 -0.0062555224 0.79800004 4286066771
0.045178775 -0.0062555224 0.79800004 4286252544
0.046568893 -0.0062555224 0.79800004 4289015843
0.047959007 -0.0062555224 0.79800004 4289950816
0.049349122 -0.0062555224 0.79800004 4292121985
0.05073924 -0.0062555224 0.79800004 4290215331
0.052129354 -0.0062555224 0.79800004 4285280599
0.053519472 -0.0062555224 0.79800004 4285857808
0.054978397 -0.0062633613 0.79900002 4290789724
0.056511357 -0.0062790401 0.80100006 4289619065
0.057906698 -0.0062790401 0.80100006 4287250516
0.059450112 -0.0062947175 0.80300003 4287441193
0.060848936 -0.0062947175 0.80300003 4288230708
0.062247764 -0.0062947175 0.80300003 4286984015
0.063646592 -0.0062947175 0.80300003 4285865533
0.065045416 -0.0062947175 0.80300003 4284358161
0.066609733 -0.0063103959 0.80500007 4283766024
0.068012044 -0.0063103959 0.80500007 4283113519
0.069414355 -0.0063103959 0.80500007 4283310641
0.070816666 -0.0063103959 0.80500007 4283179564
0.072218977 -0.0063103959 0.80500007 4283376686
0.073621288 -0.0063103959 0.80500007 4283180588
0.075023599 -0.0063103959 0.80500007 4279566336
0.07642591 -0.0063103959 0.80500007 4279173120
0.077828221 -0.0063103959 0.80500007 4292853179
-0.0020799483 -0.0048532127 0.79600006 4286532440
-0.00069331611 -0.0048532127 0.79600006 4285874253
0.00069157407 -0.0048410185 0.79400003 4286074158
0.0020747222 -0.0048410185 0.79400003 4286863931
0.0034578703 -0.0048410185 0.79400003 4287261819
0.0048410185 -0.0048410185 0.79400003 4288051334
0.0062084887 -0.0048288247 0.79200006 4287526522
0.0075881532 -0.0048288247 0.79200006 4287724157
0.0089678168 -0.0048288247 0.79200006 4288184204
0.010373611 -0.0048410185 0.79400003 4285618277
0.011756759 -0.0048410185 0.79400003 4285156429
0.013139907 -0.0048410185 0.79400003 4285551187
0.014523054 -0.0048410185 0.79400003 4283772716
0.015866138 -0.0048288247 0.79200006 4282391063
0.017245801 -0.0048288247 0.79200006 4283636010
0.0186725 -0.0048410185 0.79400003 4283044130
0.020055648 -0.0048410185 0.79400003 4285923858
0.021438796 -0.0048410185 0.79400003 4287568427
0.022821944 -0.0048410185 0.79400003 4287828775
0.024205092 -0.0048410185 0.79400003 4287368224
0.02558824 -0.0048410185 0.79400003 4287496210
0.026971389 -0.0048410185 0.79400003 4287693590
0.028354537 -0.0048410185 0.79400003 4287566085
0.029812593 -0.0048532127 0.79600006 4289605925
0.031199224 -0.0048532127 0.79600006 4288895316
0.032585856 -0.0048532127 0.79600006 4289882212
0.033972487 -0.0048532127 0.79600006 4289688203
0.035447963 -0.0048654065 0.79800004 4287517034
0.036838077 -0.0048654065 0.79800004 4286848259
0.038228195 -0.0048654065 0.79800004 4286782465
0.039618313 -0.0048654065 0.79800004 4287441445
0.041008424 -0.0048654065 0.79800004 4290928217
0.042398542 -0.0048654065 0.79800004 4289621102
0.04378866 -0.0048654065 0.79800004 4287910227
0.045235388 -0.0048715034 0.79900002 4286583808
0.046627246 -0.0048715034 0.79900002 4289083924
0.048019104 -0.0048715034 0.79900002 4289493389
0.049410962 -0.0048715034 0.79900002 4291138213
0.050802823 -0.0048715034 0.79900002 4289036474
0.052194681 -0.0048715034 0.79900002 4283838827
0.053586539 -0.0048715034 0.79900002 4285726720
0.054978397 -0.0048715034 0.79900002 4291580230
0.056511357 -0.0048836977 0.80100006 4289686670
0.058051284 -0.0048958915 0.80300003 4287383915
0.059450112 -0.0048958915 0.80300003 4287836730
0.061000492 -0.0049080853 0.80500007 4288099902
0.062402803 -0.0049080853 0.80500007 4286200395
0.063805111 -0.0049080853 0.80500007 4283239710
0.065207422 -0.0049080853 0.80500007 4282915079
0.066609733 -0.0049080853 0.80500007 4283573008
0.068012044 -0.0049080853 0.80500007 4283376173
0.069414355 -0.0049080853 0.80500007 4283310380
0.070816666 -0.0049080853 0.80500007 4283114020
0.072398394 -0.0049202796 0.80700004 4283311143
0.073804192 -0.0049202796 0.80700004 4283181108
0.07520999 -0.0049202796 0.80700004 4279500800
0.076615781 -0.0049202796 0.80700004 4278779904
0.078021578 -0.0049202796 0.80700004 4292854978
-0.0034752905 -0.0034752905 0.79800004 4290222227
-0.0020851742 -0.0034752905 0.79800004 4287325317
-0.00069505809 -0.0034752905 0.79800004 4286798717
0.00069505809 -0.0034752905 0.79800004 4287128884
0.0020851742 -0.0034752905 0.79800004 4288971087
0.0034665805 -0.0034665805 0.79600006 4288578451
0.0048532127 -0.0034665805 0.79600006 4288380815
0.0062241666 -0.0034578703 0.79400003 4287986564
0.0076073147 -0.0034578703 0.79400003 4288315272
0.0089904629 -0.0034578703 0.79400003 4288578962
0.010373611 -0.0034578703 0.79400003 4286868600
0.011756759 -0.0034578703 0.79400003 4285156177
0.013173006 -0.0034665805 0.79600006 4284959055
0.014559639 -0.0034665805 0.79600006 4283836455
0.015906204 -0.0034578703 0.79400003 4283046940
0.017289352 -0.0034578703 0.79400003 4283834157
0.0186725 -0.0034578703 0.79400003 4283702828
0.020055648 -0.0034578703 0.79400003 4284944922
0.021438796 -0.0034578703 0.79400003 4284681493
0.022821944 -0.0034578703 0.79400003 4286778134
0.024266064 -0.0034665805 0.79600006 4287304478
0.025652695 -0.0034665805 0.79600006 4287563537
0.027039329 -0.0034665805 0.79600006 4287234828
0.02842596 -0.0034665805 0.79600006 4287498788
0.029812593 -0.0034665805 0.79600006 4287564581
0.031277612 -0.0034752905 0.79800004 4287309856
0.03266773 -0.0034752905 0.79800004 4290928471
0.034057844 -0.0034752905 0.79800004 4289819273
0.035492383 -0.0034796454 0.79900002 4288174449
0.036884241 -0.0034796454 0.79900002 4287179833
0.038276099 -0.0034796454 0.79900002 4286653489
0.039667957 -0.0034796454 0.79900002 4288096610
0.041059814 -0.0034796454 0.79900002 4291452054
0.042451672 -0.0034796454 0.79900002 4290276172
0.04384353 -0.0034796454 0.79900002 4290144586
0.045235388 -0.0034796454 0.79900002 4288962879
0.046627246 -0.0034796454 0.79900002 4289357636
0.048019104 -0.0034796454 0.79900002 4289165452
0.049534649 -0.0034883553 0.80100006 4291073449
0.05092999 -0.0034883553 0.80100006 4289691815
0.052325331 -0.0034883553 0.80100006 4286599287
0.053720675 -0.0034883553 0.80100006 4287776260
0.055116016 -0.0034883553 0.80100006 4290276395
0.056652457 -0.0034970655 0.80300003 4289818247
0.058051284 -0.0034970655 0.80300003 4287909994
0.059598181 -0.0035057757 0.80500007 4286789436
0.061000492 -0.0035057757 0.80500007 4284289303
0.062402803 -0.0035057757 0.80500007 4283504411
0.063805111 -0.0035057757 0.80500007 4283307288
0.065369427 -0.0035144854 0.80700004 4282850079
0.066775218 -0.0035144854 0.80700004 4282455321
0.068181023 -0.0035144854 0.80700004 4282387731
0.069586813 -0.0035144854 0.80700004 4282387731
0.070992604 -0.0035144854 0.80700004 4282585357
0.072577827 -0.0035231954 0.80900002 4283243544
0.073987097 -0.0035231954 0.80900002 4282981438
0.075396381 -0.0035231954 0.80900002 4279238660
0.076805659 -0.0035231954 0.80900002 4278321152
-0.0034796454 -0.0020877873 0.79900002 4289629324
-0.0020877873 -0.0020877873 0.79900002 4287915640
-0.00069592905 -0.0020877873 0.79900002 4285941593
0.00069505809 -0.0020851742 0.79800004 4286467385
0.0020851742 -0.0020851742 0.79800004 4288967263
0.0034752905 -0.0020851742 0.79800004 4287856009
0.0048654065 -0.0020851742 0.79800004 4287527044
0.0062555224 -0.0020851742 0.79800004 4287722361
0.0076456391 -0.0020851742 0.79800004 4288248705
0.0090357549 -0.0020851742 0.79800004 4288578182
0.010425871 -0.0020851742 0.79800004 4286867565
0.011786374 -0.0020799483 0.79600006 4284040262
0.013173006 -0.0020799483 0.79600006 4283777091
0.014559639 -0.0020799483 0.79600006 4283375652
0.015946269 -0.0020799483 0.79600006 4282980895
0.017332902 -0.0020799483 0.79600006 4283571751
0.018719535 -0.0020799483 0.79600006 4283769386
0.020106167 -0.0020799483 0.79600006 4283898405
0.0214928 -0.0020799483 0.79600006 4282845717
0.022879431 -0.0020799483 0.79600006 4285858313
0.024266064 -0.0020799483 0.79600006 4287174173
0.025717149 -0.0020851742 0.79800004 4287893787
0.027107265 -0.0020851742 0.79800004 4287433236
0.028497381 -0.0020851742 0.79800004 4287695136
0.029887499 -0.0020851742 0.79800004 4287563550
0.031316809 -0.0020877873 0.79900002 4286713088
0.032708667 -0.0020877873 0.79900002 4291450175
0.034100525 -0.0020877873 0.79900002 4289098110
0.035492383 -0.0020877873 0.79900002 4288374644
0.036884241 -0.0020877873 0.79900002 4287313981
0.038276099 -0.0020877873 0.79900002 4286195500
0.039667957 -0.0020877873 0.79900002 4289216598
0.041162595 -0.0020930131 0.80100006 4291387766
0.042557936 -0.0020930131 0.80100006 4289881441
0.043953281 -0.0020930131 0.80100006 4289618270
0.045348618 -0.0020930131 0.80100006 4288964705
0.046743963 -0.0020930131 0.80100006 4288701276
0.048139308 -0.0020930131 0.80100006 4288439154
0.049534649 -0.0020930131 0.80100006 4289426049
0.05092999 -0.0020930131 0.80100006 4289295494
0.052325331 -0.0020930131 0.80100006 4286926946
0.053854804 -0.0020982393 0.80300003 4288040192
0.055253632 -0.0020982393 0.80300003 4290211355
0.056793559 -0.0021034654 0.80500007 4289556617
0.05819587 -0.0021034654 0.80500007 4287714413
0.059746251 -0.002108691 0.80700004 4285937972
0.061152048 -0.002108691 0.80700004 4282648322
0.062557839 -0.002108691 0.80700004 4282457635
0.063963637 -0.002108691 0.80700004 4282391842
0.065531433 -0.0021139171 0.80900002 4282127360
0.06694071 -0.0021139171 0.80900002 4282193152
0.068349987 -0.0021139171 0.80900002 4282389278
0.069759272 -0.0021139171 0.80900002 4282849829
0.071168542 -0.0021139171 0.80900002 4282783043
0.072757252 -0.0021191433 0.81100005 4282388285
0.074170016 -0.0021191433 0.81100005 4281993750
0.07558278 -0.0021191433 0.81100005 4279762944
-0.0034883553 -0.00069767109 0.80100006 4289364871
-0.0020877873 -0.00069592905 0.79900002 4286400352
-0.00069592905 -0.00069592905 0.79900002 4284097597
0.00069592905 -0.00069592905 0.79900002 4283634466
0.0020877873 -0.00069592905 0.79900002 4283766052
0.0034796454 -0.00069592905 0.79900002 4283703059
0.0048715034 -0.00069592905 0.79900002 4283505937
0.0062633613 -0.00069592905 0.79900002 4283900956
0.0076552201 -0.00069592905 0.79900002 4284756009
0.0090357549 -0.00069505809 0.79800004 4284757544
0.010425871 -0.00069505809 0.79800004 4284889386
0.011830794 -0.00069592905 0.79900002 4284889382
0.013222652 -0.00069592905 0.79900002 4283770901
0.01459622 -0.00069505809 0.79800004 4283834159
0.015986335 -0.00069505809 0.79800004 4283439401
0.017376453 -0.00069505809 0.79800004 4283637266
0.018766569 -0.00069505809 0.79800004 4283900439
0.020156683 -0.00069505809 0.79800004 4284030757
0.0215468 -0.00069505809 0.79800004 4283570206
0.022965658 -0.00069592905 0.79900002 4284814617
0.024357516 -0.00069592905 0.79900002 4284354066
0.025749376 -0.00069592905 0.79900002 4286450704
0.027141234 -0.00069592905 0.79900002 4287239964
0.028533094 -0.00069592905 0.79900002 4287238169
0.029924951 -0.00069592905 0.79900002 4287501085
0.031395197 -0.00069767109 0.80100006 4287108378
0.032790542 -0.00069767109 0.80100006 4290200905
0.034185886 -0.00069767109 0.80100006 4289292652
0.035581224 -0.00069767109 0.80100006 4289489775
0.036976568 -0.00069767109 0.80100006 4288238413
0.038371909 -0.00069767109 0.80100006 4285541157
0.03976725 -0.00069767109 0.80100006 4288102982
0.041162595 -0.00069767109 0.80100006 4289550428
0.042557936 -0.00069767109 0.80100006 4288103527
0.044063024 -0.00069941307 0.80300003 4286919253
0.045461852 -0.00069941307 0.80300003 4286252106
0.046860676 -0.00069941307 0.80300003 4285333564
0.0482595 -0.00069941307 0.80300003 4285661184
0.049658328 -0.00069941307 0.80300003 4285464576
0.051057156 -0.00069941307 0.80300003 4286054400
0.05245598 -0.00069941307 0.80300003 4286185472
0.053854804 -0.00069941307 0.80300003 4287644416
0.055253632 -0.00069941307 0.80300003 4289618188
0.056934666 -0.00070289709 0.80700004 4289098364
0.058340456 -0.00070289709 0.80700004 4286927196
0.059746251 -0.00070289709 0.80700004 4284494890
0.061303601 -0.00070463907 0.80900002 4282323721
0.062712878 -0.00070463907 0.80900002 4281736769
0.064122155 -0.00070463907 0.80900002 4281276218
0.065693438 -0.00070638111 0.81100005 4283444228
0.067106202 -0.00070638111 0.81100005 4288510033
0.068349987 -0.00070463907 0.80900002 4290289024
0.069759272 -0.00070463907 0.80900002 4290683781
0.071168542 -0.00070463907 0.80900002 4289633660
0.072757252 -0.00070638111 0.81100005 4284501806
0.074170016 -0.00070638111 0.81100005 4280682296
0.07558278 -0.00070638111 0.81100005 4278386709
0.077375293 -0.00070986507 0.81500006 4279697461
-0.0048836977 0.00069767109 0.80100006 4291865000
-0.0034883553 0.00069767109 0.80100006 4288180592
-0.0020877873 0.00069592905 0.79900002 4286726180
-0.00069592905 0.00069592905 0.79900002 4282778624
0.00069592905 0.00069592905 0.79900002 4284221952
0.0020877873 0.00069592905 0.79900002 4284485376
0.0034796454 0.00069592905 0.79900002 4283437312
0.0048715034 0.00069592905 0.79900002 4283305728
0.0062790401 0.00069767109 0.80100006 4283175424
0.0076552201 0.00069592905 0.79900002 4283635971
0.009047078 0.00069592905 0.79900002 4284224275
0.010438936 0.00069592905 0.79900002 4285145377
0.011830794 0.00069592905 0.79900002 4285542699
0.013222652 0.00069592905 0.79900002 4284884769
0.014614511 0.00069592905 0.79900002 4284493104
0.016006369 0.00069592905 0.79900002 4283835431
0.017398227 0.00069592905 0.79900002 4283637536
0.018790085 0.00069592905 0.79900002 4283703330
0.020181943 0.00069592905 0.79900002 4283964712
0.021573801 0.00069592905 0.79900002 4284030505
0.023023147 0.00069767109 0.80100006 4283637536
0.024418488 0.00069767109 0.80100006 4282847764
0.025813831 0.00069767109 0.80100006 4284484873
0.027209172 0.00069767109 0.80100006 4285471768
0.028604515 0.00069767109 0.80100006 4286912548
0.030074764 0.00069941307 0.80300003 4286386204
0.031473588 0.00069941307 0.80300003 4287831333
0.032872412 0.00069941307 0.80300003 4290594639
0.03427124 0.00069941307 0.80300003 4289423207
0.035670068 0.00069941307 0.80300003 4289752172
0.037068892 0.00069941307 0.80300003 4289357664
0.038467716 0.00069941307 0.80300003 4285936428
0.039866548 0.00069941307 0.80300003 4286788126
0.041265372 0.00069941307 0.80300003 4286985504
0.042664196 0.00069941307 0.80300003 4286058018
0.044172771 0.00070115511 0.80500007 4285334295
0.045575082 0.00070115511 0.80500007 4286775296
0.046977393 0.00070115511 0.80500007 4286906368
0.048379704 0.00070115511 0.80500007 4287168512
0.049782015 0.00070115511 0.80500007 4288020480
0.051184323 0.00070115511 0.80500007 4287371286
0.05271728 0.00070289709 0.80700004 4288950318
0.054123074 0.00070289709 0.80700004 4288565833
0.055528868 0.00070289709 0.80700004 4289421142
0.057075761 0.00070463907 0.80900002 4288705401
0.058629628 0.00070638111 0.81100005 4285810766
0.060042392 0.00070638111 0.81100005 4284036385
0.061455157 0.00070638111 0.81100005 4281799680
0.062867917 0.00070638111 0.81100005 4281469193
0.064280674 0.00070638111 0.81100005 4282850846
0.065855443 0.00070812309 0.81300002 4285023285
0.067271687 0.00070812309 0.81300002 4290549896
0.068687938 0.00070812309 0.81300002 4290749354
0.070104182 0.00070812309 0.81300002 4290683561
0.071520425 0.00070812309 0.81300002 4290158762
0.073116109 0.00070986507 0.81500006 4288184971
0.074535832 0.00070986507 0.81500006 4282337376
0.076141961 0.00071160705 0.81700003 4278190094
0.077565171 0.00071160705 0.81700003 4281794636
-0.0048836977 0.0020930131 0.80100006 4292126378
-0.0034883553 0.0020930131 0.80100006 4288376177
-0.0020930131 0.0020930131 0.80100006 4284552472
-0.00069767109 0.0020930131 0.80100006 4282974208
0.00069767109 0.0020930131 0.80100006 4283634956
0.0020930131 0.0020930131 0.80100006 4283700749
0.0034883553 0.0020930131 0.80100006 4283830784
0.0048836977 0.0020930131 0.80100006 4284357120
0.0062790401 0.0020930131 0.80100006 4285280797
0.0076743821 0.0020930131 0.80100006 4286859828
0.0090697249 0.0020930131 0.80100006 4285676088
0.010465067 0.0020930131 0.80100006 4284491558
0.011860408 0.0020930131 0.80100006 4285016639
0.013255751 0.0020930131 0.80100006 4285016639
0.014614511 0.0020877873 0.79900002 4284951594
0.016006369 0.0020877873 0.79900002 4285280558
0.017441778 0.0020930131 0.80100006 4284294197
0.018837119 0.0020930131 0.80100006 4283833646
0.020232461 0.0020930131 0.80100006 4283834929
0.021627804 0.0020930131 0.80100006 4283966258
0.023023147 0.0020930131 0.80100006 4283900452
0.024418488 0.0020930131 0.80100006 4283703330
0.025813831 0.0020930131 0.80100006 4284290068
0.02727711 0.0020982393 0.80300003 4284421910
0.028675934 0.0020982393 0.80300003 4285599793
0.030074764 0.0020982393 0.80300003 4285402671
0.031551979 0.0021034654 0.80500007 4285997594
0.032954291 0.0021034654 0.80500007 4288958279
0.034356602 0.0021034654 0.80500007 4288964703
0.035758913 0.0021034654 0.80500007 4289227874
0.03716122 0.0021034654 0.80500007 4288699216
0.038563531 0.0021034654 0.80500007 4283633156
0.039965838 0.0021034654 0.80500007 4286386708
0.041368149 0.0021034654 0.80500007 4289215807
0.04277046 0.0021034654 0.80500007 4288832072
0.044282518 0.002108691 0.80700004 4289094987
0.045688309 0.002108691 0.80700004 4289818730
0.047094107 0.002108691 0.80700004 4290476661
0.048499897 0.002108691 0.80700004 4291070578
0.049905695 0.002108691 0.80700004 4292123266
0.051438648 0.0021139171 0.80900002 4291665575
0.052847929 0.0021139171 0.80900002 4291797161
0.054257207 0.0021139171 0.80900002 4291141280
0.055666488 0.0021139171 0.80900002 4290088592
0.057216868 0.0021191433 0.81100005 4288707189
0.058629628 0.0021191433 0.81100005 4285351745
0.060190462 0.0021243691 0.81300002 4283642926
0.061606709 0.0021243691 0.81300002 4280484864
0.063022956 0.0021243691 0.81300002 4281666836
0.0644392 0.0021243691 0.81300002 4288180343
0.066017456 0.0021295953 0.81500006 4288644474
0.067437179 0.0021295953 0.81500006 4289499782
0.068856917 0.0021295953 0.81500006 4289233296
0.07027664 0.0021295953 0.81500006 4288772745
0.071696371 0.0021295953 0.81500006 4289630578
0.073295526 0.0021348214 0.81700003 4290617473
0.074718744 0.0021348214 0.81700003 4283782585
0.076141961 0.0021348214 0.81700003 4278190165
0.077565171 0.0021348214 0.81700003 4282790772
-0.0048836977 0.0034883553 0.80100006 4291862661
-0.0034883553 0.0034883553 0.80100006 4286862393
-0.0020930131 0.0034883553 0.80100006 4284684288
-0.00069767109 0.0034883553 0.80100006 4282974208
0.00069767109 0.0034883553 0.80100006 4283367424
0.0020930131 0.0034883553 0.80100006 4284616452
0.0034883553 0.0034883553 0.80100006 4284223761
0.0048958915 0.0034970655 0.80300003 4285671208
0.0062947175 0.0034970655 0.80300003 4287122262
0.0076743821 0.0034883553 0.80100006 4288306537
0.0090697249 0.0034883553 0.80100006 4287652450
0.010491196 0.0034970655 0.80300003 4285481537
0.011890023 0.0034970655 0.80300003 4285284676
0.013288849 0.0034970655 0.80300003 4284758076
0.014651093 0.0034883553 0.80100006 4285279263
0.016046437 0.0034883553 0.80100006 4285542179
0.017441778 0.0034883553 0.80100006 4285149240
0.018837119 0.0034883553 0.80100006 4284491310
0.020232461 0.0034883553 0.80100006 4284096298
0.021627804 0.0034883553 0.80100006 4284030505
0.02308063 0.0034970655 0.80300003 4284228400
0.02454043 0.0035057757 0.80500007 4283899691
0.025942737 0.0035057757 0.80500007 4284159763
0.027345048 0.0035057757 0.80500007 4284159763
0.028747357 0.0035057757 0.80500007 4284357669
0.030149668 0.0035057757 0.80500007 4284094753
0.031630371 0.0035144854 0.80700004 4284424220
0.033036161 0.0035144854 0.80700004 4287319112
0.034441959 0.0035144854 0.80700004 4287586143
0.03584775 0.0035144854 0.80700004 4288507245
0.037253547 0.0035144854 0.80700004 4288434765
0.038659338 0.0035144854 0.80700004 4284421136
0.040065132 0.0035144854 0.80700004 4287368960
0.041470926 0.0035144854 0.80700004 4292895558
0.04287672 0.0035144854 0.80700004 4289689748
0.044282518 0.0035144854 0.80700004 4290676643
0.045801535 0.0035231954 0.80900002 4290350998
0.04721082 0.0035231954 0.80900002 4290350998
0.048620094 0.0035231954 0.80900002 4291207323
0.050029375 0.0035231954 0.80900002 4291207323
0.051438648 0.0035231954 0.80900002 4290880170
0.052847929 0.0035231954 0.80900002 4290748584
0.054391343 0.0035319056 0.81100005 4290615978
0.055804104 0.0035319056 0.81100005 4289629083
0.057357971 0.0035406153 0.81300002 4288315274
0.058918804 0.0035493255 0.81500006 4285157210
0.060338531 0.0035493255 0.81500006 4283772716
0.061758265 0.0035493255 0.81500006 4280025088
0.063177995 0.0035493255 0.81500006 4282321188
0.064597726 0.0035493255 0.81500006 4290282141
0.066017456 0.0035493255 0.81500006 4288777872
0.067437179 0.0035493255 0.81500006 4288514956
0.069025882 0.0035580352 0.81700003 4287854721
0.070449099 0.0035580352 0.81700003 4287657599
0.071872316 0.0035580352 0.81700003 4289299830
0.073295526 0.0035580352 0.81700003 4290813069
0.074718744 0.0035580352 0.81700003 4286676623
0.076141961 0.0035580352 0.81700003 4278190082
0.077565171 0.0035580352 0.81700003 4286010764
-0.0034883553 0.0048836977 0.80100006 4287252224
-0.0020982393 0.0048958915 0.80300003 4285079572
-0.00069941307 0.0048958915 0.80300003 4284158470
0.00069941307 0.0048958915 0.80300003 4284949027
0.0020982393 0.0048958915 0.80300003 4287712332
0.0034970655 0.0048958915 0.80300003 4288835654
0.0049080853 0.0049080853 0.80500007 4289822549
0.0063103959 0.0049080853 0.80500007 4287979645
0.0076935436 0.0048958915 0.80300003 4287519094
0.00909237 0.0048958915 0.80300003 4287322694
0.010491196 0.0048958915 0.80300003 4286138164
0.011919637 0.0049080853 0.80500007 4286072389
0.013321946 0.0049080853 0.80500007 4286467147
0.014651093 0.0048836977 0.80100006 4286531127
0.016046437 0.0048836977 0.80100006 4286794299
0.017441778 0.0048836977 0.80100006 4286859593
0.018884154 0.0048958915 0.80300003 4286728006
0.020282978 0.0048958915 0.80300003 4285479722
0.021735808 0.0049080853 0.80500007 4283703311
0.023138119 0.0049080853 0.80500007 4284031802
0.02454043 0.0049080853 0.80500007 4284492353
0.025942737 0.0049080853 0.80500007 4284951594
0.027412986 0.0049202796 0.80700004 4285017643
0.028818781 0.0049202796 0.80700004 4285149742
0.030224573 0.0049202796 0.80700004 4284952107
0.031630371 0.0049202796 0.80700004 4284885298
0.033036161 0.0049202796 0.80700004 4287056467
0.034441959 0.0049202796 0.80700004 4287914082
0.03584775 0.0049202796 0.80700004 4289098099
0.037253547 0.0049202796 0.80700004 4288763726
0.038755149 0.0049324734 0.80900002 4284552974
0.040164426 0.0049324734 0.80900002 4287701823
0.041573707 0.0049324734 0.80900002 4293426070
0.043089248 0.0049446677 0.81100005 4291729583
0.044502009 0.0049446677 0.81100005 4291992755
0.045914773 0.0049446677 0.81100005 4290548125
0.047327533 0.0049446677 0.81100005 4290087574
0.048740294 0.0049446677 0.81100005 4289692298
0.050153058 0.0049446677 0.81100005 4288705403
0.051565818 0.0049446677 0.81100005 4287387774
0.052978583 0.0049446677 0.81100005 4286993273
0.054391343 0.0049446677 0.81100005 4286926946
0.055804104 0.0049446677 0.81100005 4286926946
0.057499073 0.0049690558 0.81500006 4287585153
0.058918804 0.0049690558 0.81500006 4287650946
0.060338531 0.0049690558 0.81500006 4283841614
0.061909813 0.0049812496 0.81700003 4279369738
0.063333035 0.0049812496 0.81700003 4283508565
0.064756244 0.0049812496 0.81700003 4291337932
0.066179454 0.0049812496 0.81700003 4290091159
0.067602672 0.0049812496 0.81700003 4289301386
0.069025882 0.0049812496 0.81700003 4288641173
0.070449099 0.0049812496 0.81700003 4288443794
0.071960285 0.0049873465 0.81800002 4290417248
0.073385246 0.0049873465 0.81800002 4291667315
0.074810192 0.0049873465 0.81800002 4286937215
0.076141961 0.0049812496 0.81700003 4278190080
-0.0049202796 0.0063260738 0.80700004 4290600969
-0.0035144854 0.0063260738 0.80700004 4287771904
-0.002108691 0.0063260738 0.80700004 4285734170
-0.00070115511 0.0063103959 0.80500007 4284944654
0.00070115511 0.0063103959 0.80500007 4285409316
0.0021034654 0.0063103959 0.80500007 4289027931
0.0035057757 0.0063103959 0.80500007 4289033841
0.0049080853 0.0063103959 0.80500007 4288902255
0.0063103959 0.0063103959 0.80500007 4287322985
0.007712706 0.0063103959 0.80500007 4286270297
0.0091150161 0.0063103959 0.80500007 4285150255
0.010517326 0.0063103959 0.80500007 4285018669
0.01194925 0.0063260738 0.80700004 4285540903
0.013355045 0.0063260738 0.80700004 4287053885
0.014724256 0.0063103959 0.80500007 4286924867
0.016126567 0.0063103959 0.80500007 4287122247
0.017572427 0.0063260738 0.80700004 4287779661
0.018978221 0.0063260738 0.80700004 4287187524
0.020384016 0.0063260738 0.80700004 4285941302
0.021735808 0.0063103959 0.80500007 4284099098
0.023138119 0.0063103959 0.80500007 4283900452
0.024601398 0.0063260738 0.80700004 4284558638
0.026007192 0.0063260738 0.80700004 4285214783
0.027412986 0.0063260738 0.80700004 4285083197
0.028818781 0.0063260738 0.80700004 4285083447
0.030224573 0.0063260738 0.80700004 4284688689
0.031708755 0.0063417517 0.80900002 4285082666
0.033118036 0.0063417517 0.80900002 4287122249
0.034527313 0.0063417517 0.80900002 4287782493
0.035936594 0.0063417517 0.80900002 4289229939
0.037345868 0.0063417517 0.80900002 4288635511
0.038755149 0.0063417517 0.80900002 4286266963
0.04026372 0.0063574295 0.81100005 4287836484
0.041676484 0.0063574295 0.81100005 4292704910
0.043089248 0.0063574295 0.81100005 4290483881
0.044502009 0.0063574295 0.81100005 4289430937
0.045914773 0.0063574295 0.81100005 4288706687
0.047327533 0.0063574295 0.81100005 4288114549
0.04886049 0.0063731079 0.81300002 4288308056
0.050276738 0.0063731079 0.81300002 4287189318
0.051692985 0.0063731079 0.81300002 4286265657
0.053109229 0.0063731079 0.81300002 4285870899
0.054525476 0.0063731079 0.81300002 4286462016
0.055941723 0.0063731079 0.81300002 4287712083
0.057640173 0.0064044637 0.81700003 4287714679
0.05906339 0.0064044637 0.81700003 4288109437
0.0604866 0.0064044637 0.81700003 4285157453
0.061909813 0.0064044637 0.81700003 4279435264
0.063333035 0.0064044637 0.81700003 4284955219
0.064756244 0.0064044637 0.81700003 4291402932
0.066260464 0.0064123026 0.81800002 4289696664
0.06768541 0.0064123026 0.81800002 4288972684
0.069110371 0.0064123026 0.81800002 4289299089
0.070535332 0.0064123026 0.81800002 4289496469
0.072136231 0.006427981 0.82000005 4291138963
0.073564671 0.006427981 0.82000005 4291138963
0.074993111 0.006427981 0.82000005 4285558090
0.076421551 0.006427981 0.82000005 4282728991
-0.0049202796 0.0077318684 0.80700004 4291193905
-0.0035144854 0.0077318684 0.80700004 4287706624
-0.002108691 0.0077318684 0.80700004 4286129180
-0.00070289709 0.0077318684 0.80700004 4285865752
0.00070289709 0.0077318684 0.80700004 4286133305
0.002108691 0.0077318684 0.80700004 4288896611
0.0035144854 0.0077318684 0.80700004 4287845708
0.0049202796 0.0077318684 0.80700004 4285016609
0.0063260738 0.0077318684 0.80700004 4284620036
0.0077318684 0.0077318684 0.80700004 4283633152
0.0091376621 0.0077318684 0.80700004 4284223761
0.010543456 0.0077318684 0.80700004 4284223761
0.01194925 0.0077318684 0.80700004 4284223493
0.013355045 0.0077318684 0.80700004 4284355079
0.014760839 0.0077318684 0.80700004 4284750632
0.016206698 0.0077510295 0.80900002 4284882218
0.017615976 0.0077510295 0.80900002 4285934881
0.018978221 0.0077318684 0.80700004 4287448120
0.020384016 0.0077318684 0.80700004 4286465059
0.02178981 0.0077318684 0.80700004 4286201630
0.023195602 0.0077318684 0.80700004 4285414193
0.024601398 0.0077318684 0.80700004 4285480242
0.026007192 0.0077318684 0.80700004 4285742152
0.027480923 0.0077510295 0.80900002 4284952892
0.0288902 0.0077510295 0.80900002 4285017141
0.030299481 0.0077510295 0.80900002 4284819505
0.031708755 0.0077510295 0.80900002 4285016355
0.03319991 0.0077701919 0.81100005 4287253317
0.034612674 0.0077701919 0.81100005 4288045148
0.036025438 0.0077701919 0.81100005 4290479489
0.037530523 0.0077893534 0.81300002 4289229451
0.038946766 0.0077893534 0.81300002 4286531938
0.040363014 0.0077893534 0.81300002 4286317873
0.041779261 0.0077893534 0.81300002 4286054702
0.043195508 0.0077893534 0.81300002 4286251032
0.044721503 0.0078085158 0.81500006 4285399051
0.04614123 0.0078085158 0.81500006 4285399040
0.04756096 0.0078085158 0.81500006 4285136896
0.048980691 0.0078085158 0.81500006 4286389248
0.050400425 0.0078085158 0.81500006 4286784001
0.051820152 0.0078085158 0.81500006 4286790458
0.053239882 0.0078085158 0.81500006 4287908682
0.054659612 0.0078085158 0.81500006 4287517790
0.056079339 0.0078085158 0.81500006 4288767601
0.057640173 0.0078276778 0.81700003 4288638330
0.05906339 0.0078276778 0.81700003 4287059297
0.0604866 0.0078276778 0.81700003 4284102474
0.06198559 0.0078372583 0.81800002 4279435267
0.06341055 0.0078372583 0.81800002 4284557642
0.064835504 0.0078372583 0.81800002 4291992251
0.066422462 0.0078564212 0.82000005 4290286988
0.067850903 0.0078564212 0.82000005 4289431679
0.06927935 0.0078564212 0.82000005 4288182169
0.070880249 0.0078755822 0.82200003 4288116376
0.072488114 0.0078947451 0.82400006 4289498478
0.073744088 0.0078755822 0.82200003 4287195723
0.075176023 0.0078755822 0.82200003 4284832256
-0.0035144854 0.0091376621 0.80700004 4287772160
-0.0021139171 0.0091603082 0.80900002 4286261532
-0.00070463907 0.0091603082 0.80900002 4285866774
0.00070463907 0.0091603082 0.80900002 4286659383
0.0021139171 0.0091603082 0.80900002 4287448900
0.0035231954 0.0091603082 0.80900002 4286857266
0.0049324734 0.0091603082 0.80900002 4283567616
0.0063417517 0.0091603082 0.80900002 4284419328
0.0077510295 0.0091603082 0.80900002 4284748292
0.0091603082 0.0091603082 0.80900002 4284422423
0.010569585 0.0091603082 0.80900002 4284356374
