# .PCD v0.7 - Point Cloud Data file format
VERSION 0.7
FIELDS x y z
SIZE 4 4 4
TYPE F F F
COUNT 1 1 1
WIDTH 1350
HEIGHT 1
VIEWPOINT 0 0 0 1 0 0 0
POINTS 1350
DATA ascii
-0.0029125966 0.022199564 0.84396899
-0.0053693326 0.022318535 0.84386593
-0.0078476546 0.022584341 0.84363753
-0.010303319 0.023030208 0.84325528
-0.012692704 0.023686761 0.84269309
-0.014963571 0.024580488 0.84192836
-0.017052777 0.025729101 0.84094608
-0.018890446 0.027134413 0.83974463
-0.020412249 0.028776232 0.83834136
-0.021577192 0.03061351 0.83677131
-0.022381574 0.032597534 0.83507609
-0.02286155 0.034699645 0.83328027
-0.023095952 0.037073504 0.8312524
-0.023010043 0.035899453 0.8322553
0.0042325649 0.022460798 0.8437683
0.0061411695 0.022593329 0.84365618
0.0085611092 0.022861699 0.84342831
0.010986996 0.023276778 0.84307516
0.013371532 0.023868745 0.84257084
0.01566831 0.024665251 0.84189177
0.017822826 0.025689326 0.8410182
0.019770702 0.026954627 0.83993852
0.02144256 0.028458674 0.8386547
0.022776829 0.030177528 0.83718723
0.023737233 0.032068036 0.83557296
0.024325227 0.034081738 0.83385319
0.024579616 0.036192477 0.83205038
0.024562312 0.038557224 0.83003038
0.024600595 0.037389521 0.83102787
0.0025664733 0.053916823 0.81689799
0.0044828565 0.053902488 0.81691128
0.0069232699 0.053784307 0.81701362
0.0093851266 0.053520262 0.81724054
0.011824476 0.053077359 0.81762028
0.014197986 0.052425172 0.81817871
0.016453765 0.05153738 0.81893831
0.018529091 0.050396398 0.8199141
0.02035455 0.049000423 0.82110757
0.021866243 0.047369514 0.82250154
0.023023445 0.045544442 0.82406116
0.023822483 0.043573599 0.82574505
0.02429927 0.041485455 0.82752901
0.024532113 0.039127368 0.82954335
0.024446778 0.040293619 0.82854712
-0.0026376622 0.05375601 0.8170324
-0.0045462665 0.053623475 0.81714451
-0.0069662062 0.053355109 0.81737238
-0.0093920929 0.052940026 0.8177256
-0.011776629 0.052348062 0.81822985
-0.014073408 0.051551554 0.81890893
-0.016227923 0.050527479 0.8197825
-0.018175799 0.049262177 0.82086217
-0.019847658 0.047758132 0.822146
-0.021181926 0.04603928 0.82361346
-0.02214233 0.044148769 0.8252278
-0.022730324 0.042135067 0.82694751
-0.022984713 0.040024329 0.82875037
-0.022967409 0.037659582 0.83077031
-0.023005692 0.038827285 0.82977283
-0.00097157038 0.022299984 0.84390277
-0.0028879538 0.022314319 0.84388942
-0.005328367 0.022432499 0.84378707
-0.0077902242 0.022696542 0.84356016
-0.010229573 0.023139445 0.84318048
-0.012603083 0.023791634 0.84262204
-0.014858861 0.024679426 0.84186238
-0.016934188 0.025820406 0.84088659
-0.018759647 0.027216382 0.83969313
-0.02027134 0.028847292 0.83829921
-0.021428542 0.030672364 0.8367396
-0.02222758 0.032643206 0.83505565
-0.022704368 0.034731351 0.83327174
-0.02293721 0.037089437 0.83125734
-0.022851875 0.035923187 0.83225358
0.0042095846 0.022573438 0.84368825
0.0061054239 0.022705082 0.84357691
0.0085091786 0.022971658 0.84335053
0.01091884 0.02338396 0.8429997
0.013287428 0.023971967 0.84249878
0.015568845 0.024763146 0.84182423
0.017708952 0.025780372 0.84095657
0.019643798 0.027037211 0.8398841
0.021304475 0.028531197 0.83860886
0.02262982 0.030238556 0.83715123
0.023583801 0.032116421 0.83554769
0.02416786 0.034116656 0.83383942
0.02442055 0.036213279 0.83204865
0.024403362 0.038562208 0.83004224
0.024441389 0.037402313 0.83103299
0.002554636 0.053819075 0.81699765
0.0044582025 0.053804837 0.81701088
0.0068822941 0.053687446 0.81711251
0.0093276845 0.05342517 0.81733793
0.011750719 0.052985229 0.81771511
0.014108353 0.052337401 0.81826979
0.016349046 0.05145555 0.81902432
0.018410493 0.050322197 0.81999356
0.020223742 0.048935559 0.82117903
0.021725323 0.047315557 0.82256371
0.022874787 0.045502692 0.82411289
0.023668479 0.04354503 0.82578552
0.024142079 0.041470852 0.82755756
0.024373366 0.039128538 0.82955843
0.0242886 0.040286988 0.82856888
-0.0026146923 0.053659339 0.81713116
-0.0045105317 0.053527694 0.8172425
-0.0069142864 0.053261116 0.81746888
-0.0093239481 0.052848816 0.81781971
-0.011692535 0.052260809 0.81832063
-0.013973952 0.051469628 0.81899518
-0.016114058 0.050452404 0.81986284
-0.018048907 0.049195565 0.82093531
-0.019709583 0.047701579 0.82221055
-0.021034928 0.045994218 0.82366818
-0.021988908 0.044116355 0.82527173
-0.022572968 0.04211612 0.82697994
-0.022825658 0.040019497 0.82877076
-0.02280847 0.037670568 0.83077717
-0.022846498 0.038830463 0.82978636
-0.0009597438 0.022413699 0.84382176
-0.00286331 0.022427939 0.84380853
-0.0052874018 0.022545328 0.84370691
-0.0077327923 0.022807604 0.84348148
-0.010155827 0.023247546 0.8431043
-0.012513462 0.023895374 0.84254962
-0.014754154 0.024777226 0.84179509
-0.016815601 0.025910577 0.84082586
-0.018628851 0.027297216 0.83964038
-0.020130431 0.028917218 0.8382557
-0.021279894 0.030730082 0.83670652
-0.022073587 0.032687746 0.83503389
-0.022547187 0.034761924 0.83326185
-0.022778472 0.037104238 0.83126092
-0.022693709 0.035945788 0.83225054
0.0041866046 0.02268509 0.84360701
0.0060696779 0.022815848 0.84349638
0.0084572472 0.023080628 0.84327155
0.010850683 0.023490153 0.8429231
0.013203322 0.024074202 0.84242558
0.015469377 0.024860052 0.84175557
0.017595073 0.025870429 0.84089375
0.019516891 0.027118806 0.83982849
0.021166386 0.028602732 0.83856183
0.022482807 0.030298594 0.83711398
0.023430362 0.032163814 0.83552128
0.024010491 0.034150582 0.83382452
0.02426148 0.036233086 0.83204579
0.024244405 0.038566198 0.83005291
0.024282176 0.037414111 0.83103698
0.0025427996 0.053720333 0.81709611
0.0044335481 0.053706191 0.81710929
0.0068413168 0.05358959 0.8172102
0.0092702415 0.05332908 0.81743413
0.01167696 0.052892104 0.81780875
0.01401872 0.052248638 0.81835973
0.016244324 0.051372722 0.81910914
0.018291889 0.050247002 0.82007188
0.020092931 0.048869699 0.82124937
0.021584401 0.047260609 0.82262468
0.022726124 0.045459948 0.82416344
0.023514472 0.04351547 0.82582486
0.023984883 0.041455258 0.82758492
0.024214612 0.039128713 0.82957238
0.024130417 0.040279366 0.82858944
-0.0025917215 0.053561669 0.81722873
-0.004474795 0.053430915 0.81733936
-0.0068623638 0.053166132 0.81756419
-0.0092557995 0.052756608 0.81791264
-0.011608439 0.052172557 0.81841022
-0.013874494 0.051386707 0.81908017
-0.016000189 0.05037633 0.81994206
-0.017922008 0.049127955 0.82100731
-0.019571502 0.047644027 0.82227391
-0.020887924 0.045948166 0.82372177
-0.02183548 0.044082947 0.82531452
-0.022415606 0.042096179 0.82701123
-0.022666598 0.040013675 0.82878995
-0.022649523 0.037680563 0.83078289
-0.022687294 0.038832646 0.82979876
-0.00094791653 0.022526428 0.84373969
-0.0028386649 0.022540569 0.84372652
-0.0052464339 0.022657169 0.84362555
-0.0076753586 0.022917679 0.84340167
-0.010082077 0.023354659 0.84302706
-0.012423838 0.023998123 0.84247607
-0.014649441 0.024874039 0.8417266
-0.016697006 0.025999757 0.84076387
-0.018498048 0.02737706 0.83958638
-0.019989518 0.028986154 0.83821106
-0.02113124 0.03078681 0.83667231
-0.021919589 0.032731291 0.83501089
-0.022390001 0.034791503 0.83325082
-0.022619728 0.037118044 0.83126342
-0.022535533 0.035967395 0.8322463
0.0041636233 0.022795873 0.84352475
0.0060339305 0.022925744 0.8434149
0.0084053129 0.023188729 0.84319162
0.010782523 0.02359548 0.8428455
0.013119211 0.024175568 0.84235132
0.015369904 0.024956092 0.84168589
0.017481189 0.025959618 0.84082985
0.01938998 0.027199531 0.83977181
0.02102829 0.028673397 0.83851379
0.022335786 0.030357761 0.83707577
0.023276919 0.032210335 0.83549386
0.023853114 0.034183633 0.8338086
0.024102399 0.036252018 0.83204192
0.024085443 0.038569316 0.83006251
0.024122957 0.037425041 0.83103997
0.0025309627 0.053620711 0.81719357
0.0044088927 0.053606667 0.81720668
0.0068003382 0.053490859 0.81730694
0.0092127966 0.053232111 0.81752932
0.011603198 0.052798096 0.81790137
0.013929082 0.052158993 0.8184486
0.016139599 0.051289015 0.81919301
0.018173283 0.050170928 0.82014918
0.019962113 0.048802964 0.82131875
0.021443471 0.047204781 0.82268471
0.022577455 0.045416329 0.82421303
0.023360457 0.043485031 0.82586318
0.023827679 0.041438788 0.82761133
0.024055852 0.039128017 0.82958525
0.023972226 0.040270869 0.82860899
-0.0025687485 0.053463127 0.81732529
-0.0044390555 0.053333256 0.8174352
-0.0068104384 0.05307027 0.81765848
-0.0091876481 0.05266352 0.81800461
-0.011524336 0.052083429 0.81849879
-0.013775029 0.051302906 0.81916422
-0.015886314 0.05029938 0.82002026
-0.017795105 0.049059469 0.8210783
-0.019433416 0.047585603 0.82233632
-0.020740911 0.045901235 0.82377434
-0.021682044 0.044048663 0.82535625
-0.022258239 0.042075366 0.82704151
-0.022507524 0.04000698 0.82880813
-0.022490568 0.037689682 0.8307876
-0.022528082 0.038833957 0.82981014
-0.0009360878 0.022638286 0.84365648
-0.0028140177 0.022652332 0.84364343
-0.0052054632 0.022768142 0.84354317
-0.0076179216 0.023026885 0.84332079
-0.010008323 0.023460902 0.84294873
-0.012334208 0.024100006 0.8424015
-0.014544724 0.024969982 0.8416571
-0.016578408 0.026088068 0.84070092
-0.018367238 0.027456032 0.83953136
-0.019848596 0.029054219 0.8381654
-0.02098258 0.030842667 0.83663708
-0.021765582 0.032773968 0.83498693
-0.022232804 0.03482021 0.83323878
-0.022460977 0.037130982 0.83126485
-0.022377351 0.03598813 0.83224106
0.0041406415 0.022905901 0.84344161
0.0059981812 0.023034886 0.84333253
0.0083533758 0.023296077 0.84311074
0.010714358 0.023700049 0.842767
0.013035096 0.024276178 0.84227616
0.015270424 0.025051374 0.84161526
0.017367296 0.026048049 0.84076512
0.019263057 0.027279498 0.83971429
0.020890184 0.028743304 0.83846486
0.022188755 0.03041617 0.83703661
0.023123465 0.032256097 0.83546549
0.023695726 0.034215927 0.83379179
0.023943311 0.036270194 0.83203721
0.023926469 0.038571671 0.83007127
0.023963727 0.037435208 0.83104205
0.0025191258 0.053520322 0.81729019
0.0043842364 0.053506371 0.81730318
0.0067593567 0.053391352 0.81740272
0.0091553461 0.053134374 0.81762362
0.011529432 0.052703321 0.81799316
0.013839438 0.05206858 0.81853664
0.016034864 0.051204544 0.81927592
0.018054666 0.050094087 0.8202256
0.019831285 0.048735462 0.82138717
0.021302532 0.047148187 0.82274383
0.022428773 0.045371946 0.82426172
0.023206433 0.043453831 0.82590055
0.023670465 0.041421555 0.82763678
0.023897078 0.03912656 0.82959729
0.023814024 0.040261608 0.82862771
-0.0025457735 0.053363811 0.81742102
-0.0044033132 0.053234827 0.81753016
-0.0067585078 0.052973635 0.81775194
-0.0091194892 0.052569661 0.81809562
-0.011440229 0.051993534 0.81858647
-0.013675557 0.051218338 0.81924736
-0.015772428 0.050221663 0.82009751
-0.017668189 0.048990212 0.82114834
-0.019295316 0.047526408 0.82239777
-0.020593887 0.04585354 0.82382601
-0.021528596 0.044013616 0.82539713
-0.022100857 0.042053785 0.82707089
-0.022348443 0.039999519 0.82882547
-0.022331601 0.037698042 0.83079135
-0.022368859 0.038834505 0.82982057
-0.00092425785 0.02274939 0.84357244
-0.0027893684 0.022763342 0.8435595
-0.0051644892 0.02287836 0.8434599
-0.0075604785 0.023135338 0.84323901
-0.0099345641 0.023566391 0.84286952
-0.01224457 0.02420113 0.84232599
-0.014439996 0.025065171 0.84158671
-0.016459798 0.026175624 0.84063703
-0.018236417 0.02753425 0.83947551
-0.019707663 0.029121526 0.83811885
-0.020833906 0.030897768 0.83660096
-0.021611566 0.032815881 0.83496207
-0.022075597 0.034848157 0.83322585
-0.02230221 0.037143152 0.83126539
-0.022219157 0.036008105 0.83223498
0.0041176574 0.023015266 0.84335768
0.0059624291 0.023143364 0.84324932
0.0083014341 0.02340276 0.84302908
0.010646188 0.023803957 0.84268767
0.012950973 0.024376126 0.84220022
0.015170936 0.025145993 0.84154391
0.017253395 0.026135817 0.84069955
0.019136123 0.0273588 0.839656
0.020752067 0.028812544 0.83841509
0.022041712 0.030473912 0.83699673
0.022969997 0.032301191 0.8354364
0.023538323 0.034247547 0.83377415
0.023784205 0.036287695 0.83203161
0.023767479 0.038573351 0.83007926
0.023804482 0.0374447 0.83104336
0.002507288 0.053419251 0.81738597
0.0043595782 0.053405393 0.81739891
0.0067183725 0.053291164 0.81749779
0.0090978928 0.053035956 0.81771713
0.011455658 0.052607864 0.81808412
0.013749787 0.051977485 0.8186239
0.01593012 0.051119387 0.81935811
0.017936038 0.050016567 0.82030123
0.019700447 0.048667278 0.82145482
0.02116158 0.047090914 0.82280213
0.02228008 0.045326881 0.82430959
0.023052394 0.043421954 0.82593721
0.023513235 0.041403648 0.82766145
0.023738291 0.039124426 0.8296085
0.023655809 0.040251672 0.82864559
-0.0025227959 0.053263813 0.81751591
-0.0043675676 0.053135715 0.81762433
-0.0067065726 0.05287632 0.81784457
-0.0090513257 0.052475125 0.81818593
-0.011356112 0.051902954 0.81867337
-0.013576075 0.051133089 0.81932974
-0.015658533 0.050143264 0.82017404
-0.017541261 0.048920281 0.82121766
-0.019157207 0.047466535 0.82245851
-0.02044685 0.045805167 0.82387692
-0.021375135 0.04397789 0.82543719
-0.021943461 0.042031534 0.82709944
-0.022189345 0.039991386 0.82884198
-0.022172617 0.037705731 0.83079439
-0.02220962 0.038834382 0.82983029
-0.00091242621 0.02285983 0.84348762
-0.0027647165 0.022873687 0.84347475
-0.0051235105 0.022987915 0.8433758
-0.0075030313 0.023243126 0.84315646
-0.0098607959 0.023671217 0.84278947
-0.012154926 0.024301594 0.84224969
-0.014335259 0.025159694 0.84151548
-0.016341176 0.026262514 0.84057236
-0.018105585 0.027611801 0.83941883
-0.019566718 0.029188165 0.83807147
-0.020685218 0.030952198 0.836564
-0.021457532 0.032857127 0.83493644
-0.021918375 0.034875434 0.83321214
-0.022143429 0.037154656 0.83126509
-0.022060947 0.036027409 0.83222806
0.0040946715 0.023124056 0.84327304
0.0059266728 0.023251269 0.8431654
0.0082494868 0.023508867 0.84294671
0.010578009 0.023907287 0.84260768
0.012866841 0.024475496 0.84212363
0.015071437 0.025240032 0.84147179
0.017139481 0.026223006 0.84063333
0.019009177 0.027437523 0.83959693
0.020613933 0.028881203 0.83836466
0.021894652 0.030531071 0.83695608
0.022816509 0.032345701 0.8354066
0.023380902 0.034278587 0.83375585
0.023625083 0.036304608 0.83202541
0.023608474 0.038574446 0.83008653
0.02364522 0.037453607 0.83104396
0.002495449 0.053317577 0.81748116
0.0043349173 0.053303815 0.81749392
0.0066773836 0.05319038 0.81759214
0.0090404321 0.052936934 0.81781
0.011381877 0.052511808 0.81817442
0.013660125 0.051885795 0.81871045
0.015825367 0.051033635 0.81943959
0.017817399 0.049938448 0.82037622
0.019569593 0.048598502 0.82152176
0.021020612 0.047033049 0.82285976
0.02213137 0.045281228 0.82435679
0.022898337 0.043389484 0.82597315
0.023355989 0.041385148 0.82768548
0.023579488 0.039121706 0.82961905
0.023497576 0.040241148 0.82866275
-0.0024998151 0.053163216 0.81761014
-0.0043318165 0.053036004 0.81771779
-0.0066546309 0.052778404 0.81793654
-0.0089831529 0.052379988 0.81827551
-0.011271984 0.051811777 0.81875962
-0.013476581 0.051047239 0.8194114
-0.015544625 0.050064266 0.82024986
-0.01741432 0.04884975 0.82128626
-0.019019077 0.04740607 0.82251853
-0.020299796 0.045756202 0.8239271
-0.021221653 0.043941572 0.82547665
-0.021786045 0.042008687 0.82712734
-0.022030227 0.039982665 0.82885784
-0.022013618 0.037712827 0.83079672
-0.022050364 0.038833667 0.82983929
-0.00090059283 0.022969697 0.84340209
-0.0027400611 0.022983458 0.84338927
-0.0050825276 0.023096893 0.84329104
-0.0074455757 0.023350339 0.84307325
-0.0097870203 0.023775468 0.84270877
-0.012065268 0.024401478 0.84217274
-0.014230511 0.025253639 0.8414436
-0.016222542 0.026348826 0.84050697
-0.017974736 0.027688773 0.83936143
-0.019425757 0.029254226 0.83802342
-0.020536514 0.031006048 0.83652639
-0.02130348 0.032897789 0.83491004
-0.021761132 0.034902126 0.83319771
-0.021984631 0.037165567 0.8312642
-0.02190272 0.036046125 0.83222044
0.0040716827 0.023232345 0.84318775
0.0058909128 0.023358669 0.84308088
0.0081975339 0.023614474 0.84286368
0.010509823 0.024010114 0.84252703
0.012782698 0.024574362 0.84204638
0.014971926 0.02533357 0.84139907
0.017025551 0.02630969 0.84056646
0.018882215 0.027515741 0.83953732
0.020475782 0.028949358 0.83831364
0.021747574 0.030587722 0.8369149
0.022663003 0.032389704 0.83537614
0.023223463 0.034309112 0.83373696
0.023465941 0.03632101 0.83201855
0.023449447 0.038575023 0.83009315
0.023485938 0.037461996 0.8310439
0.0024836094 0.053215373 0.81757569
0.0043102535 0.053201709 0.81758839
0.00663639 0.053089064 0.8176859
0.0089829657 0.052837387 0.81790221
0.011308087 0.052415222 0.81826413
0.013570452 0.051793572 0.81879646
0.015720598 0.050947353 0.81952047
0.017698746 0.049859803 0.8204506
0.019438723 0.048529197 0.82158816
0.020879628 0.046974659 0.82291681
0.02198264 0.045235049 0.82440341
0.022744263 0.043356493 0.8260085
0.023198724 0.04136613 0.8277089
0.023420664 0.039118469 0.82962894
0.023339324 0.040230107 0.82867932
-0.0024768312 0.053062093 0.81770378
-0.0042960611 0.052935764 0.81781071
-0.0066026822 0.052679963 0.81802791
-0.0089149717 0.052284319 0.81836456
-0.011187848 0.051720072 0.81884521
-0.013377074 0.050960865 0.81949252
-0.0154307 0.049984746 0.82032514
-0.017287364 0.048778694 0.82135427
-0.018880932 0.047345079 0.82257795
-0.020152722 0.045706712 0.8239767
-0.021068152 0.043904733 0.82551545
-0.021628611 0.041985322 0.82715464
-0.02187109 0.039973423 0.82887304
-0.021854596 0.037719414 0.83079845
-0.021891087 0.038832437 0.82984763
-0.00088875776 0.023079062 0.8433159
-0.0027154023 0.023092726 0.8433032
-0.0050415383 0.023205372 0.84320569
-0.007388114 0.023457048 0.84298939
-0.0097132353 0.023879213 0.84262747
-0.0119756 0.024500862 0.84209514
-0.014125748 0.02534708 0.84137112
-0.016103894 0.026434632 0.84044099
-0.01784387 0.027765239 0.83930343
-0.019284775 0.029319778 0.83797473
-0.020387789 0.031059386 0.83648819
-0.02114941 0.032937944 0.83488309
-0.021603871 0.034928303 0.83318269
-0.021825813 0.037175968 0.83126265
-0.021744471 0.03606433 0.83221221
0.0040486911 0.02334019 0.84310198
0.0058551477 0.023465628 0.84299582
0.0081455735 0.023719637 0.84278017
0.010441627 0.0241125 0.84244591
0.012698543 0.024672784 0.8419686
0.0148724 0.025426662 0.84132582
0.016911607 0.026395928 0.84049904
0.018755233 0.027593512 0.83947712
0.020337613 0.029017061 0.83826202
0.021600472 0.030643923 0.83687311
0.022509478 0.032433253 0.83534521
0.023065999 0.034339182 0.83371747
0.023306778 0.036336955 0.83201116
0.023290398 0.038575143 0.83009928
0.023326633 0.037469931 0.83104336
0.0024717678 0.053112701 0.81766969
0.004285587 0.053099129 0.81768233
0.0065953908 0.052987278 0.81777918
0.0089254901 0.052737366 0.81799394
0.011234285 0.052318167 0.81835335
0.013480767 0.051700883 0.81888187
0.015615817 0.050860602 0.81960082
0.017580073 0.049780689 0.82052439
0.019307835 0.048459426 0.82165402
0.02073862 0.046915799 0.82297337
0.021833891 0.045188405 0.82444948
0.022590162 0.04332304 0.82604331
0.023041435 0.041346654 0.82773179
0.023261815 0.039114773 0.82963836
0.023181047 0.040218607 0.82869542
-0.0024538438 0.052960493 0.81779695
-0.0042603002 0.052835055 0.81790304
-0.006550726 0.052581046 0.81811875
-0.0088467803 0.052188184 0.81845301
-0.011103696 0.051627897 0.81893033
-0.013277553 0.050874021 0.81957304
-0.015316759 0.049904753 0.82039982
-0.017160386 0.048707172 0.82142174
-0.018742766 0.04728362 0.82263684
-0.020005625 0.045656759 0.82402581
-0.020914631 0.043867432 0.82555372
-0.021471152 0.041961499 0.8271814
-0.021711929 0.039963726 0.82888776
-0.021695551 0.037725542 0.83079958
-0.021731786 0.03883075 0.8298555
-0.00087692053 0.023187982 0.84322917
-0.0026907397 0.023201551 0.8432166
-0.0050005433 0.023313407 0.84311974
-0.0073306425 0.023563318 0.84290493
-0.0096394382 0.023982517 0.84254557
-0.01188592 0.0245998 0.84201699
-0.01402097 0.025440078 0.84129804
-0.015985224 0.026519993 0.84037447
-0.017712986 0.027841257 0.8392449
-0.019143773 0.029384881 0.83792555
-0.020239044 0.031112276 0.83644938
-0.020995315 0.032977641 0.83485562
-0.021446588 0.03495403 0.83316714
-0.021666968 0.037185911 0.83126056
-0.0215862 0.036082078 0.83220351
0.0040256963 0.023447657 0.84301567
0.0058193775 0.02357221 0.84291029
0.0080936048 0.02382442 0.84269613
0.010373421 0.024214504 0.84236425
0.012614377 0.024770828 0.84189028
0.014772859 0.025519373 0.84125215
0.016797645 0.026481785 0.84043115
0.018628234 0.027670899 0.8394165
0.020199424 0.029084383 0.83820999
0.021453351 0.030699739 0.83683085
0.022355925 0.032476414 0.8353138
0.022908514 0.034368865 0.83369756
0.023147589 0.036352511 0.8320033
0.023131324 0.038574867 0.83010495
0.023167303 0.037477475 0.83104235
0.0024599251 0.053009614 0.81776327
0.0042609172 0.05299614 0.81777579
0.0065543852 0.052885078 0.81787199
0.0088680061 0.052636936 0.81808525
0.011160473 0.052220698 0.81844211
0.013391067 0.05160778 0.81896687
0.015511018 0.050773446 0.81968075
0.017461384 0.049701169 0.82059777
0.019176926 0.048389249 0.82171941
0.020597594 0.046856541 0.8230294
0.021685118 0.045141362 0.82449514
0.022436043 0.043289188 0.82607764
0.022884123 0.041326776 0.8277542
0.023102945 0.039110679 0.82964724
0.023022747 0.040206708 0.82871103
-0.0024308525 0.052858483 0.81788963
-0.0042245337 0.052733932 0.81799501
-0.006498761 0.052481722 0.81820911
-0.0087785777 0.052091636 0.81854105
-0.011019533 0.051535312 0.81901497
-0.013178016 0.050786767 0.81965315
-0.015202801 0.049824357 0.82047409
-0.017033389 0.048635241 0.8214888
-0.01860458 0.047221757 0.82269531
-0.019858507 0.045606401 0.82407439
-0.020761082 0.043829728 0.8255915
-0.021313671 0.041937277 0.82720774
-0.021552743 0.03995363 0.82890201
-0.021536481 0.037731275 0.83080029
-0.021572458 0.038828667 0.82986289
-0.00086508144 0.023296528 0.84314203
-0.0026660734 0.02331 0.84312952
-0.0049595418 0.023421064 0.84303331
-0.0072731622 0.023669206 0.84282005
-0.00956563 0.024085442 0.8424632
-0.011796224 0.02469836 0.84193838
-0.013916175 0.025532695 0.84122455
-0.01586654 0.026604973 0.84030747
-0.017582083 0.027916893 0.83918589
-0.019002751 0.029449601 0.83787584
-0.020090273 0.031164778 0.83641016
-0.020841198 0.033016954 0.83482766
-0.021289278 0.034979362 0.8331511
-0.021508101 0.037195459 0.831258
-0.021427903 0.036099434 0.83219427
0.0040026973 0.023554793 0.84292895
0.0057836012 0.023678457 0.84282434
0.0080416277 0.02392887 0.84261173
0.010305203 0.024316177 0.84228218
0.012530196 0.024868537 0.8418116
0.014673302 0.025611751 0.841178
0.016683664 0.026567305 0.84036291
0.018501211 0.02774795 0.83935541
0.020061208 0.029151363 0.83815753
0.021306204 0.030755211 0.83678824
0.02220235 0.032519229 0.83528191
0.022751 0.034398202 0.83367723
0.022988372 0.036367714 0.83199501
0.022972224 0.038574241 0.83011025
0.023007946 0.037484664 0.83104098
0.0024480803 0.052906159 0.81785643
0.0042362427 0.052892782 0.81786889
0.006513373 0.052782509 0.81796438
0.0088105118 0.052536137 0.81817615
0.01108665 0.052122865 0.81853044
0.013301354 0.051514313 0.8190515
0.015406203 0.05068592 0.81976026
0.017342674 0.04962128 0.82067078
0.019045996 0.048318706 0.82178438
0.020456543 0.046796918 0.82308507
0.02153632 0.045093957 0.82454038
0.022281894 0.043254979 0.82611161
0.022726782 0.041306548 0.82777619
0.022944048 0.039106239 0.82965577
0.02286442 0.040194456 0.82872623
-0.0024078568 0.052756105 0.8179819
-0.0041887606 0.05263244 0.8180865
-0.0064467872 0.052382026 0.81829911
-0.0087103629 0.051994722 0.81862867
-0.010935355 0.051442362 0.81909925
-0.013078461 0.050699148 0.8197329
-0.015088823 0.049743593 0.820548
-0.016906369 0.048562948 0.82155544
-0.018466368 0.047159534 0.82275337
-0.019711364 0.045555685 0.82412261
-0.020607511 0.04379167 0.82562894
-0.02115616 0.041912697 0.82723361
-0.02139353 0.039943185 0.82891583
-0.021377385 0.037736658 0.83080065
-0.021413106 0.038826235 0.82986993
-0.00085323979 0.023404738 0.84305441
-0.002641402 0.023418115 0.84304196
-0.0049185324 0.023528388 0.84294647
-0.0072156717 0.023774762 0.84273475
-0.0094918096 0.024188032 0.84238046
-0.011706512 0.024796586 0.84185934
-0.013811362 0.025624976 0.84115058
-0.015747832 0.026689617 0.84024006
-0.017451156 0.027992191 0.83912647
-0.018861704 0.029513979 0.83782578
-0.019941481 0.03121694 0.83637053
-0.020687053 0.03305592 0.83479923
-0.021131942 0.035004351 0.83313465
-0.021349207 0.03720466 0.83125508
-0.02126958 0.03611644 0.83218467
0.003979695 0.02366164 0.84284186
0.0057478189 0.023784418 0.84273803
0.0079896422 0.024033034 0.84252691
0.010236975 0.024417561 0.84219974
0.012445999 0.024965957 0.84173256
0.014573727 0.025703838 0.84110343
0.016569663 0.026652535 0.84029424
0.018374167 0.027824707 0.83929396
0.01992297 0.02921805 0.83810467
0.021159032 0.03081039 0.8367452
0.022048745 0.032561749 0.83524972
0.022593461 0.034427237 0.83365655
0.022829127 0.036382616 0.83198643
0.022813095 0.03857331 0.83011514
0.022848561 0.037491553 0.83103919
0.0024362339 0.052802384 0.8179493
0.0042115641 0.052789103 0.81796163
0.0064723543 0.052679621 0.81805646
0.0087530091 0.052435014 0.81826669
0.011012812 0.052024707 0.81861842
0.013211624 0.051420521 0.81913573
0.015301369 0.050598077 0.81983948
0.017223943 0.049541075 0.82074344
0.018915042 0.048247851 0.82184905
0.020315468 0.046736982 0.82314038
0.021387495 0.04504624 0.8245852
0.022127721 0.043220457 0.82614523
0.022569414 0.04128601 0.82779783
0.02278512 0.039101489 0.82966393
0.022706065 0.040181898 0.82874101
-0.0023848573 0.052653406 0.81807381
-0.0041529811 0.052530628 0.8181777
-0.006394804 0.052282009 0.81838882
-0.0086421371 0.051897485 0.81871599
-0.010851162 0.051349089 0.81918317
-0.012978889 0.050611209 0.81981224
-0.014974824 0.049662508 0.82062149
-0.01677933 0.048490338 0.82162172
-0.01832813 0.047096997 0.82281107
-0.019564195 0.045504656 0.82417053
-0.020453908 0.043753296 0.82566601
-0.020998623 0.041887809 0.82725918
-0.021234289 0.039932426 0.82892931
-0.021218257 0.037741736 0.83080059
-0.021253724 0.038823493 0.82987654
-0.00084139605 0.023512663 0.84296644
-0.0026167261 0.023525944 0.8429541
-0.0048775165 0.023635425 0.84285927
-0.0071581714 0.023880031 0.84264904
-0.0094179744 0.024290336 0.84229732
-0.011616786 0.024894523 0.84177995
-0.01370653 0.025716968 0.84107625
-0.015629105 0.026773969 0.84017229
-0.017320203 0.028067196 0.83906668
-0.018720631 0.029578065 0.83777529
-0.019792657 0.031268805 0.83633047
-0.020532884 0.033094585 0.8347705
-0.020974576 0.035029035 0.8331179
-0.021190282 0.037213556 0.83125174
-0.021111228 0.036133148 0.83217466
0.0039566881 0.023768241 0.84275448
0.00571203 0.02389013 0.84265137
0.0079376465 0.024136949 0.8424418
0.010168732 0.024518695 0.84211695
0.012361787 0.025063127 0.84165317
0.014474132 0.025795674 0.84102863
0.016455639 0.026737513 0.84022522
0.0182471 0.02790121 0.83923221
0.019784706 0.029284481 0.8380515
0.021011831 0.030865308 0.83670187
0.021895112 0.032604005 0.83521718
0.022435889 0.034456011 0.83363551
0.022669852 0.036397252 0.83197749
0.022653937 0.038572107 0.83011973
0.022689145 0.037498172 0.8310371
0.0024243854 0.052698314 0.81804186
0.0041868812 0.05268513 0.81805408
0.0064313272 0.052576441 0.8181482
0.0086954944 0.052333601 0.81835693
0.010938961 0.051926263 0.81870615
0.013121876 0.051326446 0.81921971
0.015196514 0.050509945 0.81991833
0.01710519 0.049460586 0.82081574
0.018784063 0.04817671 0.82191342
0.020174365 0.046676762 0.8231954
0.021238644 0.044998247 0.82462978
0.021973517 0.043185662 0.82617849
0.022412019 0.041265197 0.82781917
0.022626163 0.039096467 0.8296718
0.022547679 0.040169068 0.82875556
-0.0023618529 0.052550413 0.81816548
-0.0041171946 0.052428525 0.8182686
-0.0063428106 0.052181706 0.81847817
-0.0085738963 0.05179996 0.81880301
-0.010766952 0.051255528 0.8192668
-0.012879296 0.050522983 0.81989133
-0.014860803 0.04958114 0.82069474
-0.016652264 0.048417445 0.82168776
-0.01818987 0.047034174 0.82286841
-0.019416995 0.045453347 0.82421809
-0.020300278 0.04371465 0.82570273
-0.020841053 0.041862644 0.8272844
-0.021075018 0.039921403 0.82894248
-0.021059101 0.037746549 0.83080024
-0.021094311 0.038820483 0.82988286
-0.00082954986 0.023620341 0.8428781
-0.0025920458 0.023633525 0.84286582
-0.0048364918 0.023742216 0.84277171
-0.007100659 0.023985052 0.84256303
-0.0093441261 0.024392392 0.84221381
-0.01152704 0.024992209 0.8417002
-0.013601679 0.025808709 0.84100163
-0.015510355 0.026858069 0.84010416
-0.017189229 0.028141946 0.83900654
-0.01857953 0.029641893 0.83772451
-0.019643808 0.031320408 0.83629018
-0.020378681 0.033132993 0.83474147
-0.020817183 0.035053458 0.83310074
-0.021031328 0.037222188 0.8312481
-0.020952845 0.036149587 0.83216441
0.003933677 0.023874627 0.84266675
0.0056762337 0.023995627 0.8425644
0.0078856405 0.02424065 0.84235632
0.010100476 0.024619617 0.84203386
0.012277558 0.025160084 0.84157348
0.014374519 0.025887292 0.84095347
0.016341593 0.026822273 0.84015596
0.018120004 0.027977495 0.83917016
0.019646412 0.029350691 0.83799803
0.0208646 0.030920004 0.83665824
0.02174145 0.032646038 0.8351844
0.022278287 0.034484554 0.83361423
0.022510547 0.036411658 0.83196825
0.022494746 0.038570672 0.83012402
0.022529699 0.037504558 0.83103472
0.0024125346 0.052593991 0.81813413
0.0041621933 0.052580904 0.81814629
0.0063902922 0.052473005 0.81823969
0.0086379685 0.052231934 0.81844687
0.010865096 0.051827565 0.81879359
0.013032111 0.051232114 0.81930345
0.015091639 0.050421562 0.81999695
0.016986413 0.049379844 0.82088786
0.018653059 0.048105318 0.8219775
0.020033235 0.046616297 0.82325017
0.021089761 0.044950005 0.82467407
0.021819282 0.043150622 0.82621151
0.02225459 0.041244145 0.82784027
0.022467175 0.039091215 0.82967937
0.022389265 0.040155999 0.8287698
-0.0023388437 0.05244717 0.81825686
-0.0040814001 0.052326169 0.8183592
-0.0062908065 0.052081145 0.81856728
-0.0085056424 0.051702179 0.81888974
-0.010682725 0.051161714 0.81935018
-0.012779685 0.050434504 0.81997013
-0.014746759 0.049499523 0.8207677
-0.01652517 0.048344299 0.82175344
-0.01805158 0.046971105 0.82292557
-0.019269766 0.045401793 0.82426536
-0.020146618 0.043675758 0.82573926
-0.020683454 0.041837242 0.82730937
-0.020915713 0.039910138 0.82895535
-0.020899912 0.037751123 0.83079958
-0.020934867 0.038817238 0.82988888
-0.0008177011 0.023727804 0.84278947
-0.0025673597 0.023740891 0.84277731
-0.0047954586 0.023848791 0.84268391
-0.0070431354 0.024089862 0.84247673
-0.009270262 0.024494233 0.84213006
-0.011437277 0.025089681 0.84162021
-0.013496805 0.025900235 0.84092665
-0.015391579 0.026941951 0.8400358
-0.017058225 0.028216477 0.83894616
-0.018438401 0.029705498 0.83767343
-0.019494928 0.031371791 0.83624953
-0.020224448 0.033171173 0.83471209
-0.020659758 0.03507765 0.83308339
-0.020872341 0.037230581 0.83124423
-0.020794431 0.036165796 0.8321538
0.0039106612 0.02398083 0.84257883
0.0056404304 0.024100944 0.8424772
0.0078336233 0.024344169 0.84227067
0.010032205 0.024720354 0.8419506
0.012193312 0.025256855 0.84149355
0.014274884 0.025978727 0.84087807
0.016227523 0.026906848 0.8400864
0.017992884 0.028053591 0.83910787
0.01950809 0.029416708 0.83794433
0.020717338 0.030974507 0.83661437
0.021587754 0.032687876 0.83515131
0.022120653 0.034512896 0.83359271
0.022351207 0.036425862 0.83195883
0.022335524 0.038569033 0.83012813
0.022370219 0.037510742 0.83103216
0.0024006811 0.052489445 0.81822616
0.0041375002 0.052476451 0.81823826
0.0063492488 0.052369345 0.818331
0.0085804304 0.052130044 0.8185367
0.010791214 0.05172864 0.8188808
0.012942328 0.051137559 0.8193869
0.014986742 0.050332956 0.82007533
0.016867612 0.049298882 0.82095969
0.018522026 0.048033711 0.82204133
0.019892072 0.046555616 0.82330471
0.020940848 0.04490155 0.82471818
0.021665016 0.043115374 0.82624429
0.022097129 0.041222889 0.82786107
0.022308154 0.039085753 0.82968676
0.022230815 0.040142726 0.82878381
-0.0023158295 0.0523437 0.81834799
-0.0040455987 0.052223586 0.81844962
-0.0062387916 0.051980361 0.81865615
-0.0084373737 0.051604174 0.81897622
-0.010598481 0.051067673 0.81943327
-0.012680053 0.050345801 0.82004875
-0.014632692 0.049417682 0.82084042
-0.016398052 0.048270937 0.82181895
-0.017913258 0.04690782 0.82298249
-0.019122507 0.045350023 0.82431245
-0.019992922 0.043636654 0.8257755
-0.020525821 0.04181163 0.82733411
-0.020756375 0.039898667 0.82896799
-0.020740692 0.037755497 0.83079869
-0.020775389 0.038813788 0.82989472
-0.00080584956 0.023835085 0.84270066
-0.0025426687 0.023848077 0.84268856
-0.0047544171 0.023955185 0.84259582
-0.0069855992 0.024194486 0.84239012
-0.0091963829 0.02459589 0.84204602
-0.011347497 0.025186969 0.84153992
-0.01339191 0.025991576 0.84085149
-0.015272779 0.027025647 0.83996713
-0.016927194 0.028290819 0.83888549
-0.018297242 0.029768916 0.83762211
-0.019346016 0.03142298 0.83620864
-0.020070184 0.033209156 0.83468252
-0.020502297 0.035101641 0.83306575
-0.020713324 0.037238777 0.83124006
-0.020635983 0.036181804 0.83214301
0.0038876403 0.024086874 0.84249061
0.0056046192 0.0242061 0.84238976
0.0077815955 0.024447525 0.84218472
0.0099639203 0.024820929 0.84186703
0.012109047 0.025353463 0.84141332
0.014175228 0.026070001 0.84080243
0.016113428 0.026991256 0.8400166
0.017865736 0.02812952 0.83904535
0.019369738 0.029482558 0.83789045
0.020570045 0.031028839 0.83657026
0.021434024 0.032729536 0.83511806
0.021962982 0.034541067 0.83357096
0.022191832 0.036439884 0.83194911
0.022176264 0.038567208 0.83013201
0.022210706 0.037516743 0.8310293
0.0023888254 0.052384689 0.81831807
0.0041128024 0.052371792 0.81833005
0.0063081966 0.052265476 0.81842208
0.0085228803 0.052027944 0.81862622
0.010717317 0.05162951 0.81896782
0.012852524 0.051042803 0.81947017
0.014881822 0.050244145 0.82015353
0.016748784 0.04921772 0.82103139
0.018390965 0.047961902 0.82210499
0.019750882 0.046494734 0.82335901
0.020791901 0.044852901 0.82476205
0.021510713 0.043079931 0.8262769
0.021939633 0.041201439 0.82788169
0.022149097 0.039080109 0.82969385
0.02207233 0.040129267 0.82879764
-0.0022928102 0.052240022 0.81843901
-0.0040097893 0.052120797 0.81853986
-0.0061867652 0.051879369 0.81874484
-0.00836909 0.051505964 0.81906259
-0.010514217 0.050973434 0.81951624
-0.012580398 0.050256897 0.82012713
-0.014518599 0.04933564 0.82091296
-0.016270906 0.048197374 0.82188427
-0.017774908 0.046844337 0.82303917
-0.018975215 0.045298059 0.8243593
-0.019839194 0.043597359 0.82581156
-0.020368151 0.041785832 0.8273586
-0.020597002 0.039887011 0.82898045
-0.020581434 0.037759688 0.83079761
-0.020615876 0.038810156 0.82990026
-0.00079399545 0.023942208 0.84261155
-0.0025179724 0.023955103 0.84259957
-0.0047133667 0.024061417 0.84250748
-0.0069280504 0.024298951 0.84230334
-0.0091224872 0.024697386 0.84196174
-0.011257695 0.025284095 0.84145939
-0.013286992 0.02608275 0.84077603
-0.015153953 0.027109176 0.83989823
-0.016796134 0.028364995 0.83882457
-0.018156052 0.02983216 0.83757061
-0.019197071 0.031473994 0.83616757
-0.019915884 0.033246964 0.83465272
-0.020344803 0.035125457 0.83304787
-0.020554269 0.03724679 0.83123571
-0.020477502 0.036197629 0.83213198
0.0038646148 0.02419279 0.84240222
0.0055688 0.024311125 0.84230208
0.0077295555 0.024550753 0.84209865
0.0098956209 0.024921374 0.84178329
0.012024764 0.025449941 0.84133297
0.01407555 0.026161138 0.84072661
0.01599931 0.027075529 0.83994669
0.01773856 0.028205313 0.83898258
0.019231357 0.029548271 0.83783633
0.020422721 0.031083029 0.83652598
0.021280261 0.032771055 0.83508456
0.021805279 0.034569085 0.83354902
0.022032423 0.036453757 0.83193928
0.022016972 0.03856523 0.8301357
0.022051156 0.037522592 0.83102632
0.0023769673 0.052279759 0.81840974
0.0040880986 0.052266959 0.81842166
0.0062671355 0.052161437 0.81851304
0.008465318 0.051925674 0.81871569
0.010643404 0.051530205 0.81905472
0.012762702 0.050947871 0.81955332
0.014776879 0.050155163 0.82023156
0.016629931 0.049136385 0.82110286
0.018259877 0.047889926 0.82216847
0.019609662 0.046433691 0.82341313
0.020642923 0.044804092 0.82480574
0.021356381 0.043044332 0.82630932
0.021782104 0.041179836 0.8279022
0.021990009 0.039074309 0.82970083
0.021913812 0.040115651 0.82881129
-0.0022697861 0.052136168 0.81852978
-0.0039739716 0.05201783 0.81862992
-0.006134727 0.051778205 0.81883335
-0.0083007915 0.051407583 0.81914872
-0.010429936 0.050879017 0.81959903
-0.012480722 0.050167821 0.82020539
-0.01440448 0.049253426 0.82098532
-0.016143732 0.048123643 0.82194942
-0.017636528 0.046780687 0.82309568
-0.018827891 0.045245927 0.82440603
-0.019685432 0.043557901 0.82584745
-0.020210451 0.041759871 0.82738298
-0.020437595 0.039875202 0.82899272
-0.020422144 0.037763726 0.8307963
-0.020456327 0.038806368 0.82990569
-0.00078213873 0.024049198 0.84252226
-0.00249327 0.024061998 0.84251034
-0.0046723066 0.024167523 0.84241897
-0.0068704891 0.024403283 0.84221631
-0.0090485746 0.024798753 0.84187728
-0.011167874 0.025381088 0.84137869
-0.013182051 0.026173795 0.84070045
-0.015035101 0.027192572 0.83982915
-0.016665049 0.028439034 0.83876354
-0.018014833 0.029895267 0.83751887
-0.019048095 0.031524867 0.83612627
-0.019761551 0.033284627 0.83462268
-0.020187275 0.035149124 0.83302981
-0.02039518 0.03725465 0.83123118
-0.020318983 0.036213309 0.83212072
0.0038415834 0.024298588 0.84231365
0.005532973 0.024416035 0.84221429
0.0076775043 0.024653863 0.84201235
0.0098273046 0.025021704 0.84169936
0.011940462 0.025546301 0.84125245
0.013975848 0.026252158 0.84065062
0.015885163 0.027159683 0.83987653
0.017611356 0.028280985 0.8389197
0.01909294 0.029613858 0.83778203
0.02027536 0.031137092 0.83648151
0.021126462 0.032812443 0.83505094
0.021647537 0.034596972 0.83352691
0.021872977 0.036467493 0.83192927
0.02185764 0.03856311 0.83013922
0.021891568 0.037528299 0.83102316
0.0023651063 0.052174661 0.81850135
0.0040633893 0.052161958 0.81851315
0.0062260646 0.052057229 0.81860381
0.0084077418 0.051823236 0.81880492
0.010569473 0.051430736 0.81914145
0.012672858 0.050852772 0.81963629
0.014671911 0.05006602 0.82030946
0.016511049 0.049054891 0.8211742
0.018128756 0.047817789 0.82223183
0.019468406 0.046372488 0.82346714
0.02049391 0.044755127 0.82484925
0.021202009 0.043008581 0.82634157
0.021624535 0.041158084 0.82792246
0.021830879 0.039068367 0.82970762
0.021755256 0.04010189 0.82882476
-0.0022467559 0.05203215 0.81862044
-0.0039381455 0.051914703 0.8187198
-0.0060826768 0.051676873 0.81892174
-0.0082324771 0.051309034 0.81923473
-0.010345634 0.050784439 0.81968164
-0.012381021 0.050078582 0.82028347
-0.014290336 0.049171057 0.82105756
-0.016016528 0.048049755 0.82201439
-0.017498113 0.04671688 0.82315207
-0.018680533 0.045193646 0.82445258
-0.019531636 0.043518294 0.82588315
-0.020052709 0.041733764 0.82740718
-0.020278148 0.039863247 0.82900482
-0.020262813 0.037767626 0.83079487
-0.020296739 0.038802437 0.82991093
-0.00077027886 0.024156077 0.84243274
-0.002468562 0.02416878 0.84242094
-0.0046312371 0.024273511 0.84233028
-0.0068129143 0.024507502 0.84212917
-0.0089746453 0.024900001 0.84179264
-0.011078031 0.025477966 0.84129781
-0.013077085 0.026264718 0.84062463
-0.014916223 0.027275847 0.83975989
-0.016533928 0.028512949 0.83870226
-0.01787358 0.029958248 0.83746696
-0.018899083 0.031575613 0.83608484
-0.019607183 0.033322159 0.83459252
-0.020029707 0.035172656 0.83301163
-0.020236053 0.037262369 0.83122647
-0.020160427 0.03622885 0.83210933
0.0038185467 0.024404295 0.8422249
0.0054971371 0.024520855 0.84212625
0.0076254392 0.024756882 0.84192586
0.0097589716 0.025121938 0.84161526
0.011856138 0.025642565 0.84117168
0.013876122 0.026343081 0.8405745
0.015770987 0.027243739 0.8398062
0.017484117 0.028356554 0.83885664
0.018954491 0.029679341 0.83772755
0.020127963 0.031191049 0.83643693
0.020972624 0.032853723 0.83501714
0.021489754 0.034624748 0.83350468
0.02171349 0.036481112 0.83191907
0.02169827 0.038560875 0.83014256
0.021731939 0.037533894 0.83101982
0.0023532426 0.052069418 0.81859279
0.0040386743 0.052056812 0.81860453
0.0061849831 0.051952876 0.81869453
0.0083501507 0.051720653 0.81889409
0.010495524 0.051331125 0.81922805
0.012582992 0.050757535 0.8197192
0.014566917 0.049976736 0.82038724
0.016392138 0.048973259 0.82124543
0.017997604 0.047745518 0.82229507
0.019327115 0.046311155 0.82352102
0.020344859 0.044706032 0.8248927
0.0210476 0.042972703 0.8263737
0.021466928 0.041136209 0.82794261
0.021671711 0.039062306 0.82971424
0.021596659 0.040088005 0.82883805
-0.0022237201 0.051927987 0.81871098
-0.0039023105 0.051811427 0.81880963
-0.0060306126 0.0515754 0.81901002
-0.0081641451 0.051210344 0.81932068
-0.010261311 0.050689716 0.8197642
-0.012281296 0.049989201 0.82036144
-0.014176161 0.049088541 0.82112968
-0.015889291 0.047975726 0.82207924
-0.017359665 0.046652939 0.82320833
-0.018533137 0.045141231 0.82449895
-0.019377798 0.04347856 0.82591873
-0.019894928 0.041707534 0.8274312
-0.020118663 0.03985117 0.8290168
-0.020103443 0.037771408 0.83079332
-0.020137113 0.038798388 0.82991606
-0.00075841614 0.024262862 0.84234309
-0.0024438479 0.024275469 0.84233141
-0.004590157 0.024379408 0.84224141
-0.0067553245 0.02461163 0.84204179
-0.0089006973 0.025001155 0.84170789
-0.010988166 0.025574747 0.84121674
-0.012972091 0.026355548 0.84054863
-0.014797311 0.027359024 0.83969045
-0.016402777 0.028586764 0.83864081
-0.017732289 0.030021125 0.83741486
-0.018750032 0.031626251 0.83604318
-0.019452773 0.03335958 0.83456224
-0.019872101 0.035196073 0.83299327
-0.020076884 0.037269976 0.83122164
-0.020001832 0.036244273 0.83209783
0.0037955043 0.024509922 0.84213603
0.0054612923 0.024625594 0.84203815
0.0075733624 0.024859821 0.84183925
0.0096906228 0.025222093 0.84153098
0.011771793 0.025738748 0.84109086
0.013776372 0.02643392 0.84049815
0.015656786 0.027327711 0.83973575
0.017356848 0.02843204 0.83879346
0.018816011 0.029744737 0.83767295
0.019980531 0.031244915 0.83639216
0.020818751 0.032894909 0.83498323
0.021331938 0.034652427 0.83348227
0.021553965 0.036494631 0.83190882
0.021538861 0.038558532 0.83014584
0.021572273 0.037539382 0.83101642
0.0023413759 0.051964048 0.81868416
0.0040139533 0.051951539 0.81869578
0.0061438926 0.051848393 0.81878507
0.0082925465 0.051617943 0.81898314
0.010421556 0.051231384 0.81931454
0.012493105 0.050662171 0.81980193
0.014461899 0.049887326 0.82046491
0.016273199 0.048891503 0.82131654
0.01786642 0.047673125 0.82235819
0.019185791 0.046249703 0.82357478
0.020195773 0.044656821 0.82493597
0.020893155 0.042936709 0.8264057
0.021309284 0.041114226 0.8279627
0.021512505 0.039056137 0.8297208
0.021438025 0.040074017 0.82885128
-0.0022006787 0.051823694 0.81880146
-0.0038664665 0.051708024 0.81889933
-0.0059785368 0.051473796 0.81909823
-0.0080957972 0.051111527 0.81940645
-0.010176968 0.05059487 0.81984663
-0.012181547 0.049899697 0.82043928
-0.01406196 0.049005907 0.82120168
-0.015762024 0.047901578 0.82214403
-0.017221184 0.046588879 0.82326448
-0.018385705 0.045088701 0.82454526
-0.019223925 0.04343871 0.8259542
-0.019737111 0.041681193 0.82745516
-0.019959139 0.039838985 0.82902867
-0.019944035 0.037775088 0.83079159
-0.019977447 0.038794234 0.82992107
-0.00074655045 0.024369568 0.84225333
-0.0024191274 0.024382079 0.8422417
-0.004549067 0.024485225 0.84215236
-0.0066977213 0.024715675 0.84195429
-0.0088267308 0.025102232 0.84162295
-0.010898279 0.025671449 0.8411355
-0.012867074 0.026446294 0.84047258
-0.014678373 0.027442116 0.83962089
-0.016271595 0.028660493 0.8385793
-0.017590966 0.030083915 0.83736265
-0.018600946 0.031676799 0.83600146
-0.019298328 0.033396907 0.83453178
-0.019714458 0.035219394 0.83297479
-0.019917678 0.037277479 0.83121669
-0.019843198 0.036259599 0.83208621
0.0037724562 0.024615485 0.84204698
0.0054254388 0.024730265 0.84194988
0.0075212726 0.024962693 0.84175253
0.0096222563 0.02532218 0.84144664
0.011687429 0.025834864 0.84100986
0.013676597 0.026524693 0.84042174
0.015542555 0.027411612 0.83966523
0.01722955 0.028507451 0.8387301
0.018677494 0.029810056 0.83761823
0.01983306 0.031298701 0.83634734
0.020664837 0.032936011 0.8349492
0.021174079 0.03468002 0.83345979
0.0213944 0.036508061 0.83189839
0.021379413 0.038556095 0.83014899
0.021412568 0.037544783 0.8310129
0.0023295067 0.051858559 0.81877542
0.0039892257 0.051846147 0.81878698
0.006102792 0.051743791 0.81887555
0.0082349284 0.051515114 0.81907213
0.010347571 0.051131528 0.81940097
0.012403194 0.050566688 0.8198846
0.014356853 0.049797799 0.82054251
0.016154228 0.048809633 0.82138759
0.017735202 0.047600623 0.82242119
0.019044431 0.046188142 0.82362849
0.020046648 0.044607505 0.82497919
0.020738669 0.042900618 0.82643759
0.0211516 0.041092142 0.8279826
0.021353258 0.039049879 0.82972723
0.021279352 0.040059932 0.8288644
-0.0021776315 0.051719282 0.81889182
-0.0038306138 0.051604502 0.81898892
-0.0059264479 0.051372074 0.81918627
-0.0080274316 0.051012591 0.81949216
-0.010092603 0.050499905 0.81992894
-0.012081772 0.049810078 0.82051706
-0.01394773 0.048923157 0.82127362
-0.015634725 0.047827318 0.8222087
-0.017082667 0.046524711 0.82332057
-0.018238235 0.045036066 0.82459146
-0.019070012 0.043398757 0.8259896
-0.019579254 0.041654751 0.827479
-0.019799573 0.039826706 0.82904041
-0.019784587 0.037778676 0.8307898
-0.019817743 0.038789988 0.82992595
-0.00073468173 0.02447621 0.84216338
-0.002394401 0.024488624 0.84215188
-0.0045079668 0.024590978 0.84206325
-0.0066401032 0.024819655 0.84186667
-0.0087527465 0.025203241 0.84153783
-0.010808369 0.025768081 0.8410542
-0.012762029 0.026536969 0.84039634
-0.014559404 0.027525136 0.83955121
-0.016140377 0.028734148 0.83851761
-0.017449606 0.030146629 0.83731031
-0.018451823 0.031727266 0.83595961
-0.019143844 0.033434153 0.83450121
-0.019556776 0.035242628 0.83295619
-0.019758433 0.037284892 0.83121163
-0.019684527 0.036274839 0.8320744
0.0037494022 0.024720998 0.84195787
0.0053895754 0.02483489 0.84186149
0.0074691684 0.025065515 0.84166569
0.009553872 0.025422217 0.84136218
0.011603041 0.025930928 0.84092879
0.013576794 0.026615411 0.8403452
0.015428293 0.027495457 0.83959454
0.017102215 0.028582804 0.83866668
0.018538939 0.029875318 0.83756346
0.019685553 0.031352427 0.83630234
0.020510884 0.032977048 0.8349151
0.021016179 0.034707539 0.8334372
0.02123479 0.03652142 0.83188796
0.02121992 0.038553581 0.83015209
0.02125282 0.037550107 0.83100927
0.0023176339 0.051752962 0.81886661
0.0039644917 0.051740646 0.81887805
0.0060616792 0.051639087 0.81896597
0.0081772944 0.05141218 0.819161
0.010273566 0.051031567 0.81948733
0.01231326 0.050471105 0.81996721
0.014251781 0.049708173 0.82062
0.016035229 0.048727661 0.82145852
0.017603951 0.047528021 0.82248414
0.018903034 0.046126485 0.82368207
0.019897485 0.044558097 0.82502234
0.020584142 0.042864438 0.82646942
0.020993873 0.041069977 0.82800245
0.02119397 0.039043538 0.82973355
0.021120636 0.040045764 0.82887739
-0.002154578 0.051614769 0.81898212
-0.0037947511 0.051500876 0.81907851
-0.0058743441 0.05127025 0.81927431
-0.0079590483 0.05091355 0.81957781
-0.010008217 0.050404835 0.8200112
-0.011981971 0.049720354 0.82059479
-0.01383347 0.04884031 0.82134545
-0.015507392 0.047752962 0.82227331
-0.016944114 0.04646045 0.82337654
-0.018090729 0.044983339 0.82463759
-0.018916059 0.043358717 0.82602489
-0.019421354 0.041628227 0.82750279
-0.019639967 0.039814346 0.82905203
-0.019625098 0.037782185 0.8307879
-0.019657996 0.038785663 0.82993072
-0.00072280975 0.024582803 0.84207338
-0.0023696676 0.024595121 0.84206194
-0.0044668554 0.02469668 0.84197396
-0.0065824701 0.024923587 0.84177893
-0.0086787427 0.0253042 0.84145266
-0.010718436 0.025864663 0.84097278
-0.012656957 0.026627593 0.84031999
-0.014440404 0.027608104 0.83948141
-0.016009126 0.028807744 0.8384558
-0.017308209 0.030209279 0.83725792
-0.01830266 0.031777669 0.83591765
-0.018989319 0.033471327 0.83447057
-0.019399049 0.035265788 0.83293754
-0.019599145 0.037292227 0.83120644
-0.019525811 0.036290001 0.83206254
0.003726342 0.024826469 0.84186864
0.0053537027 0.024939472 0.84177303
0.0074170507 0.025168296 0.84157872
0.0094854683 0.02552221 0.8412776
0.01151863 0.026026949 0.84084755
0.013476965 0.026706085 0.84026855
0.015314001 0.027579255 0.83952373
0.016974846 0.028658107 0.83860314
0.018400347 0.029940523 0.83750856
0.019538002 0.031406093 0.83625728
0.020356886 0.033018027 0.83488089
0.020858236 0.034735002 0.83341455
0.021075141 0.036534708 0.83187735
0.021060385 0.038550995 0.83015507
0.021093028 0.037555359 0.83100551
0.0023057582 0.051647268 0.81895775
