# .PCD v0.7 - Point Cloud Data file format
VERSION 0.7
FIELDS x y z rgba
SIZE 4 4 4 4
TYPE F F F U
COUNT 1 1 1 1
WIDTH 1017
HEIGHT 1
VIEWPOINT 0 0 0 1 0 0 0
POINTS 1017
DATA ascii
0.0047434666 0.026427886 0.77800006 4288415000
0.0060987426 0.026427886 0.77800006 4288546318
0.007454019 0.026427886 0.77800006 4288546318
0.0088092946 0.026427886 0.77800006 4288873764
0.010190701 0.026495824 0.78000003 4289005606
0.011549461 0.026495824 0.78000003 4289072162
0.012908221 0.026495824 0.78000003 4289203749
0.014285273 0.026529793 0.78100002 4289137456
0.015685841 0.026597731 0.78300005 4289466164
0.017093375 0.026665669 0.78500003 4289403192
0.018460847 0.026665669 0.78500003 4289600314
0.019878836 0.026733607 0.78700006 4289470012
0.021276791 0.026767576 0.78800005 4290325578
0.022649487 0.026767576 0.78800005 4289541454
0.024022182 0.026767576 0.78800005 4289672783
0.025394879 0.026767576 0.78800005 4289545017
0.026767576 0.026767576 0.78800005 4291650650
0.02821169 0.026835512 0.79000002 4291727257
0.029587872 0.026835512 0.79000002 4294964221
-0.022879431 0.02842596 0.79600006 4294668872
-0.0214928 0.02842596 0.79600006 4292452763
-0.020106167 0.02842596 0.79600006 4293044900
-0.0186725 0.028354537 0.79400003 4293110203
-0.017289352 0.028354537 0.79400003 4293307838
-0.015906204 0.028354537 0.79400003 4294359243
-0.010190701 0.027854582 0.78000003 4287758346
-0.0088319406 0.027854582 0.78000003 4289070366
-0.0074731805 0.027854582 0.78000003 4288349987
-0.0061144209 0.027854582 0.78000003 4288481572
-0.0047556604 0.027854582 0.78000003 4288284193
-0.0033969004 0.027854582 0.78000003 4287889436
-0.0020381403 0.027854582 0.78000003 4287564041
-0.00067938009 0.027854582 0.78000003 4290853691
0.00067763811 0.027783163 0.77800006 4289022571
0.0020329142 0.027783163 0.77800006 4285995836
0.0033881904 0.027783163 0.77800006 4288151580
0.0047434666 0.027783163 0.77800006 4288611875
0.0060987426 0.027783163 0.77800006 4288678170
0.0074731805 0.027854582 0.78000003 4288481047
0.0088319406 0.027854582 0.78000003 4288874270
0.010190701 0.027854582 0.78000003 4289005856
0.011564268 0.027890293 0.78100002 4289072162
0.012924771 0.027890293 0.78100002 4289401127
0.014321854 0.027961716 0.78300005 4289204262
0.015685841 0.027961716 0.78300005 4289401897
0.017093375 0.028033137 0.78500003 4289403957
0.018507883 0.02810456 0.78700006 4289469750
0.019878836 0.02810456 0.78700006 4289471045
0.021276791 0.028140271 0.78800005 4290128976
0.022649487 0.028140271 0.78800005 4289608014
0.024022182 0.028140271 0.78800005 4289673807
0.025394879 0.028140271 0.78800005 4289675074
0.026767576 0.028140271 0.78800005 4291451229
0.02821169 0.02821169 0.79000002 4292054425
-0.022936916 0.029887499 0.79800004 4293022777
-0.0214928 0.029812593 0.79600006 4291857280
-0.020106167 0.029812593 0.79600006 4293502362
-0.018719535 0.029812593 0.79600006 4292715156
-0.017289352 0.029737685 0.79400003 4291991176
-0.010229897 0.029325703 0.78300005 4287954963
-0.0088885557 0.029400608 0.78500003 4289070627
-0.0075019244 0.029325703 0.78300005 4288351006
-0.0061379378 0.029325703 0.78300005 4288284957
-0.0047739516 0.029325703 0.78300005 4288218650
-0.0034099654 0.029325703 0.78300005 4287758355
-0.0020459793 0.029325703 0.78300005 4287497734
-0.00068025105 0.029250795 0.78100002 4291510851
0.00068025105 0.029250795 0.78100002 4289352813
0.0020381403 0.029213343 0.78000003 4287247436
0.0033969004 0.029213343 0.78000003 4287957027
0.0047556604 0.029213343 0.78000003 4288088357
0.0061144209 0.029213343 0.78000003 4288547104
0.007482762 0.029250795 0.78100002 4288547104
0.0088432636 0.029250795 0.78100002 4288807457
0.010203766 0.029250795 0.78100002 4288873251
0.011564268 0.029250795 0.78100002 4289070629
0.012957868 0.029325703 0.78300005 4289465387
0.014358437 0.029400608 0.78500003 4289139239
0.015725907 0.029400608 0.78500003 4289533997
0.017136928 0.029475516 0.78700006 4289470000
0.018531399 0.029512968 0.78800005 4289470000
0.019904094 0.029512968 0.78800005 4289471045
0.021276791 0.029512968 0.78800005 4290195025
0.022649487 0.029512968 0.78800005 4289673037
0.024083152 0.029587872 0.79000002 4290330967
0.025459332 0.029587872 0.79000002 4289412931
0.026835512 0.029587872 0.79000002 4291057757
-0.0214928 0.031199224 0.79600006 4290339473
-0.010256026 0.030768078 0.78500003 4287889431
-0.0088885557 0.030768078 0.78500003 4288612643
-0.0075210854 0.030768078 0.78500003 4288350493
-0.0061536157 0.030768078 0.78500003 4288481822
-0.0047861454 0.030768078 0.78500003 4288218650
-0.0034186754 0.030768078 0.78500003 4287823892
-0.0020459793 0.030689687 0.78300005 4287366153
-0.00068199309 0.030689687 0.78300005 4291050561
0.00068199309 0.030689687 0.78300005 4289222258
0.0020459793 0.030689687 0.78300005 4288432741
0.0034099654 0.030689687 0.78300005 4287892790
0.0047617573 0.030611297 0.78100002 4287432495
0.0061222594 0.030611297 0.78100002 4288611107
0.0075019244 0.030689687 0.78300005 4288742950
0.0088659106 0.030689687 0.78300005 4288808221
0.010229897 0.030689687 0.78300005 4288874270
0.011623496 0.030768078 0.78500003 4289070879
0.012990966 0.030768078 0.78500003 4289728809
0.014395018 0.030846467 0.78700006 4289075242
0.015765974 0.030846467 0.78700006 4289470000
0.017158702 0.030885665 0.78800005 4289405491
0.018531399 0.030885665 0.78800005 4289405491
0.019904094 0.030885665 0.78800005 4289406272
0.021330791 0.03096405 0.79000002 4289537601
0.022706972 0.03096405 0.79000002 4289540170
0.024083152 0.03096405 0.79000002 4290395479
0.025523787 0.031042445 0.79200006 4289348170
-0.010282157 0.032217424 0.78700006 4287823882
-0.0089112027 0.032217424 0.78700006 4288743704
-0.0075210854 0.032135546 0.78500003 4288351006
-0.0061536157 0.032135546 0.78500003 4288416799
-0.0047861454 0.032135546 0.78500003 4288088345
-0.0034186754 0.032135546 0.78500003 4287627794
-0.0020512051 0.032135546 0.78500003 4287300882
-0.00068373507 0.032135546 0.78500003 4290590532
0.00068199309 0.032053676 0.78300005 4288959835
0.0020459793 0.032053676 0.78300005 4288894042
0.0034099654 0.032053676 0.78300005 4288357205
0.0047739516 0.032053676 0.78300005 4287041601
0.0061379378 0.032053676 0.78300005 4288349998
0.0075210854 0.032135546 0.78500003 4288547633
0.0088885557 0.032135546 0.78500003 4288808991
0.010256026 0.032135546 0.78500003 4289072162
0.011623496 0.032135546 0.78500003 4289006117
0.013024065 0.032217424 0.78700006 4289400875
0.014413309 0.032258362 0.78800005 4289205545
0.015786005 0.032258362 0.78800005 4289468717
0.017202251 0.032340232 0.79000002 4289403957
0.018578431 0.032340232 0.79000002 4289864508
0.019954611 0.032340232 0.79000002 4289406272
0.021330791 0.032340232 0.79000002 4289603395
0.022706972 0.032340232 0.79000002 4289279311
0.024083152 0.032340232 0.79000002 4290003033
-0.010295222 0.033631057 0.78800005 4287823882
-0.0089112027 0.03358838 0.78700006 4288940826
-0.0075402479 0.03358838 0.78700006 4288287007
-0.006169294 0.03358838 0.78700006 4288089885
-0.0047983397 0.03358838 0.78700006 4287957529
-0.0034273856 0.03358838 0.78700006 4287431185
-0.0020512051 0.033503018 0.78500003 4287365905
-0.00068373507 0.033503018 0.78500003 4290589762
0.00068373507 0.033503018 0.78500003 4288893792
0.0020512051 0.033503018 0.78500003 4288893792
0.0034186754 0.033503018 0.78500003 4288494687
0.0047861454 0.033503018 0.78500003 4286126139
0.0061536157 0.033503018 0.78500003 4288284193
0.0075210854 0.033503018 0.78500003 4288744744
0.0089112027 0.03358838 0.78700006 4288811553
0.010282157 0.03358838 0.78700006 4288811553
0.01165311 0.03358838 0.78700006 4289073446
0.013073711 0.033716414 0.79000002 4289139239
0.014449891 0.033716414 0.79000002 4289205545
0.015826071 0.033716414 0.79000002 4289534510
0.017245801 0.033801772 0.79200006 4289469748
0.018625466 0.033801772 0.79200006 4289864506
0.020005131 0.033801772 0.79200006 4289276483
0.021384794 0.033801772 0.79200006 4289210689
0.022764459 0.033801772 0.79200006 4289213770
-0.010295222 0.035003752 0.78800005 4287823882
-0.0089225248 0.035003752 0.78800005 4288743704
-0.0075498288 0.035003752 0.78800005 4288284193
-0.0061771329 0.035003752 0.78800005 4288481572
-0.0047983397 0.034959335 0.78700006 4288088345
-0.0034273856 0.034959335 0.78700006 4287759637
-0.0020564313 0.034959335 0.78700006 4287365905
-0.00068547711 0.034959335 0.78700006 4290326591
0.00068547711 0.034959335 0.78700006 4288828781
0.0020564313 0.034959335 0.78700006 4289881469
0.0034273856 0.034959335 0.78700006 4289221726
0.0047983397 0.034959335 0.78700006 4285932076
0.006169294 0.034959335 0.78700006 4288217635
0.0075402479 0.034959335 0.78700006 4288875564
0.0089112027 0.034959335 0.78700006 4288745510
0.010295222 0.035003752 0.78800005 4288811303
0.011697531 0.035092592 0.79000002 4289140515
0.01310681 0.035181437 0.79200006 4289140515
0.014486475 0.035181437 0.79200006 4289205295
0.015866138 0.035181437 0.79200006 4289600053
0.017245801 0.035181437 0.79200006 4289469748
0.0186725 0.035270277 0.79400003 4289667384
-0.0089451708 0.036468774 0.79000002 4289006367
-0.0075689908 0.036468774 0.79000002 4288286494
-0.0061928104 0.036468774 0.79000002 4288088858
-0.0048044366 0.03637645 0.78800005 4288284193
-0.0034317404 0.03637645 0.78800005 4288021021
-0.0020590443 0.03637645 0.78800005 4287431187
-0.00068634807 0.03637645 0.78800005 4291378511
0.00068547711 0.036330286 0.78700006 4288501615
0.0020564313 0.036330286 0.78700006 4289488510
0.0034273856 0.036330286 0.78700006 4289090937
0.0048044366 0.03637645 0.78800005 4285538115
0.0061771329 0.03637645 0.78800005 4288415261
0.0075498288 0.03637645 0.78800005 4288875812
0.0089451708 0.036468774 0.79000002 4288811553
0.010321351 0.036468774 0.79000002 4288745759
0.011727145 0.036561102 0.79200006 4289073959
0.01310681 0.036561102 0.79200006 4289271594
0.014486475 0.036561102 0.79200006 4289207085
0.015906204 0.036653426 0.79400003 4289207085
0.017289352 0.036653426 0.79400003 4289339445
-0.0062084887 0.037940763 0.79200006 4288349987
-0.0048288247 0.037940763 0.79200006 4288349987
-0.0034317404 0.037749145 0.78800005 4287823898
-0.0020590443 0.037749145 0.78800005 4287104794
-0.00068634807 0.037749145 0.78800005 4290854995
0.00068634807 0.037749145 0.78800005 4288765304
0.0020590443 0.037749145 0.78800005 4290541715
0.0034317404 0.037749145 0.78800005 4290079336
0.0048166304 0.037844952 0.79000002 4285408033
0.0061928104 0.037844952 0.79000002 4288413711
0.0075689908 0.037844952 0.79000002 4289334557
0.0089678168 0.037940763 0.79200006 4288941346
0.010347482 0.037940763 0.79200006 4289072675
0.011756759 0.038036574 0.79400003 4289008166
0.013173006 0.038132384 0.79600006 4289205545
0.014559639 0.038132384 0.79600006 4289140013
0.015946269 0.038132384 0.79600006 4289403442
-0.0090357549 0.039618313 0.79800004 4288680489
-0.0034404502 0.039221134 0.79000002 4287824156
-0.0020642702 0.039221134 0.79000002 4286973718
-0.00068809005 0.039221134 0.79000002 4290986835
0.00068809005 0.039221134 0.79000002 4288307832
0.0020642702 0.039221134 0.79000002 4289755534
0.0034404502 0.039221134 0.79000002 4289620863
0.0048288247 0.039320432 0.79200006 4285015353
0.0062084887 0.039320432 0.79200006 4288413711
0.0075881532 0.039320432 0.79200006 4289465887
0.0089678168 0.039320432 0.79200006 4289006369
0.010373611 0.039419722 0.79400003 4289006369
0.011786374 0.039519019 0.79600006 4289137955
0.013173006 0.039519019 0.79600006 4289598506
0.01459622 0.039618313 0.79800004 4289336886
-0.010438936 0.041059814 0.79900002 4288285742
-0.0090357549 0.041008424 0.79800004 4288417328
-0.0076456391 0.041008424 0.79800004 4288350500
-0.0062555224 0.041008424 0.79800004 4288350500
-0.0048654065 0.041008424 0.79800004 4288416549
-0.0034665805 0.040905651 0.79600006 4287889949
-0.0020799483 0.040905651 0.79600006 4286974743
-0.00069157407 0.04080287 0.79400003 4290922323
0.00069157407 0.04080287 0.79400003 4289100150
0.0020747222 0.04080287 0.79400003 4289692287
0.0034578703 0.04080287 0.79400003 4290147711
0.0048410185 0.04080287 0.79400003 4285081650
0.0062241666 0.04080287 0.79400003 4288348163
0.0076073147 0.04080287 0.79400003 4289465108
0.0089904629 0.04080287 0.79400003 4288940576
0.010399741 0.040905651 0.79600006 4289203749
0.011786374 0.040905651 0.79600006 4289009186
0.013222652 0.041059814 0.79900002 4289140515
-0.011860408 0.042557936 0.80100006 4286776876
-0.010465067 0.042557936 0.80100006 4288218661
-0.009047078 0.042451672 0.79900002 4288482090
-0.0076552201 0.042451672 0.79900002 4288285983
-0.0062633613 0.042451672 0.79900002 4288483105
-0.0048654065 0.042398542 0.79800004 4288417062
-0.0034752905 0.042398542 0.79800004 4287890462
-0.0020851742 0.042398542 0.79800004 4286974479
-0.00069331611 0.042292282 0.79600006 4291579989
0.00069331611 0.042292282 0.79600006 4289101193
0.0020799483 0.042292282 0.79600006 4289298828
0.0034665805 0.042292282 0.79600006 4290411651
0.0048532127 0.042292282 0.79600006 4286003264
0.006239845 0.042292282 0.79600006 4288413709
0.0076264772 0.042292282 0.79600006 4289333787
0.0090131089 0.042292282 0.79600006 4288941859
0.010425871 0.042398542 0.79800004 4289468204
0.011830794 0.042451672 0.79900002 4289206063
0.013222652 0.042451672 0.79900002 4288811305
0.014651093 0.042557936 0.80100006 4288878391
0.018978221 0.04287672 0.80700004 4290664550
0.024906248 0.043408033 0.81700003 4289025628
-0.016166633 0.044282518 0.80700004 4289549578
-0.014724256 0.044172771 0.80500007 4291457575
-0.013288849 0.044063024 0.80300003 4290535047
-0.011860408 0.043953281 0.80100006 4285995586
-0.010465067 0.043953281 0.80100006 4287889431
-0.0090697249 0.043953281 0.80100006 4288810021
-0.0076743821 0.043953281 0.80100006 4288286233
-0.0062633613 0.04384353 0.79900002 4288549148
-0.0048715034 0.04384353 0.79900002 4288483105
-0.0034796454 0.04384353 0.79900002 4287759383
-0.0020877873 0.04384353 0.79900002 4286714385
-0.00069505809 0.04378866 0.79800004 4291451481
0.00069505809 0.04378866 0.79800004 4289233794
0.0020851742 0.04378866 0.79800004 4289102465
0.0034752905 0.04378866 0.79800004 4290216066
0.0048654065 0.04378866 0.79800004 4286465865
0.0062555224 0.04378866 0.79800004 4288151570
0.0076456391 0.04378866 0.79800004 4288940574
0.0090357549 0.04378866 0.79800004 4288941608
0.010438936 0.04384353 0.79900002 4289402159
0.011860408 0.043953281 0.80100006 4289073207
0.013255751 0.043953281 0.80100006 4288678449
0.014687675 0.044063024 0.80300003 4289411651
0.016126567 0.044172771 0.80500007 4292438128
0.017572427 0.044282518 0.80700004 4290671223
0.019025255 0.044392262 0.80900002 4289157984
0.023483032 0.044831246 0.81700003 4289614942
0.024936732 0.044886116 0.81800002 4288561997
0.026426144 0.044995867 0.82000005 4289677891
-0.017615976 0.045801535 0.80900002 4290932053
-0.016206698 0.045801535 0.80900002 4289222492
-0.014760839 0.045688309 0.80700004 4291393917
-0.013321946 0.045575082 0.80500007 4291263383
-0.011890023 0.045461852 0.80300003 4285079098
-0.010491196 0.045461852 0.80300003 4287954960
-0.00909237 0.045461852 0.80300003 4289270820
-0.0076743821 0.045348618 0.80100006 4288484389
-0.0062790401 0.045348618 0.80100006 4288484389
-0.0048836977 0.045348618 0.80100006 4288354084
-0.0034796454 0.045235388 0.79900002 4287761946
-0.0020877873 0.045235388 0.79900002 4286848300
-0.00069592905 0.045235388 0.79900002 4291519603
0.00069592905 0.045235388 0.79900002 4289038218
0.0020877873 0.045235388 0.79900002 4288906632
0.0034796454 0.045235388 0.79900002 4290151043
0.0048715034 0.045235388 0.79900002 4286466636
0.0062633613 0.045235388 0.79900002 4287954960
0.0076743821 0.045348618 0.80100006 4288678940
0.0090697249 0.045348618 0.80100006 4288812836
0.010491196 0.045461852 0.80300003 4289141801
0.011890023 0.045461852 0.80300003 4289007151
0.013321946 0.045575082 0.80500007 4289138737
0.014724256 0.045575082 0.80500007 4289284953
0.016166633 0.045688309 0.80700004 4291390585
0.017572427 0.045688309 0.80700004 4290213504
0.019072289 0.045914773 0.81100005 4289752953
0.02053557 0.046027999 0.81300002 4289946734
0.022005817 0.04614123 0.81500006 4289091426
0.023483032 0.04625446 0.81700003 4289678654
0.024936732 0.046311073 0.81800002 4289086517
-0.019025255 0.04721082 0.80900002 4290007040
-0.017615976 0.04721082 0.80900002 4294415152
-0.016206698 0.04721082 0.80900002 4292383917
-0.014760839 0.047094107 0.80700004 4292581297
-0.013355045 0.047094107 0.80700004 4291263878
-0.011919637 0.046977393 0.80500007 4285013286
-0.010517326 0.046977393 0.80500007 4287692811
-0.0091150161 0.046977393 0.80500007 4289007903
-0.0076935436 0.046860676 0.80300003 4288484389
-0.0062790401 0.046743963 0.80100006 4288352802
-0.0048836977 0.046743963 0.80100006 4288088609
-0.0034883553 0.046743963 0.80100006 4288417830
-0.0020930131 0.046743963 0.80100006 4286654823
-0.00069767109 0.046743963 0.80100006 4291326126
0.00069767109 0.046743963 0.80100006 4289038981
0.0020930131 0.046743963 0.80100006 4288776066
0.0034883553 0.046743963 0.80100006 4290151041
0.0048836977 0.046743963 0.80100006 4286729805
0.0062947175 0.046860676 0.80300003 4288020506
0.0076935436 0.046860676 0.80300003 4288941608
0.00909237 0.046860676 0.80300003 4289073446
0.010517326 0.046977393 0.80500007 4289073446
0.01194925 0.047094107 0.80700004 4288940324
0.013355045 0.047094107 0.80700004 4289730097
0.014760839 0.047094107 0.80700004 4289943387
0.016166633 0.047094107 0.80700004 4291719798
0.017615976 0.04721082 0.80900002 4290279546
0.019072289 0.047327533 0.81100005 4289950580
0.02053557 0.047444243 0.81300002 4290274930
0.022005817 0.04756096 0.81500006 4288761691
0.023483032 0.047677673 0.81700003 4289349916
0.024936732 0.04773603 0.81800002 4289349916
-0.019025255 0.048620094 0.80900002 4287299584
-0.017615976 0.048620094 0.80900002 4294137428
-0.016206698 0.048620094 0.80900002 4291792019
-0.01479742 0.048620094 0.80900002 4291331468
-0.013388142 0.048620094 0.80900002 4290802814
-0.01194925 0.048499897 0.80700004 4285210409
-0.010543456 0.048499897 0.80700004 4287823896
-0.0091376621 0.048499897 0.80700004 4288942121
-0.0077318684 0.048499897 0.80700004 4288352550
-0.0034970655 0.0482595 0.80300003 4289798461
-0.0020982393 0.0482595 0.80300003 4287779441
-0.00069941307 0.0482595 0.80300003 4290279318
0.00069941307 0.0482595 0.80300003 4288841868
0.0020982393 0.0482595 0.80300003 4288710282
0.0034970655 0.0482595 0.80300003 4290085248
0.0048958915 0.0482595 0.80300003 4286269254
0.0063103959 0.048379704 0.80500007 4287954968
0.007712706 0.048379704 0.80500007 4288875814
0.0091150161 0.048379704 0.80500007 4288812836
0.010543456 0.048499897 0.80700004 4288747043
0.01194925 0.048499897 0.80700004 4288940074
0.013355045 0.048499897 0.80700004 4289729847
0.01479742 0.048620094 0.80900002 4290009434
0.016206698 0.048620094 0.80900002 4290996329
0.017659528 0.048740294 0.81100005 4289555561
0.019119322 0.04886049 0.81300002 4289357925
0.020586088 0.048980691 0.81500006 4290012778
0.022059821 0.049100887 0.81700003 4288894296
0.023483032 0.049100887 0.81700003 4289083685
0.024936732 0.049160987 0.81800002 4289347114
-0.017615976 0.050029375 0.80900002 4287299584
-0.016206698 0.050029375 0.80900002 4287234048
-0.01479742 0.050029375 0.80900002 4288480512
-0.013388142 0.050029375 0.80900002 4287828775
-0.011978864 0.050029375 0.80900002 4287302175
-0.010569585 0.050029375 0.80900002 4288155176
-0.0091603082 0.050029375 0.80900002 4288483885
-0.0077510295 0.050029375 0.80900002 4288352550
0.00070115511 0.049782015 0.80500007 4288775310
0.002108691 0.049905695 0.80700004 4288775310
0.0035144854 0.049905695 0.80700004 4290216064
0.0049202796 0.049905695 0.80700004 4286136899
0.0063260738 0.049905695 0.80700004 4288151580
0.0077318684 0.049905695 0.80700004 4289072426
0.0091376621 0.049905695 0.80700004 4288942863
0.010543456 0.049905695 0.80700004 4289271572
0.01194925 0.049905695 0.80700004 4288745778
0.013388142 0.050029375 0.80900002 4288943156
0.01479742 0.050029375 0.80900002 4290009114
0.016206698 0.050029375 0.80900002 4290798373
0.017659528 0.050153058 0.81100005 4289285961
0.019119322 0.050276738 0.81300002 4288101687
0.020586088 0.050400425 0.81500006 4289349451
0.022059821 0.050524104 0.81700003 4289810002
0.023483032 0.050524104 0.81700003 4289347920
0.024906248 0.050524104 0.81700003 4288624197
-0.017659528 0.051565818 0.81100005 4287168512
-0.016246766 0.051565818 0.81100005 4286840832
-0.014834002 0.051565818 0.81100005 4287037440
-0.013421241 0.051565818 0.81100005 4288021009
-0.012038092 0.051692985 0.81300002 4288678940
-0.010621847 0.051692985 0.81300002 4288156452
-0.0092056002 0.051692985 0.81300002 4288222246
-0.0077701919 0.051565818 0.81100005 4288287789
-0.0063574295 0.051565818 0.81100005 4287498273
-0.0049446677 0.051565818 0.81100005 4287174952
-0.0035319056 0.051565818 0.81100005 4291912305
-0.0021139171 0.051438648 0.80900002 4288708752
-0.00070463907 0.051438648 0.80900002 4288906130
0.00070463907 0.051438648 0.80900002 4288906632
0.0021139171 0.051438648 0.80900002 4289038218
0.0035144854 0.051311485 0.80700004 4290281344
0.0049202796 0.051311485 0.80700004 4285149490
0.0063260738 0.051311485 0.80700004 4288151567
0.0077318684 0.051311485 0.80700004 4289268512
0.0091376621 0.051311485 0.80700004 4288878111
0.010543456 0.051311485 0.80700004 4288878111
0.011978864 0.051438648 0.80900002 4288746030
0.013388142 0.051438648 0.80900002 4289074995
0.01479742 0.051438648 0.80900002 4289609527
0.016246766 0.051565818 0.81100005 4289609527
0.017703077 0.051692985 0.81300002 4289084205
0.019166358 0.051820152 0.81500006 4289084205
0.020636605 0.051947318 0.81700003 4289611580
0.022059821 0.051947318 0.81700003 4289479995
0.023483032 0.051947318 0.81700003 4289282122
-0.014907167 0.053239882 0.81500006 4287561728
-0.013487437 0.053239882 0.81500006 4287893248
-0.012067707 0.053239882 0.81500006 4288419586
-0.010647976 0.053239882 0.81500006 4288156191
-0.0092282463 0.053239882 0.81500006 4288024349
-0.0077893534 0.053109229 0.81300002 4287825702
-0.0063731079 0.053109229 0.81300002 4288352046
-0.0049568615 0.053109229 0.81300002 4286851415
-0.0035406153 0.053109229 0.81300002 4291456669
-0.0021243691 0.053109229 0.81300002 4289234568
-0.00070638111 0.052978583 0.81100005 4288839810
0.00070638111 0.052978583 0.81100005 4289103230
0.0021191433 0.052978583 0.81100005 4289432195
0.0035231954 0.052847929 0.80900002 4290215269
0.0049324734 0.052847929 0.80900002 4284030727
0.0063417517 0.052847929 0.80900002 4287954964
0.0077510295 0.052847929 0.80900002 4289466155
0.0091603082 0.052847929 0.80900002 4288746530
0.010569585 0.052847929 0.80900002 4288877859
0.011978864 0.052847929 0.80900002 4288744746
0.013388142 0.052847929 0.80900002 4289271091
0.014834002 0.052978583 0.81100005 4289146428
0.016246766 0.052978583 0.81100005 4289541185
0.017703077 0.053109229 0.81300002 4289482295
0.019166358 0.053239882 0.81500006 4289679418
0.020661863 0.053435855 0.81800002 4289482057
-0.01494375 0.054793745 0.81700003 4287365120
-0.013520534 0.054793745 0.81700003 4287692800
-0.012097321 0.054793745 0.81700003 4288416519
-0.010674106 0.054793745 0.81700003 4288090135
-0.0092508914 0.054793745 0.81700003 4287695377
-0.0078085158 0.054659612 0.81500006 4287496222
-0.0063887858 0.054659612 0.81500006 4290390602
-0.0049690558 0.054659612 0.81500006 4288043364
-0.0035493255 0.054659612 0.81500006 4290148741
-0.0021295953 0.054659612 0.81500006 4288775814
-0.00070812309 0.054525476 0.81300002 4288644228
0.00070812309 0.054525476 0.81300002 4289102978
0.0021243691 0.054525476 0.81300002 4289234820
0.0035319056 0.054391343 0.81100005 4288832363
0.0049446677 0.054391343 0.81100005 4284226853
0.0063574295 0.054391343 0.81100005 4288021009
0.0077701919 0.054391343 0.81100005 4289073698
0.0091829542 0.054391343 0.81100005 4288747043
0.010595717 0.054391343 0.81100005 4288812836
0.012008478 0.054391343 0.81100005 4288748330
0.013454339 0.054525476 0.81300002 4288748330
0.014870584 0.054525476 0.81300002 4288751422
0.016326897 0.054659612 0.81500006 4290461783
0.017790178 0.054793745 0.81700003 4289484372
0.01921339 0.054793745 0.81700003 4289155406
-0.014962039 0.056285769 0.81800002 4287037440
-0.013537084 0.056285769 0.81800002 4287365120
-0.012097321 0.056216955 0.81700003 4288020481
-0.010674106 0.056216955 0.81700003 4287496203
-0.0092508914 0.056216955 0.81700003 4288152598
-0.0078276778 0.056216955 0.81700003 4286910792
-0.0064044637 0.056216955 0.81700003 4291779474
-0.0049690558 0.056079339 0.81500006 4289496202
-0.0035493255 0.056079339 0.81500006 4289298824
-0.0021295953 0.056079339 0.81500006 4288644224
-0.00070986507 0.056079339 0.81500006 4288644224
0.00070986507 0.056079339 0.81500006 4289365123
0.0021295953 0.056079339 0.81500006 4289035901
0.0035406153 0.055941723 0.81300002 4289421411
0.0049568615 0.055941723 0.81300002 4285473574
0.0063731079 0.055941723 0.81300002 4288152344
0.0077893534 0.055941723 0.81300002 4289007653
0.0092056002 0.055941723 0.81300002 4288747043
0.010621847 0.055941723 0.81300002 4288747043
0.012038092 0.055941723 0.81300002 4288747054
0.013487437 0.056079339 0.81500006 4289010483
0.014907167 0.056079339 0.81500006 4288751172
0.016366962 0.056216955 0.81700003 4290593376
-0.013570182 0.057851829 0.82000005 4287037440
-0.012112127 0.057710726 0.81800002 4287365120
-0.010687171 0.057710726 0.81800002 4286971904
-0.0092622144 0.057710726 0.81800002 4289731864
-0.0078276778 0.057640173 0.81700003 4287579470
-0.0064044637 0.057640173 0.81700003 4290474362
-0.0049812496 0.057640173 0.81700003 4289168523
-0.0035580352 0.057640173 0.81700003 4288970888
-0.0021295953 0.057499073 0.81500006 4288578182
-0.00070986507 0.057499073 0.81500006 4288775562
0.00070986507 0.057499073 0.81500006 4289627275
0.0021295953 0.057499073 0.81500006 4288179829
0.0035493255 0.057499073 0.81500006 4289285455
0.0049690558 0.057499073 0.81500006 4286193440
0.0063887858 0.057499073 0.81500006 4288481055
0.0078085158 0.057499073 0.81500006 4288941606
0.0092282463 0.057499073 0.81500006 4288614691
0.010647976 0.057499073 0.81500006 4288877863
0.012067707 0.057499073 0.81500006 4288680998
0.013487437 0.057499073 0.81500006 4289141549
0.01494375 0.057640173 0.81700003 4288749636
-0.012171356 0.059424855 0.82200003 4286644224
-0.010713302 0.059280269 0.82000005 4286316551
-0.0092848614 0.059280269 0.82000005 4291777371
-0.0078372583 0.059135683 0.81800002 4289231484
-0.0064123026 0.059135683 0.81800002 4289560449
-0.0049873465 0.059135683 0.81800002 4288840058
-0.0035580352 0.05906339 0.81700003 4288708472
-0.0021348214 0.05906339 0.81700003 4288643724
-0.00071160705 0.05906339 0.81700003 4288841103
0.00071160705 0.05906339 0.81700003 4289954705
0.0021348214 0.05906339 0.81700003 4286796641
0.0035580352 0.05906339 0.81700003 4287828736
0.0049812496 0.05906339 0.81700003 4287631104
0.0063887858 0.058918804 0.81500006 4288416297
0.0078085158 0.058918804 0.81500006 4288679212
0.0092282463 0.058918804 0.81500006 4288416549
0.010647976 0.058918804 0.81500006 4288350500
0.012097321 0.05906339 0.81700003 4288152848
0.013520534 0.05906339 0.81700003 4288547606
-0.012171356 0.060856774 0.82200003 4286906368
-0.010739431 0.060856774 0.82200003 4287312948
-0.0092848614 0.060708709 0.82000005 4290273889
-0.0078564212 0.060708709 0.82000005 4288773243
-0.0064123026 0.060560632 0.81800002 4289036672
-0.0049873465 0.060560632 0.81800002 4288512887
-0.0035623903 0.060560632 0.81800002 4288578680
-0.0021374342 0.060560632 0.81800002 4288577931
-0.00071247807 0.060560632 0.81800002 4288643724
0.00071160705 0.0604866 0.81700003 4290018690
0.0021348214 0.0604866 0.81700003 4284228649
0.0035580352 0.0604866 0.81700003 4287823872
0.0049812496 0.0604866 0.81700003 4289136640
0.0064044637 0.0604866 0.81700003 4288418344
0.0078276778 0.0604866 0.81700003 4288155428
0.0092508914 0.0604866 0.81700003 4288089885
0.010674106 0.0604866 0.81700003 4287892249
0.012097321 0.0604866 0.81700003 4288023040
0.013520534 0.0604866 0.81700003 4287891712
-0.0093075074 0.062288698 0.82200003 4289621115
-0.0078564212 0.062137146 0.82000005 4288904029
-0.006427981 0.062137146 0.82000005 4289035358
-0.0049995407 0.062137146 0.82000005 4289234035
-0.0035711005 0.062137146 0.82000005 4289562999
-0.0021426601 0.062137146 0.82000005 4289496200
-0.00071422011 0.062137146 0.82000005 4288575098
0.00071247807 0.06198559 0.81800002 4289292360
0.0021374342 0.06198559 0.81800002 4284555264
0.0035623903 0.06198559 0.81800002 4287496192
0.0049873465 0.06198559 0.81800002 4288548104
0.0064123026 0.06198559 0.81800002 4288155176
0.0078372583 0.06198559 0.81800002 4288155176
0.0092622144 0.06198559 0.81800002 4288687132
0.010687171 0.06198559 0.81800002 4289147683
-0.0078755822 0.063720629 0.82200003 4288113493
-0.006427981 0.063565589 0.82000005 4288968802
-0.0049995407 0.063565589 0.82000005 4288707427
-0.0035711005 0.063565589 0.82000005 4289167978
-0.0021426601 0.063565589 0.82000005 4289626492
-0.00071422011 0.063565589 0.82000005 4288310632
0.00071422011 0.063565589 0.82000005 4287776568
0.0021426601 0.063565589 0.82000005 4285276433
0.0035711005 0.063565589 0.82000005 4287629056
0.0049995407 0.063565589 0.82000005 4288550144
0.006427981 0.063565589 0.82000005 4287960832
0.0010911595 -0.044239279 0.78009248 4278190080
-0.0017122561 -0.044047639 0.7808041 4278190080
0.0052504982 -0.043250661 0.78052235 4278190080
0.003904572 -0.043129101 0.7803812 4278190080
0.0025586458 -0.043007541 0.78024 4278190080
0.0012127194 -0.042885982 0.7800988 4278190080
0.0067179846 -0.042018928 0.78066993 4278190080
0.0053720577 -0.041897368 0.78052872 4278190080
0.0040261317 -0.041775808 0.78038752 4278190080
0.0026802055 -0.041654248 0.78024632 4278190080
0.0013342791 -0.041532688 0.78010517 4278190080
0.0054936181 -0.04054407 0.78053504 4278190080
0.0041476917 -0.04042251 0.7803939 4278190080
0.0028017655 -0.04030095 0.7802527 4278190080
0.0014558391 -0.04017939 0.78011149 4278190080
-0.0080853682 -0.039373972 0.78011632 4278190080
-0.012003424 -0.038963791 0.77869958 4278190080
0.015217129 -0.039948866 0.77953726 4278190080
0.013874654 -0.039827619 0.77939647 4278190080
0.010998883 -0.039677013 0.78110617 4278190080
0.0096529564 -0.039555453 0.78096497 4278190080
0.0083070304 -0.039433893 0.78082377 4278190080
0.0069611045 -0.039312333 0.78068262 4278190080
0.0056151776 -0.039190773 0.78054142 4278190080
0.0042692516 -0.039069213 0.78040022 4278190080
0.0029233254 -0.038947653 0.78025901 4278190080
0.001577399 -0.038826093 0.78011787 4278190080
-0.014317326 -0.037281405 0.77643907 4278190080
-0.0156598 -0.037160158 0.77629822 4278190080
-0.017002277 -0.037038907 0.77615738 4278190080
0.013995902 -0.03847779 0.77940279 4278190080
0.012653426 -0.038356543 0.77926195 4278190080
0.011120443 -0.038323715 0.78111249 4278190080
0.0097745163 -0.038202155 0.78097135 4278190080
0.0084285904 -0.038080595 0.78083014 4278190080
0.0070826644 -0.037959035 0.78068894 4278190080
0.005736738 -0.037837476 0.78054774 4278190080
0.0043908115 -0.037715916 0.78040659 4278190080
0.0030448854 -0.037594356 0.78026539 4278190080
0.001698959 -0.037472796 0.78012419 4278190080
-0.014196077 -0.03593158 0.77644539 4278190080
-0.015538552 -0.035810329 0.77630454 4278190080
-0.016881028 -0.035689082 0.77616376 4278190080
-0.018223504 -0.035567835 0.77602291 4278190080
0.014117151 -0.03712796 0.77940911 4278190080
0.012774675 -0.037006713 0.77926826 4278190080
0.011432201 -0.036885466 0.77912748 4278190080
0.010089724 -0.036764216 0.77898663 4278190080
0.0087472489 -0.036642969 0.77884579 4278190080
0.007404774 -0.036521722 0.77870494 4278190080
0.006062299 -0.036400471 0.77856416 4278190080
0.0047198236 -0.036279224 0.77842331 4278190080
0.0033773484 -0.036157977 0.77828246 4278190080
0.0020348732 -0.036036726 0.77814168 4278190080
0.00069239794 -0.035915479 0.77800083 4278190080
-0.0073624528 -0.035187989 0.77715588 4278190080
-0.0087049296 -0.035066742 0.77701503 4278190080
-0.012732355 -0.034702998 0.77659255 4278190080
-0.013819055 -0.034502722 0.77446711 4278190080
-0.01515808 -0.034381784 0.77432668 4278190080
-0.016497103 -0.034260847 0.77418619 4278190080
-0.017836129 -0.034139913 0.77404571 4278190080
-0.020514175 -0.033898041 0.77376479 4278190080
0.021282235 -0.036217052 0.77613163 4278190080
0.019946661 -0.036096428 0.7759915 4278190080
0.013082363 -0.035575096 0.77728277 4278190080
0.011743339 -0.035454158 0.77714229 4278190080
0.0077262665 -0.035091348 0.77672088 4278190080
0.0063872421 -0.034970414 0.77658045 4278190080
0.0050482182 -0.034849476 0.77643996 4278190080
0.0037091938 -0.034728538 0.77629948 4278190080
0.0010311458 -0.034486666 0.77601856 4278190080
-0.00052882906 -0.034444407 0.7778663 4278190080
-0.0072412048 -0.033838164 0.77716219 4278190080
-0.0085836807 -0.033716917 0.77702135 4278190080
-0.0096810469 -0.033519175 0.77489483 4278190080
-0.011020071 -0.033398237 0.77475435 4278190080
-0.012359096 -0.033277299 0.77461392 4278190080
-0.013698118 -0.033156365 0.77447343 4278190080
-0.015037145 -0.033035427 0.77433294 4278190080
-0.016376168 -0.032914493 0.77419251 4278190080
-0.017715193 -0.032793555 0.77405202 4278190080
-0.019054215 -0.032672618 0.7739116 4278190080
-0.020393239 -0.032551683 0.77377111 4278190080
0.020067286 -0.034753539 0.77599782 4278190080
0.0078472029 -0.033744991 0.7767272 4278190080
0.0065081785 -0.033624057 0.77658677 4278190080
0.0053759832 -0.033426665 0.77445662 4278190080
-0.0004075809 -0.033094577 0.77787268 4278190080
-0.0017500562 -0.03297333 0.77773184 4278190080
-0.0068820617 -0.03241469 0.77518207 4278190080
-0.0084624328 -0.032367088 0.77702767 4278190080
-0.00956011 -0.032172818 0.77490115 4278190080
-0.010899135 -0.03205188 0.77476066 4278190080
-0.012238159 -0.031930946 0.77462023 4278190080
-0.013577182 -0.031810008 0.77447975 4278190080
-0.014916208 -0.03168907 0.77433926 4278190080
-0.01625523 -0.031568136 0.77419883 4278190080
-0.017594256 -0.031447198 0.77405834 4278190080
-0.018933279 -0.03132626 0.77391785 4278190080
-0.020272303 -0.031205324 0.77377743 4278190080
-0.021611325 -0.031084388 0.77363694 4278190080
0.020187911 -0.03341065 0.77600408 4278190080
0.006832181 -0.032204401 0.77460307 4278190080
0.0055998666 -0.032047287 0.77346814 4278190080
0.0042660194 -0.031926818 0.77332819 4278190080
0.0029321718 -0.031806346 0.77318829 4278190080
0.0015983243 -0.031685878 0.77304834 4278190080
-0.0067611253 -0.031068332 0.77518839 4278190080
-0.0081001492 -0.030947397 0.77504796 4278190080
-0.0094391741 -0.030826461 0.77490747 4278190080
-0.010778198 -0.030705523 0.77476698 4278190080
-0.012117223 -0.030584587 0.77462655 4278190080
-0.013456245 -0.030463651 0.77448606 4278190080
-0.014795271 -0.030342715 0.77434558 4278190080
0.024552096 -0.032318823 0.77343857 4278190080
0.0232217 -0.032198664 0.77329898 4278190080
0.021726506 -0.032151762 0.77515352 4278190080
0.020392658 -0.032031294 0.77501357 4278190080
0.019058809 -0.031910826 0.77487367 4278190080
0.017724963 -0.031790357 0.77473372 4278190080
0.0070541832 -0.030826606 0.77361435 4278190080
0.0057203355 -0.030706136 0.7734744 4278190080
0.0043864883 -0.030585667 0.7733345 4278190080
0.0032657546 -0.030396305 0.77120554 4278190080
0.0021519163 -0.030207573 0.76907742 4278190080
-0.0062842919 -0.029621916 0.77221513 4278190080
-0.0079792133 -0.029601041 0.77505422 4278190080
-0.0093182372 -0.029480105 0.77491379 4278190080
-0.010657262 -0.029359169 0.7747733 4278190080
-0.011996286 -0.029238231 0.77463287 4278190080
-0.013335309 -0.029117296 0.77449238 4278190080
-0.014416362 -0.028931519 0.77236766 4278190080
-0.015751936 -0.028810894 0.77222759 4278190080
-0.017087508 -0.028690269 0.77208745 4278190080
0.024672253 -0.03098114 0.77344483 4278190080
0.023341857 -0.030860983 0.77330524 4278190080
0.021846974 -0.030810613 0.77515978 4278190080
0.020513127 -0.030690143 0.77501988 4278190080
0.0071746521 -0.029485453 0.77362061 4278190080
0.006046704 -0.029298939 0.77149093 4278190080
0.0047163079 -0.029178781 0.7713514 4278190080
0.0035987075 -0.028993204 0.76922286 4278190080
0.0022717621 -0.028873358 0.76908368 4278190080
-0.006163823 -0.028280763 0.77222139 4278190080
-0.0076178722 -0.028191758 0.77307451 4278190080
-0.0091973012 -0.028133746 0.77492011 4278190080
-0.010289019 -0.027950509 0.77279431 4278190080
-0.011624592 -0.027829884 0.77265418 4278190080
-0.012960166 -0.027709259 0.7725141 4278190080
-0.014166906 -0.02755795 0.77138186 4278190080
-0.015500756 -0.02743748 0.7712419 4278190080
-0.016834602 -0.027317012 0.77110201 4278190080
0.024792409 -0.029643461 0.77345109 4278190080
0.023462014 -0.029523304 0.77331156 4278190080
0.022131618 -0.029403146 0.77317196 4278190080
0.020801222 -0.029282989 0.77303243 4278190080
0.0065780315 -0.027836109 0.76751781 4278190080
0.0052545378 -0.027716575 0.76737893 4278190080
0.0039310432 -0.027597042 0.76724011 4278190080
-0.0040099216 -0.026879838 0.76640707 4278190080
-0.006043354 -0.026939612 0.7722277 4278190080
-0.0074972473 -0.026848869 0.77308077 4278190080
-0.0090763643 -0.026787391 0.77492642 4278190080
-0.010168394 -0.02660762 0.77280056 4278190080
-0.011503967 -0.026486995 0.77266049 4278190080
-0.012839541 -0.02636637 0.77252036 4278190080
-0.014046438 -0.026216799 0.77138811 4278190080
-0.015380287 -0.026096329 0.77124822 4278190080
-0.016714133 -0.025975861 0.77110827 4278190080
-0.018047981 -0.025855392 0.77096838 4278190080
0.026242964 -0.028425934 0.77359694 4278190080
0.025069525 -0.028242311 0.77146256 4278190080
0.023742577 -0.028122464 0.77132338 4278190080
0.022415632 -0.02800262 0.77118421 4278190080
0.0068002008 -0.026475817 0.76652914 4278190080
0.0054784319 -0.026356438 0.7663905 4278190080
0.0041566631 -0.026237061 0.76625186 4278190080
0.0028348947 -0.026117682 0.76611316 4278190080
-0.006041049 -0.025626609 0.77322721 4278190080
-0.0073766224 -0.025505984 0.77308708 4278190080
-0.0089554274 -0.025441032 0.77493274 4278190080
-0.010047769 -0.025264734 0.77280688 4278190080
-0.011383343 -0.02514411 0.77266675 4278190080
-0.012718916 -0.025023485 0.77252668 4278190080
-0.013925969 -0.024875646 0.77139443 4278190080
-0.015259817 -0.024755178 0.77125448 4278190080
-0.016329719 -0.024580901 0.76913095 4278190080
-0.017660115 -0.024460744 0.76899141 4278190080
-0.018990511 -0.024340587 0.76885182 4278190080
-0.020320907 -0.024220429 0.76871228 4278190080
0.027693518 -0.02720841 0.77374274 4278190080
0.026363121 -0.027088253 0.7736032 4278190080
0.02518937 -0.0269081 0.77146882 4278190080
0.0084428545 -0.025210243 0.76468396 4278190080
0.0069195786 -0.025146808 0.7665354 4278190080
0.0055978103 -0.025027432 0.76639676 4278190080
0.0044879019 -0.024853043 0.76426905 4278190080
0.0031695846 -0.024733977 0.76413077 4278190080
-0.011262718 -0.023801222 0.77267307 4278190080
-0.012598291 -0.023680598 0.77253294 4278190080
-0.013805499 -0.023534494 0.77140069 4278190080
-0.014879167 -0.023363378 0.7692768 4278190080
-0.016209561 -0.023243221 0.7691372 4278190080
-0.017539959 -0.023123063 0.76899767 4278190080
-0.018870354 -0.023002906 0.76885813 4278190080
-0.02020075 -0.022882748 0.76871854 4278190080
-0.022861542 -0.022642434 0.76843941 4278190080
0.02899809 -0.026048349 0.77588457 4278190080
0.02766424 -0.025927881 0.77574462 4278190080
0.026483279 -0.025750572 0.77360946 4278190080
0.025309216 -0.025573887 0.77147508 4278190080
0.012707721 -0.024188492 0.7631138 4278190080
0.011392856 -0.024069738 0.76297587 4278190080
0.0098802391 -0.024003772 0.76482844 4278190080
0.0085619213 -0.023884706 0.76469016 4278190080
0.0059252861 -0.023646573 0.7644136 4278190080
0.0046069683 -0.023527507 0.76427531 4278190080
0.0032886509 -0.023408441 0.76413697 4278190080
-0.0035351925 -0.022862779 0.76543236 4278190080
-0.011142093 -0.022458335 0.77267939 4278190080
-0.012477666 -0.02233771 0.77253926 4278190080
-0.013428613 -0.022145852 0.76942265 4278190080
-0.01475901 -0.022025695 0.76928306 4278190080
-0.016089404 -0.021905538 0.76914352 4278190080
-0.017419802 -0.02178538 0.76900393 4278190080
-0.018479982 -0.021618981 0.76688153 4278190080
-0.019806925 -0.021499136 0.76674229 4278190080
-0.021133872 -0.02137929 0.76660311 4278190080
-0.022460816 -0.021259446 0.76646394 4278190080
-0.024071783 -0.021184593 0.76830614 4278190080
0.029118558 -0.024707198 0.77589083 4278190080
0.027933832 -0.024533046 0.77375531 4278190080
0.012921742 -0.022841457 0.76212442 4278190080
0.011608602 -0.022722859 0.76198667 4278190080
0.010196744 -0.022628918 0.76284415 4278190080
0.0062521449 -0.022272654 0.76243031 4278190080
0.0049372781 -0.022153899 0.76229239 4278190080
0.0036224118 -0.022035144 0.76215446 4278190080
0.0023075454 -0.021916389 0.76201653 4278190080
-0.0031838706 -0.021487573 0.76345176 4278190080
-0.0045021884 -0.021368505 0.76331347 4278190080
-0.013308455 -0.02080817 0.76942891 4278190080
-0.015443232 -0.020481067 0.7651825 4278190080
-0.016766727 -0.020361532 0.76504368 4278190080
-0.018090222 -0.020241998 0.76490486 4278190080
-0.019413715 -0.020122465 0.76476598 4278190080
-0.02073721 -0.020002931 0.76462716 4278190080
-0.022060703 -0.019883396 0.76448834 4278190080
-0.023667917 -0.01980539 0.76633096 4278190080
0.029384384 -0.023315523 0.77390116 4278190080
0.028202796 -0.023145154 0.77176601 4278190080
0.018204696 -0.022019381 0.76367795 4278190080
0.015666623 -0.021758325 0.76240611 4278190080
0.014353482 -0.021639725 0.76226836 4278190080
0.013040341 -0.021521127 0.76213056 4278190080
0.0117272 -0.021402529 0.76199281 4278190080
0.010414059 -0.021283928 0.76185507 4278190080
0.0064746365 -0.020928133 0.76144183 4278190080
0.0051614959 -0.020809533 0.76130408 4278190080
0.0037411663 -0.02071308 0.76216066 4278190080
0.0024263 -0.020594325 0.76202273 4278190080
-0.0030648042 -0.020162037 0.76345795 4278190080
-0.0043831221 -0.020042969 0.76331967 4278190080
-0.016514121 -0.019010983 0.76405829 4278190080
-0.017835893 -0.018891605 0.76391959 4278190080
0.030834941 -0.022097997 0.77404696 4278190080
0.029504541 -0.02197784 0.77390742 4278190080
0.028471142 -0.0217642 0.76977664 4278190080
0.024738932 -0.021336893 0.76636833 4278190080
0.023420613 -0.021217827 0.76623005 4278190080
0.019638319 -0.020816067 0.76382208 4278190080
0.018323451 -0.020697312 0.76368415 4278190080
0.017098362 -0.02055659 0.76255006 4278190080
0.015785221 -0.020437991 0.76241231 4278190080
0.014472081 -0.020319393 0.7622745 4278190080
0.01315894 -0.020200795 0.76213676 4278190080
0.011845799 -0.020082194 0.76199901 4278190080
0.010532659 -0.019963596 0.76186126 4278190080
0.009219517 -0.019844998 0.76172352 4278190080
0.0079063764 -0.019726399 0.76158577 4278190080
0.0065932353 -0.019607799 0.76144803 4278190080
0.0052800947 -0.019489201 0.76131028 4278190080
0.0039669536 -0.019370602 0.76117253 4278190080
0.0026538128 -0.019252004 0.76103479 4278190080
0.030955099 -0.020760318 0.77405322 4278190080
0.029769432 -0.020596577 0.7719177 4278190080
0.028590675 -0.020433458 0.76978284 4278190080
0.027342999 -0.020292448 0.76864642 4278190080
0.026176315 -0.020130422 0.76651287 4278190080
0.024857998 -0.020011356 0.76637459 4278190080
0.023539681 -0.01989229 0.76623625 4278190080
0.022386806 -0.01973151 0.76410413 4278190080
0.021071941 -0.019612756 0.7639662 4278190080
0.019757073 -0.019494001 0.76382828 4278190080
0.018442206 -0.019375246 0.76369035 4278190080
0.017216962 -0.019236257 0.7625562 4278190080
0.015903819 -0.019117659 0.76241845 4278190080
0.01459068 -0.018999061 0.7622807 4278190080
0.013467135 -0.018840933 0.76015168 4278190080
0.012157445 -0.018722646 0.7600143 4278190080
0.010847755 -0.018604359 0.75987691 4278190080
0.0095380656 -0.018486071 0.75973952 4278190080
0.0082283756 -0.018367784 0.75960213 4278190080
0.0069186855 -0.018249497 0.75946474 4278190080
0.0056089954 -0.01813121 0.75932735 4278190080
0.0042993058 -0.018012922 0.75918996 4278190080
0.0029896158 -0.017894635 0.75905257 4278190080
0.030105913 -0.019202197 0.76892996 4278190080
0.028784145 -0.019082818 0.76879126 4278190080
0.027613699 -0.018923953 0.76665735 4278190080
0.026295381 -0.018804885 0.76651907 4278190080
0.024977064 -0.01868582 0.76638079 4278190080
0.023820428 -0.018528199 0.76424825 4278190080
0.022505561 -0.018409444 0.76411033 4278190080
0.021190695 -0.018290689 0.7639724 4278190080
0.019875828 -0.018171934 0.76383448 4278190080
0.018560961 -0.01805318 0.76369655 4278190080
0.01733556 -0.017915927 0.76256239 4278190080
0.01602242 -0.017797329 0.76242465 4278190080
0.014709279 -0.017678728 0.7622869 4278190080
0.013585421 -0.017524071 0.76015788 4278190080
0.012275732 -0.017405784 0.76002049 4278190080
0.010966042 -0.017287496 0.75988311 4278190080
0.0096563529 -0.017169209 0.75974572 4278190080
0.0083466619 -0.017050922 0.75960833 4278190080
0.0070369723 -0.016932635 0.75947094 4278190080
0.0057272827 -0.016814347 0.75933355 4278190080
0.0044175927 -0.016696062 0.75919616 4278190080
0.0031079031 -0.016577775 0.75905877 4278190080
0.031547062 -0.017992567 0.76907486 4278190080
0.030225292 -0.017873188 0.76893616 4278190080
0.029051082 -0.017717481 0.76680189 4278190080
0.027732765 -0.017598415 0.76666361 4278190080
0.026414448 -0.017479347 0.76652527 4278190080
0.02509613 -0.017360281 0.76638699 4278190080
0.023939183 -0.017206132 0.76425445 4278190080
0.022624316 -0.017087378 0.76411653 4278190080
0.02130945 -0.016968623 0.7639786 4278190080
0.019994583 -0.016849868 0.76384068 4278190080
0.018767299 -0.016714193 0.76270634 4278190080
0.017632779 -0.016562069 0.76057625 4278190080
0.016323088 -0.016443782 0.76043886 4278190080
0.015013399 -0.016325496 0.76030147 4278190080
0.013703709 -0.016207209 0.76016408 4278190080
0.012394019 -0.016088922 0.76002669 4278190080
0.01128021 -0.015938668 0.75789863 4278190080
0.0099739712 -0.015820691 0.75776166 4278190080
0.0086677326 -0.015702717 0.75762463 4278190080
0.0071552596 -0.015615772 0.75947714 4278190080
0.00584557 -0.015497485 0.75933975 4278190080
0.0045358799 -0.015379198 0.75920236 4278190080
0.0032261901 -0.015260912 0.75906497 4278190080
0.032988206 -0.016782938 0.7692197 4278190080
0.031666439 -0.016663561 0.76908106 4278190080
0.030344671 -0.016544182 0.76894242 4278190080
0.029170148 -0.016391944 0.76680809 4278190080
0.027851831 -0.016272878 0.76666981 4278190080
0.026533514 -0.016153811 0.76653153 4278190080
0.025372803 -0.016002819 0.76439857 4278190080
0.024138462 -0.015868258 0.76326352 4278190080
0.022825321 -0.015749658 0.76312578 4278190080
0.021680135 -0.015600069 0.76099455 4278190080
0.020370444 -0.015481782 0.76085716 4278190080
0.019060755 -0.015363495 0.76071978 4278190080
0.017751066 -0.015245208 0.76058239 4278190080
0.016441375 -0.01512692 0.760445 4278190080
0.015131686 -0.015008633 0.76030761 4278190080
0.014010663 -0.014861226 0.75817889 4278190080
0.012704425 -0.01474325 0.75804186 4278190080
0.011398185 -0.014625275 0.75790483 4278190080
0.010091946 -0.014507299 0.7577678 4278190080
0.0087857079 -0.014389324 0.75763077 4278190080
0.0074794688 -0.014271349 0.75749373 4278190080
0.0061732302 -0.014153373 0.7573567 4278190080
0.0048669917 -0.014035397 0.75721967 4278190080
0.0035607531 -0.013917422 0.75708264 4278190080
0.033107582 -0.015453932 0.76922596 4278190080
0.031785816 -0.015334554 0.76908731 4278190080
0.030464048 -0.015215175 0.76894861 4278190080
0.029289216 -0.015066408 0.76681429 4278190080
0.027970897 -0.014947341 0.76667601 4278190080
0.026806423 -0.014799507 0.7645427 4278190080
0.025570203 -0.014666524 0.76340747 4278190080
0.024257062 -0.014547925 0.76326972 4278190080
0.023108114 -0.014401495 0.76113814 4278190080
0.021798423 -0.014283207 0.76100075 4278190080
0.020488732 -0.01416492 0.76086336 4278190080
0.019353593 -0.014019735 0.75873315 4278190080
0.018047355 -0.01390176 0.75859612 4278190080
0.016741116 -0.013783785 0.75845909 4278190080
0.015434877 -0.013665809 0.75832206 4278190080
0.014128638 -0.013547834 0.75818503 4278190080
0.0128224 -0.013429859 0.758048 4278190080
0.01151616 -0.013311883 0.75791097 4278190080
0.010209922 -0.013193907 0.75777394 4278190080
0.0089036832 -0.013075932 0.7576369 4278190080
0.0075974446 -0.012957957 0.75749987 4278190080
0.006291206 -0.012839981 0.75736284 4278190080
0.0049849669 -0.012722006 0.75722581 4278190080
