# .PCD v0.7 - Point Cloud Data file format
VERSION 0.7
FIELDS x y z rgba
SIZE 4 4 4 4
TYPE F F F U
COUNT 1 1 1 1
WIDTH 1006
HEIGHT 1
VIEWPOINT 0 0 0 1 0 0 0
POINTS 1006
DATA ascii
-0.024138026 -0.04109988 0.74900001 4278190097
-0.022833267 -0.04109988 0.74900001 4278190080
-0.021471024 -0.040990133 0.74700004 4284702042
-0.02016975 -0.040990133 0.74700004 4287001213
-0.018868476 -0.040990133 0.74700004 4288119695
-0.017543685 -0.040935263 0.74600005 4287659146
-0.016244153 -0.040935263 0.74600005 4286408822
-0.014944619 -0.040935263 0.74600005 4285947760
-0.013608505 -0.040825516 0.74400002 4286276468
-0.012312457 -0.040825516 0.74400002 4287130462
-0.011001602 -0.040770642 0.74300003 4288512115
-0.0097072963 -0.040770642 0.74300003 4287660190
-0.0084129898 -0.040770642 0.74300003 4286804882
-0.0071186838 -0.040770642 0.74300003 4284505690
-0.0058086999 -0.040660899 0.74100006 4284834655
-0.0045178775 -0.040660899 0.74100006 4285750895
-0.0032270555 -0.040660899 0.74100006 4285487722
-0.0019362331 -0.040660899 0.74100006 4285027421
-0.00064366905 -0.040551152 0.73900002 4285224800
0.00064366905 -0.040551152 0.73900002 4285686118
0.0019283943 -0.040496279 0.73800004 4285686118
0.0032139902 -0.040496279 0.73800004 4284372578
0.0044995868 -0.040496279 0.73800004 4284174942
0.0057851826 -0.040496279 0.73800004 4286406473
0.0070707784 -0.040496279 0.73800004 4288314470
0.0083563756 -0.040496279 0.73800004 4287132300
0.0096419714 -0.040496279 0.73800004 4284303200
0.010927567 -0.040496279 0.73800004 4284631589
0.012213163 -0.040496279 0.73800004 4287065930
0.013462178 -0.040386535 0.73600006 4286868619
0.01474429 -0.040386535 0.73600006 4284171362
0.016026402 -0.040386535 0.73600006 4283449629
0.017308515 -0.040386535 0.73600006 4284502317
0.018565366 -0.040331658 0.73500001 4283911545
0.019845735 -0.040331658 0.73500001 4282201184
0.021068621 -0.040221911 0.73300004 4283182592
0.022345508 -0.040221911 0.73300004 4287590450
0.023622394 -0.040221911 0.73300004 4287463061
0.02489928 -0.040221911 0.73300004 4287068303
0.026104743 -0.040112168 0.73100001 4285031784
0.027378146 -0.040112168 0.73100001 4281742134
0.028651547 -0.040112168 0.73100001 4281804588
0.029924948 -0.040112168 0.73100001 4282988606
0.031198351 -0.040112168 0.73100001 4283710516
0.032427333 -0.040057294 0.73000002 4284302654
0.033698995 -0.040057294 0.73000002 4286997840
0.034874842 -0.039947547 0.72800004 4288182115
0.03614302 -0.039947547 0.72800004 4287657851
0.037411198 -0.039947547 0.72800004 4287394422
0.038679373 -0.039947547 0.72800004 4287065460
0.039947547 -0.039947547 0.72800004 4285880929
0.041215725 -0.039947547 0.72800004 4287984261
0.042483903 -0.039947547 0.72800004 4294826733
0.043752078 -0.039947547 0.72800004 4294303459
0.045020252 -0.039947547 0.72800004 4294967295
0.046288431 -0.039947547 0.72800004 4294967295
0.047556605 -0.039947547 0.72800004 4294967295
-0.038593143 -0.039901387 0.75100005 4292001465
-0.037284903 -0.039901387 0.75100005 4286343267
-0.03597666 -0.039901387 0.75100005 4287067006
-0.034668416 -0.039901387 0.75100005 4285290595
-0.033360176 -0.039901387 0.75100005 4280954712
-0.031966574 -0.039795119 0.74900001 4278190108
-0.030661814 -0.039795119 0.74900001 4280558158
-0.029357059 -0.039795119 0.74900001 4287005872
-0.0280523 -0.039795119 0.74900001 4288184969
-0.02674754 -0.039795119 0.74900001 4288448398
-0.025510723 -0.039901387 0.75100005 4287726215
-0.024202481 -0.039901387 0.75100005 4279765262
-0.022894237 -0.039901387 0.75100005 4278190125
-0.021528509 -0.039795119 0.74900001 4282529911
-0.02022375 -0.039795119 0.74900001 4285619280
-0.018918993 -0.039795119 0.74900001 4285750867
-0.017614234 -0.039795119 0.74900001 4281733242
-0.016265927 -0.039688859 0.74700004 4279238740
-0.014964653 -0.039688859 0.74700004 4280877085
-0.013645088 -0.039635733 0.74600005 4279894030
-0.012345555 -0.039635733 0.74600005 4280418354
-0.011016409 -0.039529469 0.74400002 4286007431
-0.0097203609 -0.039529469 0.74400002 4285685896
-0.0084243128 -0.039529469 0.74400002 4283909485
-0.0071282643 -0.039529469 0.74400002 4278648887
-0.0058243778 -0.039476339 0.74300003 4278190126
-0.0045300713 -0.039476339 0.74300003 4280881195
-0.0032357653 -0.039476339 0.74300003 4281407539
-0.0019414593 -0.039476339 0.74300003 4280159003
-0.00064715307 -0.039476339 0.74300003 4278190080
0.00064366905 -0.039263815 0.73900002 4280418367
0.0019310071 -0.039263815 0.73900002 4283839347
0.0032183453 -0.039263815 0.73900002 4282458668
0.0045056837 -0.039263815 0.73900002 4278386688
0.0057930215 -0.039263815 0.73900002 4282715147
0.0070803599 -0.039263815 0.73900002 4288636517
0.0083676977 -0.039263815 0.73900002 4286605912
0.009655036 -0.039263815 0.73900002 4278321152
0.010942374 -0.039263815 0.73900002 4279500833
0.012213163 -0.039210681 0.73800004 4287391385
0.01349876 -0.039210681 0.73800004 4286210918
0.014784356 -0.039210681 0.73800004 4278255616
0.016069952 -0.039210681 0.73800004 4278190107
0.017355548 -0.039210681 0.73800004 4282989930
0.018641144 -0.039210681 0.73800004 4284632431
0.01992674 -0.039210681 0.73800004 4278911000
0.021154851 -0.039104421 0.73600006 4278583305
0.022406477 -0.039051287 0.73500001 4284105565
0.023686847 -0.039051287 0.73500001 4284108136
0.02489928 -0.038945027 0.73300004 4282068297
0.026176166 -0.038945027 0.73300004 4280557345
0.027453052 -0.038945027 0.73300004 4280820773
0.028651547 -0.038838763 0.73100001 4283841353
0.029924948 -0.038838763 0.73100001 4284828248
0.031198351 -0.038838763 0.73100001 4283711811
0.032471754 -0.038838763 0.73100001 4278190080
0.033698995 -0.038785636 0.73000002 4280550210
0.034970652 -0.038785636 0.73000002 4287655854
0.036242314 -0.038785636 0.73000002 4287921020
0.037411198 -0.038679373 0.72800004 4287460469
0.038679373 -0.038679373 0.72800004 4287065973
0.040057294 -0.038785636 0.73000002 4286210664
0.041328952 -0.038785636 0.73000002 4288380054
0.042600613 -0.038785636 0.73000002 4294761719
0.043752078 -0.038679373 0.72800004 4294500584
0.045020252 -0.038679373 0.72800004 4294967295
0.046415593 -0.038785636 0.73000002 4294967295
0.047687255 -0.038785636 0.73000002 4294967295
-0.040060777 -0.038747307 0.75400001 4294636534
-0.038644534 -0.038644534 0.75200003 4292199360
-0.037334546 -0.038644534 0.75200003 4286475369
-0.036024563 -0.038644534 0.75200003 4287001213
-0.034668416 -0.038593143 0.75100005 4285487974
-0.033360176 -0.038593143 0.75100005 4282726992
-0.032051936 -0.038593143 0.75100005 4278190080
-0.03074369 -0.038593143 0.75100005 4280881195
-0.029435448 -0.038593143 0.75100005 4288118424
-0.0280523 -0.038490366 0.74900001 4288118924
-0.02674754 -0.038490366 0.74900001 4288316560
-0.025510723 -0.038593143 0.75100005 4287726233
-0.024202481 -0.038593143 0.75100005 4280028452
-0.022894237 -0.038593143 0.75100005 4278190083
-0.021585995 -0.038593143 0.75100005 4283057240
-0.020277753 -0.038593143 0.75100005 4283912045
-0.018969512 -0.038593143 0.75100005 4281477961
-0.017614234 -0.038490366 0.74900001 4280025119
-0.016309476 -0.038490366 0.74900001 4280879659
-0.015004719 -0.038490366 0.74900001 4282983518
-0.013663379 -0.038387585 0.74700004 4281667658
-0.012362105 -0.038387585 0.74700004 4279238681
-0.011046024 -0.038336199 0.74600005 4282724686
-0.009746491 -0.038336199 0.74600005 4284899192
-0.0084469598 -0.038336199 0.74600005 4283583588
-0.0071282643 -0.038233418 0.74400002 4278452237
-0.0058322162 -0.038233418 0.74400002 4278190088
-0.0045361686 -0.038233418 0.74400002 4281671505
-0.0032401201 -0.038233418 0.74400002 4282461278
-0.0019440722 -0.038233418 0.74400002 4280950597
-0.00064715307 -0.038182031 0.74300003 4278190094
0.00064715307 -0.038182031 0.74300003 4280877085
0.0019414593 -0.038182031 0.74300003 4285482339
0.0032357653 -0.038182031 0.74300003 4283445091
0.0045300713 -0.038182031 0.74300003 4278190098
0.0058086999 -0.038079254 0.74100006 4278452224
0.0070995223 -0.038079254 0.74100006 4286146145
0.0083903437 -0.038079254 0.74100006 4285226108
0.009655036 -0.037976474 0.73900002 4278190086
0.010942374 -0.037976474 0.73900002 4278452224
0.012229712 -0.037976474 0.73900002 4286803307
0.01351705 -0.037976474 0.73900002 4285815936
0.014804387 -0.037976474 0.73900002 4278190086
0.016091727 -0.037976474 0.73900002 4278190080
0.017379064 -0.037976474 0.73900002 4286410348
0.018641144 -0.037925087 0.73800004 4286148262
0.01992674 -0.037925087 0.73800004 4278648884
0.021212338 -0.037925087 0.73800004 4278190080
0.022436963 -0.03782231 0.73600006 4283321932
0.023719076 -0.03782231 0.73600006 4283780979
0.025001187 -0.03782231 0.73600006 4278255647
0.026247587 -0.03777092 0.73500001 4279173120
0.027527958 -0.03777092 0.73500001 4285286984
0.028808327 -0.03777092 0.73500001 4286143619
0.030088698 -0.03777092 0.73500001 4286340998
0.031283714 -0.037668142 0.73300004 4284566093
0.032560598 -0.037668142 0.73300004 4278190080
0.033745155 -0.037565362 0.73100001 4279304192
0.03501856 -0.037565362 0.73100001 4287524714
0.036291961 -0.037565362 0.73100001 4288052607
0.037565362 -0.037565362 0.73100001 4287657849
0.038838763 -0.037565362 0.73100001 4286935416
0.040112168 -0.037565362 0.73100001 4286014314
0.041328952 -0.037513971 0.73000002 4288774810
0.042600613 -0.037513971 0.73000002 4294827766
0.043872274 -0.037513971 0.73000002 4294435559
0.045143936 -0.037513971 0.73000002 4294967295
0.046415593 -0.037513971 0.73000002 4294967295
0.047687255 -0.037513971 0.73000002 4294967295
-0.040220171 -0.037582785 0.75700003 4294767863
-0.038901478 -0.037582785 0.75700003 4292593607
-0.03743384 -0.03743384 0.75400001 4286935409
-0.036120374 -0.03743384 0.75400001 4287330176
-0.03471458 -0.037334546 0.75200003 4285619558
-0.033404596 -0.037334546 0.75200003 4281876312
-0.032051936 -0.037284903 0.75100005 4278190094
-0.03074369 -0.037284903 0.75100005 4280160079
-0.029435448 -0.037284903 0.75100005 4287594688
-0.028127208 -0.037284903 0.75100005 4288578703
-0.026818965 -0.037284903 0.75100005 4288710032
-0.02554469 -0.037334546 0.75200003 4287595149
-0.024234707 -0.037334546 0.75200003 4279962905
-0.022894237 -0.037284903 0.75100005 4278190137
-0.021585995 -0.037284903 0.75100005 4282267520
-0.020277753 -0.037284903 0.75100005 4283054431
-0.018969512 -0.037284903 0.75100005 4278255637
-0.017661268 -0.037284903 0.75100005 4278583325
-0.016353028 -0.037284903 0.75100005 4285224834
-0.015044784 -0.037284903 0.75100005 4287066264
-0.01369996 -0.037185606 0.74900001 4286671506
-0.012395202 -0.037185606 0.74900001 4283517539
-0.01106083 -0.037086312 0.74700004 4278190090
-0.009746491 -0.037036669 0.74600005 4281805363
-0.0084469598 -0.037036669 0.74600005 4284173911
-0.0071474267 -0.037036669 0.74600005 4280617800
-0.0058478951 -0.037036669 0.74600005 4281604695
-0.0045483625 -0.037036669 0.74600005 4284832102
-0.0032401201 -0.036937371 0.74400002 4285819253
-0.0019440722 -0.036937371 0.74400002 4283254635
-0.00064802408 -0.036937371 0.74400002 4278190108
0.00064802408 -0.036937371 0.74400002 4282915928
0.0019440722 -0.036937371 0.74400002 4289166263
0.0032401201 -0.036937371 0.74400002 4286342002
0.0045361686 -0.036937371 0.74400002 4278583296
0.0058243778 -0.036887724 0.74300003 4278845488
0.0071186838 -0.036887724 0.74300003 4286342306
0.0083903437 -0.036788434 0.74100006 4285685615
0.0096811661 -0.036788434 0.74100006 4278190080
0.010971989 -0.036788434 0.74100006 4279828527
0.012262811 -0.036788434 0.74100006 4287719079
0.01351705 -0.036689136 0.73900002 4286145393
0.014804387 -0.036689136 0.73900002 4278321152
0.016135277 -0.036788434 0.74100006 4278714411
0.017379064 -0.036689136 0.73900002 4287394736
0.018666402 -0.036689136 0.73900002 4287199385
0.019953741 -0.036689136 0.73900002 4279501604
0.021212338 -0.036639489 0.73800004 4278190112
0.022497933 -0.036639489 0.73800004 4283847038
0.023783529 -0.036639489 0.73800004 4283649882
0.025069125 -0.036639489 0.73800004 4278190085
0.0262833 -0.036540199 0.73600006 4278190121
0.027565412 -0.036540199 0.73600006 4285160595
0.028847525 -0.036540199 0.73600006 4287259550
0.030088698 -0.036490548 0.73500001 4286798999
0.031369068 -0.036490548 0.73500001 4285157978
0.032560598 -0.036391255 0.73300004 4278386688
0.033837482 -0.036391255 0.73300004 4278190112
0.03511437 -0.036391255 0.73300004 4285753751
0.036391255 -0.036391255 0.73300004 4288053122
0.037668142 -0.036391255 0.73300004 4287592571
0.038945027 -0.036391255 0.73300004 4287065975
0.040221911 -0.036391255 0.73300004 4286342252
0.041385569 -0.036291961 0.73100001 4289235359
0.04265897 -0.036291961 0.73100001 4294893557
0.043932371 -0.036291961 0.73100001 4294435559
0.045205776 -0.036291961 0.73100001 4294967295
0.046479177 -0.036291961 0.73100001 4294967295
-0.040220171 -0.036264088 0.75700003 4294767863
-0.038901478 -0.036264088 0.75700003 4292856524
-0.037582785 -0.036264088 0.75700003 4286935155
-0.036216184 -0.036216184 0.75600004 4287527555
-0.034899231 -0.036216184 0.75600004 4285817194
-0.033493433 -0.036120374 0.75400001 4283451996
-0.032179967 -0.036120374 0.75400001 4278190080
-0.030784627 -0.036024563 0.75200003 4280288546
-0.029474642 -0.036024563 0.75200003 4288578208
-0.028127208 -0.03597666 0.75100005 4288776092
-0.026818965 -0.03597666 0.75100005 4288710298
-0.02554469 -0.036024563 0.75200003 4287856522
-0.024234707 -0.036024563 0.75200003 4279107589
-0.022924723 -0.036024563 0.75200003 4278583299
-0.02161474 -0.036024563 0.75200003 4283711313
-0.020304754 -0.036024563 0.75200003 4283053690
-0.018994769 -0.036024563 0.75200003 4278190125
-0.017661268 -0.03597666 0.75100005 4278190080
-0.016353028 -0.03597666 0.75100005 4285555039
-0.015044784 -0.03597666 0.75100005 4288447667
-0.013736542 -0.03597666 0.75100005 4287197600
-0.0124283 -0.03597666 0.75100005 4284502390
-0.011090443 -0.035880849 0.74900001 4278190098
-0.0097856857 -0.035880849 0.74900001 4280288546
-0.0084582819 -0.035785038 0.74700004 4283775319
-0.0071570072 -0.035785038 0.74700004 4280682802
-0.0058478951 -0.035737135 0.74600005 4282064199
-0.0045483625 -0.035737135 0.74600005 4284962941
-0.0032488303 -0.035737135 0.74600005 4285949836
-0.0019492983 -0.035737135 0.74600005 4283715436
-0.00064976607 -0.035737135 0.74600005 4278190093
0.00064976607 -0.035737135 0.74600005 4283376466
0.0019492983 -0.035737135 0.74600005 4289561008
0.0032401201 -0.035641324 0.74400002 4286014609
0.0045361686 -0.035641324 0.74400002 4278190100
0.0058322162 -0.035641324 0.74400002 4278779908
0.0071282643 -0.035641324 0.74400002 4286473850
0.0084129898 -0.03559342 0.74300003 4285620101
0.0097072963 -0.03559342 0.74300003 4278190094
0.011001602 -0.03559342 0.74300003 4278714381
0.012262811 -0.035497613 0.74100006 4287000459
0.013553632 -0.035497613 0.74100006 4286015111
0.014844455 -0.035497613 0.74100006 4278190089
0.016135277 -0.035497613 0.74100006 4278190080
0.0174261 -0.035497613 0.74100006 4287201156
0.018716922 -0.035497613 0.74100006 4287727290
0.020007744 -0.035497613 0.74100006 4278779953
0.021298565 -0.035497613 0.74100006 4278190080
0.022589387 -0.035497613 0.74100006 4284239691
0.023815755 -0.035401799 0.73900002 4283452015
0.025103094 -0.035401799 0.73900002 4278190109
0.026354721 -0.035353892 0.73800004 4279369728
0.027640317 -0.035353892 0.73800004 4286273881
0.028847525 -0.035258085 0.73600006 4288380066
0.030129636 -0.035258085 0.73600006 4286932619
0.031411748 -0.035258085 0.73600006 4286207332
0.032693859 -0.035258085 0.73600006 4278845440
0.03392981 -0.035210177 0.73500001 4278190107
0.035210177 -0.035210177 0.73500001 4286476445
0.036391255 -0.03511437 0.73300004 4288184708
0.037668142 -0.03511437 0.73300004 4287658364
0.038945027 -0.03511437 0.73300004 4286999666
0.040221911 -0.03511437 0.73300004 4286670702
0.041498803 -0.03511437 0.73300004 4289892258
0.042775687 -0.03511437 0.73300004 4294959346
0.043932371 -0.03501856 0.73100001 4294370275
0.045205776 -0.03501856 0.73100001 4294967295
0.046479177 -0.03501856 0.73100001 4294967295
-0.040220171 -0.034945395 0.75700003 4294570738
-0.038901478 -0.034945395 0.75700003 4292725456
-0.037582785 -0.034945395 0.75700003 4286672500
-0.036264088 -0.034945395 0.75700003 4287133053
-0.034945395 -0.034945395 0.75700003 4286014316
-0.033582281 -0.034899231 0.75600004 4283715686
-0.032179967 -0.034806907 0.75400001 4278190087
-0.0308665 -0.034806907 0.75400001 4281663813
-0.029474642 -0.03471458 0.75200003 4289822144
-0.028164661 -0.03471458 0.75200003 4289300371
-0.026854673 -0.03471458 0.75200003 4287787131
-0.025612628 -0.034806907 0.75400001 4286147145
-0.02429916 -0.034806907 0.75400001 4278190080
-0.022985691 -0.034806907 0.75400001 4278255668
-0.021672223 -0.034806907 0.75400001 4285225886
-0.020304754 -0.03471458 0.75200003 4285030501
-0.018994769 -0.03471458 0.75200003 4278321152
-0.017684786 -0.03471458 0.75200003 4278583342
-0.016374802 -0.03471458 0.75200003 4285421975
-0.015064818 -0.03471458 0.75200003 4287986575
-0.013736542 -0.034668416 0.75100005 4287197059
-0.0124283 -0.034668416 0.75100005 4284043106
-0.011120059 -0.034668416 0.75100005 4278190087
-0.0098118158 -0.034668416 0.75100005 4280489031
-0.0084809279 -0.034576092 0.74900001 4283449716
-0.0071570072 -0.034483764 0.74700004 4281270339
-0.005855734 -0.034483764 0.74700004 4282520407
-0.0045483625 -0.034437601 0.74600005 4284895849
-0.0032488303 -0.034437601 0.74600005 4286014586
-0.0019492983 -0.034437601 0.74600005 4283386973
-0.00064976607 -0.034437601 0.74600005 4278190082
0.00064976607 -0.034437601 0.74600005 4283048531
0.0019492983 -0.034437601 0.74600005 4288904109
0.0032488303 -0.034437601 0.74600005 4286208879
0.0045483625 -0.034437601 0.74600005 4278714368
0.0058322162 -0.034345273 0.74400002 4278321213
0.0071282643 -0.034345273 0.74400002 4285686189
0.0084243128 -0.034345273 0.74400002 4285029236
0.0097203609 -0.034345273 0.74400002 4278190087
0.011001602 -0.034299113 0.74300003 4278911044
0.012295908 -0.034299113 0.74300003 4286670522
0.013590215 -0.034299113 0.74300003 4285554283
0.01488452 -0.034299113 0.74300003 4278190080
0.016178826 -0.034299113 0.74300003 4278190116
0.017473133 -0.034299113 0.74300003 4286280875
0.018767439 -0.034299113 0.74300003 4286872975
0.020061744 -0.034299113 0.74300003 4278255628
0.021298565 -0.034206789 0.74100006 4278190098
0.022589387 -0.034206789 0.74100006 4283388533
0.02388021 -0.034206789 0.74100006 4283978090
0.025171032 -0.034206789 0.74100006 4280622647
0.026390431 -0.034114458 0.73900002 4279175682
0.027677769 -0.034114458 0.73900002 4282794041
0.028965108 -0.034114458 0.73900002 4285158494
0.030211508 -0.034068298 0.73800004 4285487459
0.031411748 -0.033975974 0.73600006 4284370763
0.032693859 -0.033975974 0.73600006 4278190080
0.033975974 -0.033975974 0.73600006 4280289339
0.035210177 -0.03392981 0.73500001 4287526313
0.036490548 -0.03392981 0.73500001 4288118911
0.037668142 -0.033837482 0.73300004 4287658360
0.038945027 -0.033837482 0.73300004 4287131253
0.040221911 -0.033837482 0.73300004 4287065460
0.041498803 -0.033837482 0.73300004 4290419369
0.042775687 -0.033837482 0.73300004 4294960885
0.044052571 -0.033837482 0.73300004 4294765025
0.045329459 -0.033837482 0.73300004 4294967295
0.046606343 -0.033837482 0.73300004 4294967295
-0.040220171 -0.033626702 0.75700003 4294967039
-0.038901478 -0.033626702 0.75700003 4292594902
-0.037682079 -0.033715542 0.75900006 4286344310
-0.036359899 -0.033715542 0.75900006 4287000448
-0.034945395 -0.033626702 0.75700003 4286342517
-0.033626702 -0.033626702 0.75700003 4284174692
-0.032265328 -0.033582281 0.75600004 4278321164
-0.030948374 -0.033582281 0.75600004 4283105860
-0.029631423 -0.033582281 0.75600004 4290738104
-0.028239565 -0.033493433 0.75400001 4288579996
-0.026926095 -0.033493433 0.75400001 4286474363
-0.025680566 -0.033582281 0.75600004 4280632382
-0.024363615 -0.033582281 0.75600004 4278190080
-0.023046663 -0.033582281 0.75600004 4278386722
-0.021672223 -0.033493433 0.75400001 4286606494
-0.020358756 -0.033493433 0.75400001 4285363872
-0.019045288 -0.033493433 0.75400001 4279245123
-0.017731819 -0.033493433 0.75400001 4278517784
-0.016374802 -0.033404596 0.75200003 4285421441
-0.015064818 -0.033404596 0.75200003 4287329940
-0.013754833 -0.033404596 0.75200003 4286474887
-0.01244485 -0.033404596 0.75200003 4282929238
-0.011134865 -0.033404596 0.75200003 4278850072
-0.0098118158 -0.033360176 0.75100005 4281540449
-0.0085035739 -0.033360176 0.75100005 4282922102
-0.0071761697 -0.033271331 0.74900001 4281073664
-0.0058714114 -0.033271331 0.74900001 4282914327
-0.0045544594 -0.033182491 0.74700004 4285222754
-0.0032531854 -0.033182491 0.74700004 4286340978
-0.0019519113 -0.033182491 0.74700004 4283124051
-0.00065063708 -0.033182491 0.74700004 4278190080
0.00065063708 -0.033182491 0.74700004 4282917452
0.0019519113 -0.033182491 0.74700004 4288509857
0.0032488303 -0.03313807 0.74600005 4285029488
0.0045483625 -0.03313807 0.74600005 4278190080
0.0058478951 -0.03313807 0.74600005 4278190080
0.0071474267 -0.03313807 0.74600005 4285424496
0.0084243128 -0.033049226 0.74400002 4284438645
0.0097203609 -0.033049226 0.74400002 4278190088
0.011016409 -0.033049226 0.74400002 4279697408
0.012312457 -0.033049226 0.74400002 4287193197
0.013608505 -0.033049226 0.74400002 4284634991
0.014904552 -0.033049226 0.74400002 4278190081
0.016200602 -0.033049226 0.74400002 4278190080
0.017496651 -0.033049226 0.74400002 4286937735
0.018767439 -0.033004805 0.74300003 4286480277
0.020061744 -0.033004805 0.74300003 4278190089
0.021356052 -0.033004805 0.74300003 4278190080
0.022650357 -0.033004805 0.74300003 4283716690
0.023944663 -0.033004805 0.74300003 4284636277
0.025171032 -0.032915968 0.74100006 4281675591
0.026461855 -0.032915968 0.74100006 4280814902
0.027752677 -0.032915968 0.74100006 4282328141
0.029043498 -0.032915968 0.74100006 4281414478
0.030252445 -0.032827124 0.73900002 4281151562
0.031497106 -0.0327827 0.73800004 4279967786
0.0327827 -0.0327827 0.73800004 4279770663
0.034068298 -0.0327827 0.73800004 4282723410
0.035353892 -0.0327827 0.73800004 4287131798
0.036540199 -0.032693859 0.73600006 4287460729
0.03777092 -0.032649439 0.73500001 4287526522
0.039051287 -0.032649439 0.73500001 4287197552
0.040221911 -0.032560598 0.73300004 4287328881
0.041498803 -0.032560598 0.73300004 4290814377
0.042775687 -0.032560598 0.73300004 4294960107
0.044052571 -0.032560598 0.73300004 4294831598
0.045329459 -0.032560598 0.73300004 4294967295
-0.040220171 -0.032308009 0.75700003 4294967295
-0.039004255 -0.032393366 0.75900006 4293119962
-0.037781373 -0.032478724 0.76100004 4286474869
-0.036455709 -0.032478724 0.76100004 4286869893
-0.035037722 -0.032393366 0.75900006 4286211963
-0.033626702 -0.032308009 0.75700003 4283322468
-0.032308009 -0.032308009 0.75700003 4278190088
-0.030989313 -0.032308009 0.75700003 4278845488
-0.029670618 -0.032308009 0.75700003 4282789485
-0.028314473 -0.032265328 0.75600004 4282452547
-0.02699752 -0.032265328 0.75600004 4279369748
-0.025680566 -0.032265328 0.75600004 4280949511
-0.024363615 -0.032265328 0.75600004 4282067992
-0.023077147 -0.032308009 0.75700003 4284173677
-0.021729711 -0.032265328 0.75600004 4288187050
-0.020412758 -0.032265328 0.75600004 4288121745
-0.019095806 -0.032265328 0.75600004 4284437337
-0.017731819 -0.032179967 0.75400001 4280751183
-0.016418351 -0.032179967 0.75400001 4279435579
-0.015104883 -0.032179967 0.75400001 4280747592
-0.013791416 -0.032179967 0.75400001 4280615749
-0.01244485 -0.032094613 0.75200003 4280157486
-0.011134865 -0.032094613 0.75200003 4283052634
-0.0098248813 -0.032094613 0.75200003 4284042121
-0.008514897 -0.032094613 0.75200003 4283778692
-0.0071953321 -0.032051936 0.75100005 4281603859
-0.0058870898 -0.032051936 0.75100005 4282327582
-0.0045788479 -0.032051936 0.75100005 4284566888
-0.0032618954 -0.031966574 0.74900001 4285422197
-0.0019571371 -0.031966574 0.74900001 4282990432
-0.00065237907 -0.031966574 0.74900001 4278190102
0.00065237907 -0.031966574 0.74900001 4282326887
0.0019571371 -0.031966574 0.74900001 4287327155
0.0032531854 -0.031881217 0.74700004 4285881170
0.0045544594 -0.031881217 0.74700004 4278910976
0.005855734 -0.031881217 0.74700004 4280156230
0.0071474267 -0.031838536 0.74600005 4286274211
0.0084469598 -0.031838536 0.74600005 4285029736
0.009746491 -0.031838536 0.74600005 4280358433
0.011016409 -0.031753179 0.74400002 4281605701
0.012312457 -0.031753179 0.74400002 4286277004
0.013608505 -0.031753179 0.74400002 4285489748
0.014904552 -0.031753179 0.74400002 4281805340
0.016200602 -0.031753179 0.74400002 4282331736
0.017496651 -0.031753179 0.74400002 4287068833
0.018792698 -0.031753179 0.74400002 4286610051
0.020088745 -0.031753179 0.74400002 4282794056
0.021384794 -0.031753179 0.74400002 4282861383
0.022680841 -0.031753179 0.74400002 4285098345
0.023976889 -0.031753179 0.74400002 4286805883
0.02523897 -0.031710502 0.74300003 4287661192
0.026533276 -0.031710502 0.74300003 4287002999
0.027827581 -0.031710502 0.74300003 4284173899
0.029121889 -0.031710502 0.74300003 4283450970
0.030334322 -0.031625144 0.74100006 4283253590
0.031539787 -0.031539787 0.73900002 4285029179
0.032827124 -0.031539787 0.73900002 4286608211
0.034068298 -0.031497106 0.73800004 4287196807
0.035353892 -0.031497106 0.73800004 4286802049
0.036639489 -0.031497106 0.73800004 4287131005
0.03782231 -0.031411748 0.73600006 4287525507
0.039051287 -0.031369068 0.73500001 4286934373
0.040331658 -0.031369068 0.73500001 4288250233
0.041612029 -0.031369068 0.73500001 4290880681
0.04265897 -0.031198351 0.73100001 4294894311
0.043932371 -0.031198351 0.73100001 4294963959
0.045205776 -0.031198351 0.73100001 4294967295
-0.040485825 -0.031193998 0.76200002 4294967295
-0.039158419 -0.031193998 0.76200002 4293317342
-0.03783102 -0.031193998 0.76200002 4286277491
-0.036503613 -0.031193998 0.76200002 4286607739
-0.035130046 -0.03115306 0.76100004 4285949808
-0.033804383 -0.03115306 0.76100004 4283126116
-0.032393366 -0.031071188 0.75900006 4278190090
-0.031071188 -0.031071188 0.75900006 4278190116
-0.02974901 -0.031071188 0.75900006 4278453559
-0.02842683 -0.031071188 0.75900006 4278190080
-0.027104653 -0.031071188 0.75900006 4278518291
-0.025782473 -0.031071188 0.75900006 4282523680
-0.024395842 -0.030989313 0.75700003 4284036919
-0.023077147 -0.030989313 0.75700003 4287391862
-0.021758454 -0.030989313 0.75700003 4289102224
-0.020439759 -0.030989313 0.75700003 4288447646
-0.019121066 -0.030989313 0.75700003 4286539393
-0.017778853 -0.030948374 0.75600004 4284503392
-0.016461903 -0.030948374 0.75600004 4278779912
-0.01514495 -0.030948374 0.75600004 4278190104
-0.013791416 -0.0308665 0.75400001 4278190106
-0.012477947 -0.0308665 0.75400001 4280549378
-0.011164479 -0.0308665 0.75400001 4285286219
-0.0098510114 -0.0308665 0.75400001 4286802315
-0.008514897 -0.030784627 0.75200003 4284696939
-0.0072049126 -0.030784627 0.75200003 4281345563
-0.0058949287 -0.030784627 0.75200003 4281871908
-0.0045788479 -0.03074369 0.75100005 4286077027
-0.0032706053 -0.03074369 0.75100005 4286143076
-0.0019623633 -0.03074369 0.75100005 4284437850
-0.0006541211 -0.03074369 0.75100005 4283516749
0.0006541211 -0.03074369 0.75100005 4284959579
0.0019623633 -0.03074369 0.75100005 4287196798
0.0032618954 -0.030661814 0.74900001 4286539125
0.0045544594 -0.030579941 0.74700004 4283644490
0.005855734 -0.030579941 0.74700004 4284432459
0.0071570072 -0.030579941 0.74700004 4287064178
0.0084582819 -0.030579941 0.74700004 4286409342
0.009746491 -0.030539008 0.74600005 4283975001
0.011046024 -0.030539008 0.74600005 4284630603
0.012345555 -0.030539008 0.74600005 4286735979
0.013645088 -0.030539008 0.74600005 4286342252
0.014944619 -0.030539008 0.74600005 4284302669
0.016244153 -0.030539008 0.74600005 4284630366
0.017543685 -0.030539008 0.74600005 4287130501
0.018843215 -0.030539008 0.74600005 4286607487
0.020142749 -0.030539008 0.74600005 4284567903
0.021442281 -0.030539008 0.74600005 4284698193
0.022680841 -0.030457132 0.74400002 4286079846
0.023976889 -0.030457132 0.74400002 4286935416
0.025272937 -0.030457132 0.74400002 4287922567
0.026568986 -0.030457132 0.74400002 4288118663
0.027827581 -0.030416194 0.74300003 4287197561
0.029121889 -0.030416194 0.74300003 4285553252
0.030457132 -0.030457132 0.74400002 4285289823
0.031710502 -0.030416194 0.74300003 4286406230
0.033004805 -0.030416194 0.74300003 4288380021
0.034206789 -0.030334322 0.74100006 4288512908
0.035497613 -0.030334322 0.74100006 4287854721
0.036689136 -0.030252445 0.73900002 4286540401
0.037976474 -0.030252445 0.73900002 4287198074
0.039210681 -0.030211508 0.73800004 4286803305
0.040386535 -0.030129636 0.73600006 4288184958
0.041612029 -0.030088698 0.73500001 4291275178
-0.040485825 -0.029866593 0.76200002 4294967295
-0.039261203 -0.029944982 0.76400006 4293580511
-0.037930313 -0.029944982 0.76400006 4286080109
-0.036599427 -0.029944982 0.76400006 4286802553
-0.03517621 -0.029866593 0.76200002 4288118413
-0.033848803 -0.029866593 0.76200002 4287069836
-0.032478724 -0.029827399 0.76100004 4286543492
-0.03115306 -0.029827399 0.76100004 4286870406
-0.029827399 -0.029827399 0.76100004 4286804613
-0.028501738 -0.029827399 0.76100004 4287461499
-0.027176075 -0.029827399 0.76100004 4288316808
-0.025782473 -0.02974901 0.75900006 4288448128
-0.024460297 -0.02974901 0.75900006 4288251005
-0.023138119 -0.02974901 0.75900006 4287921030
-0.021815941 -0.02974901 0.75900006 4287986823
-0.020493761 -0.02974901 0.75900006 4288381579
-0.019121066 -0.029670618 0.75700003 4288513421
-0.017802371 -0.029670618 0.75700003 4287856520
-0.016483678 -0.029670618 0.75700003 4287659398
-0.015164983 -0.029670618 0.75700003 4287265916
-0.013827998 -0.029631423 0.75600004 4287265916
-0.012511045 -0.029631423 0.75600004 4287921280
-0.011194094 -0.029631423 0.75600004 4288447624
-0.0098771406 -0.029631423 0.75600004 4288250765
-0.008537543 -0.029553032 0.75400001 4287790214
-0.0072240741 -0.029553032 0.75400001 4287659899
-0.0059106066 -0.029553032 0.75400001 4287922815
-0.0045849448 -0.029474642 0.75200003 4287988097
-0.0032749604 -0.029474642 0.75200003 4287856511
-0.0019649761 -0.029474642 0.75200003 4287395967
-0.00065499207 -0.029474642 0.75200003 4287462016
0.0006541211 -0.029435448 0.75100005 4287526522
0.0019623633 -0.029435448 0.75100005 4288447624
0.0032749604 -0.029474642 0.75200003 4287921548
0.0045666532 -0.029357059 0.74900001 4287460997
0.0058714114 -0.029357059 0.74900001 4287329409
0.0071761697 -0.029357059 0.74900001 4287789960
0.0084582819 -0.029278668 0.74700004 4287658894
0.0097595565 -0.029278668 0.74700004 4287856016
0.01106083 -0.029278668 0.74700004 4287461762
0.012362105 -0.029278668 0.74700004 4287593348
0.013663379 -0.029278668 0.74700004 4287724418
0.014964653 -0.029278668 0.74700004 4287856005
0.016265927 -0.029278668 0.74700004 4287658625
0.017567201 -0.029278668 0.74700004 4286474352
0.018868476 -0.029278668 0.74700004 4286868348
0.02016975 -0.029278668 0.74700004 4287657608
0.021442281 -0.029239476 0.74600005 4287328631
0.022741813 -0.029239476 0.74600005 4287657597
0.024041345 -0.029239476 0.74600005 4287657821
0.025340877 -0.029239476 0.74600005 4287723614
0.02664041 -0.029239476 0.74600005 4287789417
0.027939942 -0.029239476 0.74600005 4287921259
0.029239476 -0.029239476 0.74600005 4287854973
0.030539008 -0.029239476 0.74600005 4287657851
0.031838536 -0.029239476 0.74600005 4287722862
0.033049226 -0.029161081 0.74400002 4287919985
0.034299113 -0.029121889 0.74300003 4288446583
0.03559342 -0.029121889 0.74300003 4288446583
0.036887724 -0.029121889 0.74300003 4288053118
0.038079254 -0.029043498 0.74100006 4287724409
0.039263815 -0.028965108 0.73900002 4287656563
0.040496279 -0.028925914 0.73800004 4289498767
-0.039261203 -0.028614094 0.76400006 4293908963
-0.037930313 -0.028614094 0.76400006 4286079596
-0.036599427 -0.028614094 0.76400006 4287262071
-0.035268538 -0.028614094 0.76400006 4288643724
-0.033848803 -0.02853919 0.76200002 4288972175
-0.032521401 -0.02853919 0.76200002 4288906126
-0.031193998 -0.02853919 0.76200002 4287854212
-0.029866593 -0.02853919 0.76200002 4287920005
-0.02853919 -0.02853919 0.76200002 4288511091
-0.027211783 -0.02853919 0.76200002 4289037435
-0.025884381 -0.02853919 0.76200002 4288513156
-0.024556976 -0.02853919 0.76200002 4288249983
-0.023138119 -0.02842683 0.75900006 4287395456
-0.021815941 -0.02842683 0.75900006 4287724420
-0.020493761 -0.02842683 0.75900006 4287921802
-0.019171584 -0.02842683 0.75900006 4287921802
-0.017849406 -0.02842683 0.75900006 4287789698
-0.016527228 -0.02842683 0.75900006 4288184456
-0.015164983 -0.028351925 0.75700003 4288380286
-0.013846288 -0.028351925 0.75700003 4288248957
-0.012527594 -0.028351925 0.75700003 4288446081
-0.0112089 -0.028351925 0.75700003 4288380032
-0.0098902062 -0.028351925 0.75700003 4288118152
-0.008560189 -0.028314473 0.75600004 4288052103
-0.0072432365 -0.028314473 0.75600004 4288249983
-0.0059262845 -0.028314473 0.75600004 4288249983
-0.0046093324 -0.028314473 0.75600004 4287986560
-0.0032923804 -0.028314473 0.75600004 4287920766
-0.0019702022 -0.028239565 0.75400001 4287526011
-0.00065673405 -0.028239565 0.75400001 4287657597
0.00065673405 -0.028239565 0.75400001 4287722361
0.0019702022 -0.028239565 0.75400001 4287788154
0.0032749604 -0.028164661 0.75200003 4287854723
0.0045849448 -0.028164661 0.75200003 4287986310
0.0058870898 -0.028127208 0.75100005 4287460479
0.0071953321 -0.028127208 0.75100005 4287197563
0.0085035739 -0.028127208 0.75100005 4287263617
0.0097856857 -0.0280523 0.74900001 4287395204
0.011090443 -0.0280523 0.74900001 4287395456
0.012395202 -0.0280523 0.74900001 4287461249
0.01369996 -0.0280523 0.74900001 4287724157
0.015044784 -0.028127208 0.75100005 4288184708
0.016353028 -0.028127208 0.75100005 4288118665
0.017661268 -0.028127208 0.75100005 4287526272
0.018969512 -0.028127208 0.75100005 4287262071
0.02022375 -0.0280523 0.74900001 4287854208
0.021471024 -0.027977394 0.74700004 4287785074
0.022772297 -0.027977394 0.74700004 4287653231
0.024041345 -0.027939942 0.74600005 4287653220
0.025340877 -0.027939942 0.74600005 4288311149
0.02664041 -0.027939942 0.74600005 4287656563
0.027939942 -0.027939942 0.74600005 4287919735
0.029239476 -0.027939942 0.74600005 4288117126
0.030539008 -0.027939942 0.74600005 4288183175
0.031838536 -0.027939942 0.74600005 4288247684
0.03313807 -0.027939942 0.74600005 4288181635
0.034345273 -0.027865034 0.74400002 4288512133
0.035641324 -0.027865034 0.74400002 4288578182
0.036937371 -0.027865034 0.74400002 4288447364
0.038182031 -0.027827581 0.74300003 4287986813
0.039476339 -0.027827581 0.74300003 4288050528
0.040660899 -0.027752677 0.74100006 4288313700
-0.038029607 -0.02735463 0.76600003 4286737523
-0.036695234 -0.02735463 0.76600003 4287722109
-0.035268538 -0.027283208 0.76400006 4288972175
-0.033937652 -0.027283208 0.76400006 4288775562
-0.032606762 -0.027283208 0.76400006 4288841355
-0.031275872 -0.027283208 0.76400006 4288840062
-0.029866593 -0.027211783 0.76200002 4287721325
-0.02853919 -0.027211783 0.76200002 4288049497
-0.027211783 -0.027211783 0.76200002 4288444255
-0.025952319 -0.027283208 0.76400006 4288050810
-0.024556976 -0.027211783 0.76200002 4287919224
-0.023229571 -0.027211783 0.76200002 4287854208
-0.021902168 -0.027211783 0.76200002 4287920001
-0.020574765 -0.027211783 0.76200002 4288249470
-0.019222101 -0.027176075 0.76100004 4287459954
-0.017896438 -0.027176075 0.76100004 4288181111
-0.016527228 -0.027104653 0.75900006 4288510075
-0.015205049 -0.027104653 0.75900006 4288049774
-0.013882871 -0.027104653 0.75900006 4288049774
-0.012527594 -0.027033228 0.75700003 4287853428
-0.0112089 -0.027033228 0.75700003 4287721586
-0.0098902062 -0.027033228 0.75700003 4287722361
-0.0085715121 -0.027033228 0.75700003 4286801259
-0.007252818 -0.027033228 0.75700003 4287721336
-0.0059341234 -0.027033228 0.75700003 4287853179
-0.0046154293 -0.027033228 0.75700003 4288051834
-0.0032923804 -0.02699752 0.75600004 4287920505
-0.0019754283 -0.02699752 0.75600004 4287854458
-0.00065847608 -0.02699752 0.75600004 4287854458
0.00065847608 -0.02699752 0.75600004 4287920507
0.0019702022 -0.026926095 0.75400001 4287920507
0.0032836702 -0.026926095 0.75400001 4287986813
0.0045849448 -0.026854673 0.75200003 4288052607
0.0058949287 -0.026854673 0.75200003 4287658364
0.0072049126 -0.026854673 0.75200003 4287460729
0.008514897 -0.026854673 0.75200003 4287329409
0.0098248813 -0.026854673 0.75200003 4287329409
0.011134865 -0.026854673 0.75200003 4287330176
0.01244485 -0.026854673 0.75200003 4287395969
0.013754833 -0.026854673 0.75200003 4287658877
0.015064818 -0.026854673 0.75200003 4287790464
0.016374802 -0.026854673 0.75200003 4287724922
0.017661268 -0.026818965 0.75100005 4287658873
0.018969512 -0.026818965 0.75100005 4287264117
0.02022375 -0.02674754 0.74900001 4287395960
0.021528509 -0.02674754 0.74900001 4287064178
0.022833267 -0.02674754 0.74900001 4286801007
0.024073573 -0.02667612 0.74700004 4286669416
0.025374847 -0.02667612 0.74700004 4286669416
0.02667612 -0.02667612 0.74700004 4286472559
0.027977394 -0.02667612 0.74700004 4286274924
0.029278668 -0.02667612 0.74700004 4286077561
0.030579941 -0.02667612 0.74700004 4285945974
0.031881217 -0.02667612 0.74700004 4285879414
0.033182491 -0.02667612 0.74700004 4285616498
0.034437601 -0.02664041 0.74600005 4285355366
0.035737135 -0.02664041 0.74600005 4285289573
0.037036669 -0.02664041 0.74600005 4284831062
0.038233418 -0.026568986 0.74400002 4283909960
0.039529469 -0.026568986 0.74400002 4283186502
0.040770642 -0.026533276 0.74300003 4286147188
-0.038029607 -0.026020257 0.76600003 4286277741
-0.036695234 -0.026020257 0.76600003 4287853179
-0.035360862 -0.026020257 0.76600003 4289234831
-0.033937652 -0.025952319 0.76400006 4288907666
-0.032606762 -0.025952319 0.76400006 4288907666
-0.031275872 -0.025952319 0.76400006 4289103764
-0.029944982 -0.025952319 0.76400006 4288050819
-0.028614094 -0.025952319 0.76400006 4288312183
-0.027283208 -0.025952319 0.76400006 4288575098
-0.025952319 -0.025952319 0.76400006 4288510591
-0.024621431 -0.025952319 0.76400006 4288576384
-0.023290543 -0.025952319 0.76400006 4288445575
-0.021959655 -0.025952319 0.76400006 4288511624
-0.020628767 -0.025952319 0.76400006 4289036683
-0.019247361 -0.025884381 0.76200002 4288247167
-0.017919956 -0.025884381 0.76200002 4288311418
-0.016570777 -0.025850412 0.76100004 4288442747
-0.015245114 -0.025850412 0.76100004 4288113782
-0.013919452 -0.025850412 0.76100004 4288442747
-0.012560693 -0.025782473 0.75900006 4288116866
-0.011238514 -0.025782473 0.75900006 4288051073
-0.0099163363 -0.025782473 0.75900006 4288575367
-0.0085941581 -0.025782473 0.75900006 4287983229
-0.0072719804 -0.025782473 0.75900006 4288180609
-0.0059341234 -0.025714535 0.75700003 4288509574
-0.0046154293 -0.025714535 0.75700003 4288511118
-0.0032967352 -0.025714535 0.75700003 4288379532
-0.0019780411 -0.025714535 0.75700003 4287986058
-0.00065934705 -0.025714535 0.75700003 4288052107
0.00065934705 -0.025714535 0.75700003 4288052620
0.0019780411 -0.025714535 0.75700003 4287986571
0.0032967352 -0.025714535 0.75700003 4287986575
0.0046154293 -0.025714535 0.75700003 4287789196
0.0059262845 -0.025680566 0.75600004 4287592069
0.0072432365 -0.025680566 0.75600004 4287328897
0.008560189 -0.025680566 0.75600004 4287131264
0.0098771406 -0.025680566 0.75600004 4286868348
0.011164479 -0.025612628 0.75400001 4286605942
0.012477947 -0.025612628 0.75400001 4286145391
0.013791416 -0.025612628 0.75400001 4285882466
0.015064818 -0.02554469 0.75200003 4285487709
0.016374802 -0.02554469 0.75200003 4285159250
0.017684786 -0.02554469 0.75200003 4285027408
0.018994769 -0.02554469 0.75200003 4284633683
0.020277753 -0.025510723 0.75100005 4284633683
0.021585995 -0.025510723 0.75100005 4285026906
0.022894237 -0.025510723 0.75100005 4284698197
0.024202481 -0.025510723 0.75100005 4284566607
0.025510723 -0.025510723 0.75100005 4284632400
0.026818965 -0.025510723 0.75100005 4285025622
0.028127208 -0.025510723 0.75100005 4284762707
0.029435448 -0.025510723 0.75100005 4284696660
0.03074369 -0.025510723 0.75100005 4284499280
0.031966574 -0.025442783 0.74900001 4283843151
0.033271331 -0.025442783 0.74900001 4283645516
0.034576092 -0.025442783 0.74900001 4282793280
0.035737135 -0.025340877 0.74600005 4282661438
0.037036669 -0.025340877 0.74600005 4281676332
0.038336199 -0.025340877 0.74600005 4279834128
0.039635733 -0.025340877 0.74600005 4278192896
0.040825516 -0.025272937 0.74400002 4284250715
0.042121563 -0.025272937 0.74400002 4288845200
-0.036838949 -0.024782566 0.76900005 4278323976
-0.035360862 -0.024685884 0.76600003 4282534728
-0.034026489 -0.024685884 0.76600003 4283845978
-0.032692116 -0.024685884 0.76600003 4284240735
-0.031357747 -0.024685884 0.76600003 4284567640
-0.029944982 -0.024621431 0.76400006 4284633433
-0.028614094 -0.024621431 0.76400006 4284895849
-0.027283208 -0.024621431 0.76400006 4284830056
-0.026020257 -0.024685884 0.76600003 4284764762
-0.024685884 -0.024685884 0.76600003 4284830812
-0.023290543 -0.024621431 0.76400006 4284437599
-0.021959655 -0.024621431 0.76400006 4284371805
-0.020628767 -0.024621431 0.76400006 4284372057
-0.019297879 -0.024621431 0.76400006 4284306264
-0.017966991 -0.024621431 0.76400006 4284435802
-0.016592553 -0.024556976 0.76200002 4284435802
-0.015265148 -0.024556976 0.76200002 4283844957
-0.013937743 -0.024556976 0.76200002 4283713628
-0.01259379 -0.02452475 0.76100004 4283647835
-0.011268128 -0.02452475 0.76100004 4283450199
-0.0099424664 -0.02452475 0.76100004 4283317850
-0.0085941581 -0.024460297 0.75900006 4283054679
-0.0072719804 -0.024460297 0.75900006 4282921811
-0.0059498018 -0.024460297 0.75900006 4282527053
-0.0046276241 -0.024460297 0.75900006 4282196312
-0.0033054454 -0.024460297 0.75900006 4281275210
-0.0019832673 -0.024460297 0.75900006 4281467465
-0.00065934705 -0.024395842 0.75700003 4281073731
0.00065934705 -0.024395842 0.75700003 4280352838
0.0019780411 -0.024395842 0.75700003 4279959616
0.0032967352 -0.024395842 0.75700003 4280221753
0.0046154293 -0.024395842 0.75700003 4279959606
0.0059341234 -0.024395842 0.75700003 4280549417
0.007252818 -0.024395842 0.75700003 4280352807
0.0085715121 -0.024395842 0.75700003 4280942634
0.0098771406 -0.024363615 0.75600004 4280483875
0.011194094 -0.024363615 0.75600004 4279697466
0.012511045 -0.024363615 0.75600004 4279566392
0.013827998 -0.024363615 0.75600004 4279959608
0.015104883 -0.02429916 0.75400001 4279828533
0.016418351 -0.02429916 0.75400001 4280287282
0.017684786 -0.024234707 0.75200003 4280484150
0.018994769 -0.024234707 0.75200003 4281143111
0.020304754 -0.024234707 0.75200003 4281143111
0.02161474 -0.024234707 0.75200003 4282655046
0.022924723 -0.024234707 0.75200003 4282786375
0.024234707 -0.024234707 0.75200003 4283380029
0.02554469 -0.024234707 0.75200003 4283248700
0.026818965 -0.024202481 0.75100005 4284038714
0.028127208 -0.024202481 0.75100005 4284038714
0.029435448 -0.024202481 0.75100005 4284433460
0.03074369 -0.024202481 0.75100005 4284499253
0.032051936 -0.024202481 0.75100005 4284499265
0.033360176 -0.024202481 0.75100005 4284367678
0.034668416 -0.024202481 0.75100005 4284433962
0.035880849 -0.024138026 0.74900001 4284828720
0.037185606 -0.024138026 0.74900001 4284763722
0.038490366 -0.024138026 0.74900001 4283118897
0.039635733 -0.024041345 0.74600005 4282855963
0.040935263 -0.024041345 0.74600005 4288777077
0.042234793 -0.024041345 0.74600005 4290750381
-0.038277842 -0.023503937 0.77100003 4280294177
-0.036934759 -0.023503937 0.77100003 4278193152
-0.035407025 -0.023381997 0.76700002 4278191616
-0.034070909 -0.023381997 0.76700002 4278190080
-0.032692116 -0.023351513 0.76600003 4278190080
-0.031357747 -0.023351513 0.76600003 4278190080
-0.030023374 -0.023351513 0.76600003 4278386944
-0.028688999 -0.023351513 0.76600003 4278519045
-0.02735463 -0.023351513 0.76600003 4278519045
-0.026020257 -0.023351513 0.76600003 4278192128
-0.024685884 -0.023351513 0.76600003 4278192384
-0.023351513 -0.023351513 0.76600003 4278192896
-0.021959655 -0.023290543 0.76400006 4278193152
-0.020628767 -0.023290543 0.76400006 4278191360
-0.019297879 -0.023290543 0.76400006 4278191616
-0.017966991 -0.023290543 0.76400006 4278191360
-0.016636103 -0.023290543 0.76400006 4278191360
-0.015305214 -0.023290543 0.76400006 4278190080
-0.013974326 -0.023290543 0.76400006 4278190080
-0.012643438 -0.023290543 0.76400006 4278190080
-0.011282935 -0.023229571 0.76200002 4278190080
-0.009955531 -0.023229571 0.76200002 4278190080
-0.0086281262 -0.023229571 0.76200002 4278190080
-0.0073007224 -0.023229571 0.76200002 4278190080
-0.0059654796 -0.023199089 0.76100004 4278190080
-0.0046398174 -0.023199089 0.76100004 4278190080
-0.0033141554 -0.023199089 0.76100004 4278190080
-0.0019832673 -0.023138119 0.75900006 4278190080
-0.00066108909 -0.023138119 0.75900006 4278190080
0.00066108909 -0.023138119 0.75900006 4278190080
0.0019832673 -0.023138119 0.75900006 4278190080
0.0032967352 -0.023077147 0.75700003 4278648832
0.0046154293 -0.023077147 0.75700003 4278976512
0.0059341234 -0.023077147 0.75700003 4280025088
0.007252818 -0.023077147 0.75700003 4280680704
0.0085715121 -0.023077147 0.75700003 4281076992
0.0098902062 -0.023077147 0.75700003 4281932288
0.0112089 -0.023077147 0.75700003 4282787072
0.012527594 -0.023077147 0.75700003 4283050496
0.013846288 -0.023077147 0.75700003 4283118592
0.01514495 -0.023046663 0.75600004 4283513344
0.016461903 -0.023046663 0.75600004 4284040448
0.017778853 -0.023046663 0.75600004 4284500992
0.019045288 -0.022985691 0.75400001 4284304163
0.020358756 -0.022985691 0.75400001 4284106528
0.021672223 -0.022985691 0.75400001 4284106517
0.022924723 -0.022924723 0.75200003 4284172310
0.024234707 -0.022924723 0.75200003 4284303872
0.02554469 -0.022924723 0.75200003 4284040448
0.026854673 -0.022924723 0.75200003 4284235776
0.028164661 -0.022924723 0.75200003 4284499200
0.029474642 -0.022924723 0.75200003 4284762112
0.03074369 -0.022894237 0.75100005 4285222656
0.032051936 -0.022894237 0.75100005 4285880588
0.033360176 -0.022894237 0.75100005 4286077710
0.034668416 -0.022894237 0.75100005 4286930959
0.03597666 -0.022894237 0.75100005 4287720475
0.037284903 -0.022894237 0.75100005 4287458359
0.038490366 -0.022833267 0.74900001 4286208293
0.039688859 -0.022772297 0.74700004 4287258880
0.040990133 -0.022772297 0.74700004 4291732787
0.04229141 -0.022772297 0.74700004 4292195246
0.043709397 -0.022833267 0.74900001 4294964721
-0.038277842 -0.022160854 0.77100003 4285622129
-0.036934759 -0.022160854 0.77100003 4285031966
-0.035499353 -0.022103371 0.76900005 4286808377
-0.034159753 -0.022103371 0.76900005 4286871367
-0.032734796 -0.022045882 0.76700002 4286476609
-0.03139868 -0.022045882 0.76700002 4286147408
-0.030062566 -0.022045882 0.76700002 4285752650
-0.028726451 -0.022045882 0.76700002 4285686096
-0.027390338 -0.022045882 0.76700002 4285554254
-0.026054224 -0.022045882 0.76700002 4285554254
-0.024685884 -0.022017142 0.76600003 4285488460
-0.023351513 -0.022017142 0.76600003 4285685576
-0.022017142 -0.022017142 0.76600003 4285817162
-0.020682767 -0.022017142 0.76600003 4286078281
-0.019348396 -0.022017142 0.76600003 4286012488
-0.018014025 -0.022017142 0.76600003 4285947719
-0.016679652 -0.022017142 0.76600003 4285947719
-0.015345279 -0.022017142 0.76600003 4286013258
-0.014010907 -0.022017142 0.76600003 4286079307
-0.012643438 -0.021959655 0.76400006 4286145863
-0.01131255 -0.021959655 0.76400006 4286145863
-0.0099816611 -0.021959655 0.76400006 4286212408
-0.0086507732 -0.021959655 0.76400006 4286475580
-0.0073198848 -0.021959655 0.76400006 4286607427
-0.0059889969 -0.021959655 0.76400006 4286673221
-0.0046459143 -0.021902168 0.76200002 4287002424
-0.0033185103 -0.021902168 0.76200002 4287462975
-0.0019911062 -0.021902168 0.76200002 4287594063
-0.00066283107 -0.021873426 0.76100004 4287594063
0.00066283107 -0.021873426 0.76100004 4287659338
0.0019884931 -0.021873426 0.76100004 4288119889
0.0033054454 -0.021815941 0.75900006 4288054083
0.0046276241 -0.021815941 0.75900006 4287922240
0.0059498018 -0.021815941 0.75900006 4287856686
0.007252818 -0.021758454 0.75700003 4287856686
0.0085715121 -0.021758454 0.75700003 4287790393
0.0098902062 -0.021758454 0.75700003 4287856186
0.0112089 -0.021758454 0.75700003 4287921700
