# .PCD v0.7 - Point Cloud Data file format
VERSION 0.7
FIELDS x y z
SIZE 4 4 4
TYPE F F F
COUNT 1 1 1
WIDTH 1307
HEIGHT 1
VIEWPOINT 0 0 0 1 0 0 0
POINTS 1307
DATA ascii
0.006041883 -0.054183487 0.72606176
0.006289551 -0.054143947 0.72603428
0.0065540476 -0.054101724 0.72600496
0.0068361778 -0.054056682 0.72597367
0.0071366988 -0.054008704 0.72594029
0.0074563073 -0.053957682 0.72590482
0.007795623 -0.053903513 0.72586721
0.0081551867 -0.05384611 0.72582734
0.0085354438 -0.053785402 0.72578514
0.0089367507 -0.053721335 0.72574061
0.0093593616 -0.05365387 0.72569376
0.0098034367 -0.053582974 0.72564447
0.01026904 -0.053508643 0.72559279
0.010756148 -0.053430878 0.72553879
0.01126465 -0.0533497 0.72548234
0.011794362 -0.053265132 0.72542363
0.012345027 -0.053177223 0.72536254
0.012916327 -0.053086016 0.72529912
0.013507894 -0.052991576 0.7252335
0.014119312 -0.052893966 0.72516567
0.014750131 -0.052793257 0.72509569
0.015399868 -0.05268953 0.72502363
0.016068017 -0.052582864 0.72494954
0.016754061 -0.05247334 0.72487342
0.017457465 -0.052361045 0.7247954
0.018177694 -0.052246064 0.72471547
0.018914204 -0.052128486 0.72463375
0.019666461 -0.052008398 0.72455031
0.020433927 -0.051885884 0.72446519
0.021216076 -0.051761039 0.72437847
0.022012377 -0.051633965 0.72429019
0.022822309 -0.051504776 0.72420043
0.023645328 -0.051373627 0.72410935
0.024480851 -0.051240765 0.72401708
0.025328176 -0.051106591 0.7239241
0.026186369 -0.050971862 0.72383088
0.027254792 -0.050807539 0.72371793
0.028329086 -0.050650623 0.72361165
0.029405596 -0.05051259 0.72352219
0.030475644 -0.050422043 0.72347462
0.031513397 -0.050467152 0.72354627
0.032433178 -0.051139954 0.72417051
0.03261007 -0.051610783 0.7245931
0.0079306485 -0.070155777 0.74027187
0.0080251563 -0.07014069 0.74026138
0.0081264479 -0.070124522 0.74025017
0.0082350085 -0.070107192 0.74023813
0.0083513614 -0.070088618 0.7402252
0.0084760655 -0.07006871 0.74021137
0.0086097196 -0.070047371 0.74019653
0.0087529644 -0.070024498 0.74018067
0.0089064846 -0.069999993 0.74016362
0.0090710074 -0.06997373 0.74014539
0.0092473021 -0.069945581 0.74012583
0.0094361734 -0.069915429 0.74010485
0.0096384557 -0.069883138 0.74008244
0.009855004 -0.069848567 0.74005836
0.010086684 -0.069811583 0.74003267
0.010334351 -0.069772042 0.7400052
0.010598848 -0.069729812 0.73997587
0.010880978 -0.069684774 0.73994458
0.011181499 -0.069636799 0.73991126
0.011501107 -0.06958577 0.73987579
0.011840424 -0.069531605 0.73983812
0.012199987 -0.069474198 0.73979825
0.012580244 -0.069413498 0.73975605
0.012981551 -0.069349431 0.73971152
0.013404162 -0.069281958 0.73966467
0.013848237 -0.069211066 0.73961538
0.01431384 -0.069136731 0.73956376
0.014800948 -0.06905897 0.7395097
0.01530945 -0.068977788 0.73945332
0.015839161 -0.068893224 0.73939455
0.016389826 -0.068805315 0.73933345
0.016961128 -0.068714112 0.73927009
0.017552694 -0.068619668 0.73920447
0.018164113 -0.068522058 0.73913664
0.018794931 -0.068421349 0.73906666
0.019444667 -0.068317622 0.7389946
0.020112818 -0.068210959 0.73892045
0.02079886 -0.068101436 0.73884434
0.021502266 -0.067989141 0.73876631
0.022222493 -0.067874156 0.73868644
0.022959003 -0.067756571 0.73860472
0.023711259 -0.067636475 0.73852128
0.024478721 -0.067513943 0.7384361
0.025260856 -0.067389056 0.73834932
0.026057133 -0.06726189 0.73826092
0.02686701 -0.06713248 0.73817098
0.027689908 -0.067000866 0.73807949
0.02852517 -0.066867001 0.73798639
0.029371949 -0.066730715 0.7378915
0.03022901 -0.066591613 0.7377944
0.031294327 -0.066415295 0.73767066
0.03236137 -0.066230357 0.73753935
0.033421066 -0.066027358 0.73739183
0.034451205 -0.065782614 0.7372064
0.035384182 -0.065422893 0.73691618
0.035896525 -0.064521454 0.73613304
0.035825331 -0.064033754 0.73569876
0.0052893879 -0.070492774 0.7404741
0.0051959543 -0.07050769 0.74048448
0.0050958148 -0.070523679 0.74049562
0.0049884883 -0.070540808 0.74050748
0.0048734583 -0.070559174 0.7405203
0.0047501721 -0.070578858 0.74053395
0.0046180375 -0.070599951 0.74054861
0.0044764215 -0.070622563 0.74056429
0.0043246467 -0.070646793 0.74058115
0.004161994 -0.070672758 0.74059922
0.0039877039 -0.070700586 0.74061853
0.00380098 -0.070730388 0.74063927
0.0036009976 -0.070762321 0.74066144
0.0033869108 -0.070796497 0.74068516
0.0031578662 -0.070833065 0.74071062
0.0029130143 -0.07087215 0.74073774
0.0026515252 -0.070913896 0.74076676
0.0023726022 -0.070958428 0.7407977
0.002075498 -0.071005858 0.74083066
0.0017595233 -0.071056299 0.74086571
0.0014240653 -0.071109854 0.7409029
0.0010685903 -0.071166605 0.74094236
0.00069265591 -0.071226619 0.74098408
0.0002959118 -0.071289957 0.74102807
-0.00012189429 -0.071356662 0.74107444
-0.00056092005 -0.071426749 0.74112314
-0.0010212299 -0.071500234 0.74117416
-0.0015027997 -0.071577117 0.74122763
-0.0020055205 -0.071657375 0.74128336
-0.0025292097 -0.071740977 0.74134147
-0.0030736139 -0.071827888 0.74140185
-0.0036384186 -0.071918055 0.74146456
-0.0042232601 -0.072011426 0.74152941
-0.0048277266 -0.072107926 0.74159646
-0.0054513733 -0.072207488 0.74166566
-0.0060937223 -0.07231003 0.74173689
-0.0067542754 -0.072415486 0.7418102
-0.007432519 -0.072523765 0.74188542
-0.0081279259 -0.072634779 0.74196255
-0.0088399649 -0.072748452 0.74204153
-0.0095681027 -0.072864696 0.74212235
-0.010311808 -0.072983421 0.74220484
-0.011070548 -0.073104545 0.74228901
-0.011843802 -0.073227964 0.74237472
-0.012631051 -0.073353596 0.74246204
-0.013431774 -0.073481321 0.74255079
-0.014245437 -0.073610976 0.74264079
-0.015071459 -0.07374233 0.74273199
-0.015909148 -0.073874973 0.74282396
-0.016757587 -0.074008174 0.74291611
-0.017813861 -0.074170627 0.74302781
-0.018875942 -0.074325763 0.74313283
-0.019940212 -0.07446222 0.74322128
-0.020998096 -0.074551739 0.74326831
-0.02202405 -0.074507147 0.74319744
-0.022933371 -0.073841989 0.74258035
-0.023108251 -0.073376514 0.74216259
0.0012905751 -0.055042367 0.72666204
0.0011971417 -0.055057283 0.72667241
0.0010970022 -0.055073269 0.7266835
0.00098967552 -0.055090401 0.72669542
0.00087464548 -0.055108767 0.72670817
0.00075135933 -0.055128448 0.72672188
0.00061922491 -0.055149544 0.72673649
0.0004776087 -0.055172153 0.72675222
0.0003258338 -0.055196382 0.72676903
0.00016318119 -0.055222347 0.72678709
-1.1108814e-05 -0.055250175 0.72680646
-0.0001978325 -0.055279981 0.72682714
-0.00039781493 -0.055311911 0.72684932
-0.00061190198 -0.055346087 0.7268731
-0.00084094639 -0.055382654 0.72689849
-0.0010857984 -0.055421744 0.72692567
-0.0013472876 -0.055463489 0.72695464
-0.0016262104 -0.055508018 0.72698563
-0.0019233146 -0.055555448 0.72701859
-0.0022392895 -0.055605892 0.72705364
-0.0025747474 -0.055659447 0.72709084
-0.0029302223 -0.055716194 0.72713029
-0.0033061567 -0.055776212 0.72717196
-0.0037029008 -0.05583955 0.72721601
-0.004120707 -0.055906251 0.72726232
-0.0045597325 -0.055976339 0.72731102
-0.0050200424 -0.056049824 0.7273621
-0.0055016126 -0.056126706 0.7274155
-0.006004333 -0.056206964 0.72747129
-0.0065280222 -0.056290567 0.72752941
-0.0070724264 -0.056377478 0.72758979
-0.0076372311 -0.056467645 0.72765243
-0.0082220724 -0.056561012 0.72771734
-0.0088265389 -0.056657515 0.7277844
-0.009450186 -0.056757078 0.72785354
-0.010092535 -0.056859624 0.72792482
-0.010753088 -0.056965079 0.72799808
-0.011431331 -0.057073358 0.7280733
-0.012126738 -0.057184376 0.72815049
-0.012838777 -0.057298049 0.72822946
-0.013566914 -0.057414293 0.72831023
-0.014310617 -0.057533026 0.72839272
-0.015069352 -0.057654165 0.72847694
-0.015842596 -0.057777632 0.72856271
-0.016629821 -0.057903357 0.72865009
-0.01743049 -0.058031291 0.72873902
-0.018244032 -0.058161411 0.7288295
-0.019069796 -0.058293756 0.72892153
-0.019906946 -0.058428489 0.72901535
-0.020754265 -0.058566011 0.72911137
-0.021807471 -0.058740325 0.72923368
-0.022862382 -0.058923159 0.7293635
-0.023910027 -0.059123855 0.72950935
-0.024928458 -0.059365809 0.72969264
-0.025850827 -0.059721444 0.72997957
-0.026357342 -0.06061263 0.73075378
-0.02628696 -0.061094787 0.73118317
0.00389414 -0.054626718 0.7263732
0.0039875736 -0.054611802 0.72636282
0.0040877131 -0.054595817 0.72635174
0.0041950396 -0.054578684 0.72633982
0.0043100696 -0.054560319 0.72632706
0.0044333558 -0.054540638 0.72631341
0.0045654904 -0.054519542 0.72629875
0.0047071064 -0.054496933 0.72628301
0.0048588812 -0.054472703 0.72626621
0.0050215339 -0.054446738 0.72624815
0.005195824 -0.05441891 0.72622883
0.0053825476 -0.054389104 0.72620809
0.0055825301 -0.054357175 0.72618592
0.0057966174 -0.054322999 0.72616214
0.0060256617 -0.054286432 0.72613674
0.0062705134 -0.054247342 0.72610956
0.0065320027 -0.054205596 0.7260806
0.0068109254 -0.054161068 0.72604966
0.0071080299 -0.054113638 0.7260167
0.0074240044 -0.054063194 0.72598165
0.0077594626 -0.054009639 0.7259444
0.0081149377 -0.053952891 0.725905
0.0084908716 -0.053892873 0.72586328
0.008887616 -0.053829536 0.72581929
0.0093054222 -0.053762835 0.72577292
0.0097444477 -0.053692747 0.72572422
0.010204758 -0.053619262 0.72567314
0.010686328 -0.053542379 0.72561973
0.011189048 -0.053462122 0.72556394
0.011712737 -0.053378519 0.72550589
0.012257142 -0.053291608 0.72544545
0.012821946 -0.053201441 0.7253828
0.013406788 -0.05310807 0.72531796
0.014011255 -0.05301157 0.7252509
0.014634902 -0.052912008 0.7251817
0.01527725 -0.052809462 0.72511041
0.015937803 -0.052704006 0.72503716
0.016616046 -0.052595731 0.72496194
0.017311454 -0.052484713 0.72488475
0.018023493 -0.05237104 0.72480577
0.018751631 -0.052254796 0.72472501
0.019495336 -0.052136071 0.72464252
0.020254076 -0.052014951 0.72455835
0.02102733 -0.051891528 0.72447258
0.021814579 -0.051765896 0.72438532
0.022615302 -0.051638175 0.72429657
0.023428965 -0.05150852 0.72420651
0.024254987 -0.051377166 0.72411537
0.025092676 -0.05124452 0.7240234
0.025941115 -0.051111322 0.72393125
0.026997389 -0.050948866 0.72381955
0.02805947 -0.050793733 0.72371453
0.02912374 -0.050657272 0.72362608
0.030181624 -0.050567754 0.72357905
0.031207578 -0.050612349 0.72364986
0.032116897 -0.051277503 0.72426701
0.032291777 -0.051742978 0.72468477
0.0078929523 -0.070077129 0.74018532
0.0079863863 -0.070062213 0.74017495
0.0080865258 -0.070046224 0.7401638
0.0081938524 -0.070029095 0.74015194
0.0083088828 -0.070010729 0.74013919
0.0084321685 -0.069991045 0.74012548
0.0085643027 -0.069969952 0.74011081
0.0087059196 -0.06994734 0.74009514
0.0088576945 -0.06992311 0.74007827
0.0090203462 -0.069897145 0.74006021
0.0091946367 -0.069869317 0.7400409
0.0093813604 -0.069839515 0.74002022
0.0095813423 -0.069807582 0.73999798
0.0097954301 -0.069773406 0.73997426
0.010024474 -0.069736838 0.73994887
0.010269326 -0.069697753 0.73992169
0.010530815 -0.069656007 0.73989266
0.010809738 -0.069611475 0.73986173
0.011106842 -0.069564044 0.73982877
0.011422818 -0.069513604 0.73979372
0.011758275 -0.069460049 0.73975652
0.01211375 -0.069403298 0.73971707
0.012489685 -0.069343284 0.73967534
0.012886428 -0.069279946 0.73963135
0.013304234 -0.069213241 0.73958498
0.013743261 -0.069143154 0.73953629
0.014203571 -0.069069669 0.73948526
0.01468514 -0.068992786 0.7394318
0.015187861 -0.068912528 0.73937607
0.01571155 -0.068828925 0.73931795
0.016255954 -0.068742014 0.73925757
0.016820759 -0.068651848 0.73919493
0.017405601 -0.068558484 0.73913002
0.018010067 -0.068461977 0.73906296
0.018633714 -0.068362415 0.73899376
0.019276062 -0.068259872 0.73892254
0.019936616 -0.068154417 0.73884928
0.020614859 -0.068046138 0.738774
0.021310266 -0.067935117 0.73869687
0.022022305 -0.067821443 0.7386179
0.022750441 -0.067705199 0.73853707
0.023494145 -0.067586467 0.73845458
0.02425288 -0.067465328 0.73837042
0.025026124 -0.067341864 0.73828465
0.025813349 -0.067216136 0.73819727
0.026614018 -0.067088202 0.73810834
0.02742756 -0.066958085 0.73801786
0.028253324 -0.06682574 0.73792583
0.029090473 -0.066691004 0.73783195
0.029937793 -0.066553481 0.73773599
0.030990999 -0.066379167 0.73761368
0.032045908 -0.066196337 0.73748386
0.033093553 -0.065995641 0.73733801
0.034111984 -0.065753683 0.73715472
0.035034355 -0.065398052 0.73686773
0.035540868 -0.064506866 0.73609358
0.035470486 -0.064024709 0.73566419
0.0052815769 -0.070407756 0.74038595
0.0051892186 -0.0704225 0.7403962
0.0050902311 -0.070438303 0.74040717
0.004984139 -0.070455238 0.74041897
0.0048704324 -0.070473395 0.74043155
0.0047485651 -0.070492849 0.74044508
0.0046179509 -0.070513703 0.74045956
0.0044779638 -0.070536047 0.74047512
0.0043279352 -0.070560001 0.74049175
0.004167154 -0.070585668 0.74050957
0.0039948691 -0.070613176 0.7405287
0.0038102937 -0.070642643 0.74054915
0.0036126121 -0.070674196 0.74057108
0.0034009884 -0.070707984 0.74059457
0.003174579 -0.070744127 0.74061972
0.0029325441 -0.070782766 0.74064654
0.0026740637 -0.070824035 0.74067521
0.0023983496 -0.070868053 0.74070579
0.0021046638 -0.070914939 0.74073839
0.0017923247 -0.070964798 0.74077302
0.0014607261 -0.071017735 0.7408098
0.0011093408 -0.07107383 0.74084878
0.00073773152 -0.071133159 0.74089003
0.00034555249 -0.071195766 0.74093354
-6.7446686e-05 -0.071261704 0.74097931
-0.00050142145 -0.071330987 0.74102747
-0.00095643534 -0.071403623 0.74107796
-0.0014324641 -0.071479619 0.74113077
-0.0019294017 -0.071558952 0.7411859
-0.0024470652 -0.071641594 0.7412433
-0.0029852053 -0.071727507 0.74130303
-0.0035435127 -0.071816638 0.74136496
-0.0041216249 -0.071908928 0.74142909
-0.0047191367 -0.072004318 0.74149537
-0.005335608 -0.07210274 0.74156374
-0.0059705675 -0.072204106 0.74163419
-0.006623521 -0.072308347 0.74170661
-0.0072939605 -0.072415382 0.741781
-0.0079813665 -0.072525121 0.74185729
-0.0086852144 -0.072637483 0.74193537
-0.0094049741 -0.072752386 0.74201518
-0.01014012 -0.072869748 0.74209672
-0.010890131 -0.072989479 0.74217993
-0.011654491 -0.073111482 0.74226469
-0.012432683 -0.073235668 0.742351
-0.013224193 -0.073361918 0.74243867
-0.014028493 -0.073490083 0.74252772
-0.014845012 -0.073619924 0.74261785
-0.015673066 -0.07375104 0.74270874
-0.016511738 -0.073882706 0.74279982
-0.017555865 -0.074043296 0.74291021
-0.018605724 -0.074196644 0.74301404
-0.01965775 -0.074331537 0.74310148
-0.020703461 -0.07442002 0.74314797
-0.02171761 -0.074375942 0.74307793
-0.02261647 -0.073718436 0.74246794
-0.022789339 -0.073258318 0.74205494
0.0013287717 -0.055135109 0.72673279
0.0012364133 -0.055149853 0.72674304
0.001137426 -0.055165656 0.72675401
0.001031334 -0.055182595 0.72676575
0.00091762736 -0.055200748 0.72677839
0.00079575973 -0.055220202 0.72679192
0.00066514569 -0.055241056 0.7268064
0.00052515854 -0.055263404 0.7268219
0.00037512981 -0.055287354 0.72683859
0.00021434881 -0.055313021 0.72685641
4.206389e-05 -0.055340525 0.72687548
-0.0001425114 -0.055369992 0.72689599
-0.00034019302 -0.055401552 0.72691792
-0.00055181672 -0.055435337 0.72694141
-0.00077822618 -0.05547148 0.7269665
-0.001020261 -0.055510122 0.72699338
-0.0012787415 -0.055551387 0.72702205
-0.0015544555 -0.055595402 0.72705263
-0.0018481414 -0.055642288 0.72708517
-0.0021604805 -0.055692151 0.72711986
-0.002492079 -0.055745091 0.72715664
-0.0028434643 -0.055801187 0.72719562
-0.0032150736 -0.055860512 0.72723687
-0.0036072526 -0.055923123 0.72728032
-0.0040202518 -0.055989053 0.72732615
-0.0044542267 -0.056058336 0.72737432
-0.0049092406 -0.056130979 0.7274248
-0.0053852694 -0.056206971 0.72747761
-0.0058822068 -0.056286305 0.72753274
-0.0063998704 -0.056368951 0.72759014
-0.0069380105 -0.05645486 0.72764987
-0.0074963178 -0.056543991 0.7277118
-0.0080744298 -0.056636285 0.72777593
-0.0086719422 -0.056731675 0.72784221
-0.0092884135 -0.05683009 0.72791058
-0.0099233724 -0.056931458 0.72798103
-0.010576326 -0.057035699 0.72805345
-0.011246765 -0.057142735 0.72812784
-0.011934171 -0.057252474 0.72820407
-0.012638019 -0.05736484 0.72828215
-0.013357778 -0.057479747 0.72836202
-0.014092922 -0.057597116 0.72844356
-0.014842928 -0.057716858 0.72852677
-0.015607277 -0.057838906 0.72861159
-0.016385445 -0.057963185 0.72869796
-0.017176902 -0.058089644 0.72878587
-0.017981082 -0.058218267 0.72887528
-0.018797347 -0.058349092 0.7289663
-0.019624865 -0.058482274 0.72905904
-0.020462435 -0.058618214 0.72915393
-0.021503525 -0.058790524 0.72927481
-0.022546297 -0.058971252 0.72940314
-0.02358189 -0.059169639 0.72954732
-0.024588604 -0.05940881 0.72972852
-0.025500357 -0.059760351 0.73001218
-0.026001047 -0.060641285 0.73077744
-0.025931474 -0.061117895 0.73120189
0.0039023818 -0.054724246 0.72644728
0.0039947401 -0.054709502 0.72643703
0.0040937276 -0.054693699 0.72642606
0.0041998196 -0.05467676 0.72641426
0.0043135262 -0.054658607 0.72640169
0.004435394 -0.054639153 0.72638816
0.0045660078 -0.054618299 0.72637367
0.0047059949 -0.054595951 0.72635812
0.0048560235 -0.054572001 0.72634149
0.0050168047 -0.054546334 0.72632366
0.0051890896 -0.05451883 0.72630453
0.0053736651 -0.054489363 0.72628403
0.0055713467 -0.054457802 0.72626215
0.0057829702 -0.054424018 0.72623867
0.0060093799 -0.054387875 0.72621351
0.0062514143 -0.054349232 0.72618669
0.006509895 -0.054307967 0.72615802
0.0067856088 -0.054263953 0.72612745
0.0070792949 -0.054217067 0.72609484
0.0073916339 -0.054167204 0.72606021
0.0077232327 -0.054114264 0.72602344
0.0080746179 -0.054058168 0.72598445
0.0084462268 -0.053998843 0.72594321
0.0088384058 -0.053936232 0.7258997
0.0092514055 -0.053870298 0.72585386
0.0096853804 -0.053801019 0.72580576
0.010140394 -0.053728376 0.72575527
0.010616423 -0.05365238 0.72570246
0.011113361 -0.053573046 0.72564733
0.011631024 -0.053490404 0.72558993
0.012169164 -0.053404495 0.72553021
0.012727471 -0.053315364 0.72546828
0.013305583 -0.05322307 0.72540414
0.013903095 -0.05312768 0.72533786
0.014519567 -0.053029265 0.72526944
0.015154526 -0.052927896 0.72519904
0.01580748 -0.052823655 0.72512656
0.01647792 -0.052716624 0.72505224
0.017165326 -0.052606881 0.72497594
0.017869173 -0.052494515 0.72489786
0.018588932 -0.052379612 0.72481805
0.019324079 -0.052262254 0.72473651
0.02007409 -0.052142527 0.7246533
0.020838449 -0.052020524 0.72456855
0.021616643 -0.051896337 0.72448224
0.022408152 -0.051770084 0.7243945
0.023212453 -0.051641922 0.72430551
0.02402897 -0.051512077 0.72421539
0.024857024 -0.051380958 0.72412449
0.025695698 -0.051249295 0.72403342
0.026739823 -0.051088706 0.72392297
0.027789682 -0.050935358 0.72381914
0.028841708 -0.050800469 0.72373176
0.029887419 -0.050711978 0.72368526
0.030901568 -0.05075606 0.72375524
0.03180043 -0.051413562 0.72436529
0.031973295 -0.051873684 0.72477829
0.0078551872 -0.069996893 0.74010044
0.0079475455 -0.069982149 0.74009019
0.008046533 -0.069966346 0.74007922
0.0081526246 -0.069949411 0.74006748
0.0082663316 -0.069931254 0.74005485
0.0083881989 -0.0699118 0.74004132
0.0085188132 -0.069890946 0.74002683
0.0086588003 -0.069868602 0.74001133
0.0088088289 -0.069844648 0.73999465
0.0089696096 -0.069818981 0.73997682
0.009141895 -0.069791473 0.73995769
0.0093264701 -0.069762006 0.73993725
0.0095241517 -0.069730453 0.73991531
0.0097357752 -0.069696665 0.73989183
0.0099621853 -0.069660522 0.73986673
0.010204219 -0.069621883 0.73983985
0.0104627 -0.069580615 0.73981118
0.010738414 -0.069536597 0.7397806
0.0110321 -0.069489717 0.739748
0.011344439 -0.069439851 0.73971337
0.011676038 -0.069386914 0.73967659
0.012027423 -0.069330819 0.73963761
0.012399033 -0.06927149 0.73959637
0.012791212 -0.069208883 0.73955286
0.01320421 -0.069142945 0.73950708
0.013638185 -0.069073662 0.73945892
0.014093199 -0.069001026 0.73940843
0.014569228 -0.068925031 0.73935562
0.015066165 -0.068845697 0.73930049
0.015583829 -0.068763055 0.73924309
0.016121969 -0.068677142 0.73918337
0.016680276 -0.068588011 0.73912144
0.017258389 -0.068495721 0.7390573
0.017855901 -0.068400331 0.73899102
0.018472372 -0.068301909 0.73892266
0.019107331 -0.068200544 0.7388522
0.019760285 -0.068096302 0.73877978
0.020430723 -0.067989267 0.7387054
0.021118131 -0.067879528 0.73862916
0.021821978 -0.067767158 0.73855108
0.022541737 -0.067652255 0.73847121
0.02327688 -0.067534886 0.73838967
0.024026887 -0.067415141 0.73830646
0.024791235 -0.0672931 0.73822165
0.025569405 -0.067168817 0.73813528
0.02636086 -0.067042358 0.73804736
0.027165042 -0.066913731 0.73795795
0.027981305 -0.066782914 0.73786694
0.028808825 -0.066649728 0.73777419
0.029646393 -0.066513784 0.7376793
0.030687485 -0.066341482 0.73755842
0.031730257 -0.066160753 0.7374301
0.03276585 -0.065962367 0.73728591
0.033772562 -0.065723196 0.73710471
0.034684315 -0.065371647 0.73682106
0.035185006 -0.064490721 0.73605579
0.035115432 -0.064014107 0.73563135
0.0052737193 -0.070321448 0.74029917
0.0051824362 -0.070336021 0.7403093
0.0050846017 -0.070351638 0.74032015
0.004979745 -0.070368379 0.74033177
0.0048673623 -0.07038632 0.74034423
0.0047469139 -0.07040555 0.74035758
0.004617821 -0.070426159 0.74037188
0.0044794637 -0.070448242 0.74038726
0.0043311822 -0.07047192 0.74040371
0.0041722734 -0.070497282 0.74042135
0.0040019946 -0.070524469 0.74044025
0.0038195688 -0.070553593 0.74046046
0.0036241892 -0.070584781 0.74048215
0.0034150297 -0.070618175 0.74050534
0.0031912569 -0.070653901 0.74053019
0.0029520404 -0.070692092 0.74055672
0.00269657 -0.070732877 0.74058503
0.0024240667 -0.070776381 0.74061525
0.0021338009 -0.070822716 0.74064749
0.0018250985 -0.070872001 0.74068171
0.0014973616 -0.070924319 0.74071807
0.0011500682 -0.070979767 0.74075663
0.00078278629 -0.071038403 0.74079734
0.00039517376 -0.07110028 0.74084038
-1.3016234e-05 -0.07116545 0.74088562
-0.00044193724 -0.071233921 0.74093324
-0.00089165237 -0.071305715 0.74098307
-0.0013621378 -0.071380824 0.74103528
-0.0018532885 -0.071459234 0.74108976
-0.0023649237 -0.071540914 0.7411465
-0.0028967978 -0.071625829 0.74120551
-0.0034486034 -0.071713924 0.74126673
-0.004019984 -0.071805142 0.74133015
-0.0046105385 -0.071899422 0.74139565
-0.0052198302 -0.071996689 0.74146324
-0.0058473954 -0.072096877 0.74153286
-0.0064927451 -0.072199903 0.74160445
-0.0071553788 -0.072305687 0.74167794
-0.00783478 -0.072414152 0.74175334
-0.0085304314 -0.072525211 0.74183047
-0.0092418101 -0.072638772 0.74190938
-0.0099683953 -0.072754771 0.74199003
-0.010709672 -0.072873101 0.74207222
-0.011465131 -0.072993681 0.74215603
-0.01223426 -0.073116422 0.74224132
-0.013016555 -0.073241204 0.74232799
-0.013811489 -0.073367879 0.74241596
-0.014618497 -0.073496208 0.74250507
-0.01543691 -0.073625796 0.7425949
-0.016265819 -0.073755927 0.7426849
-0.017297782 -0.073914647 0.74279404
-0.018335419 -0.074066214 0.74289668
-0.019375192 -0.074199528 0.74298304
-0.020408727 -0.07428699 0.743029
-0.021411067 -0.074243419 0.7429598
-0.022299459 -0.073593572 0.7423569
-0.022470316 -0.073138811 0.74194872
0.0013669436 -0.055226646 0.72680497
0.0012756606 -0.055241216 0.7268151
0.001177826 -0.055256836 0.72682595
0.0010729695 -0.055273578 0.72683758
0.00096058694 -0.055291519 0.72685003
0.00084013841 -0.055310745 0.72686338
0.00071104523 -0.055331357 0.72687769
0.00057268835 -0.055353444 0.72689307
0.00042440667 -0.055377115 0.72690952
0.00026549798 -0.055402484 0.72692716
9.5219286e-05 -0.055429671 0.72694606
-8.7206703e-05 -0.055458792 0.72696626
-0.00028258632 -0.055489983 0.72698796
-0.00049174583 -0.055523377 0.72701114
-0.00071551866 -0.055559099 0.727036
-0.00095473498 -0.05559729 0.72706252
-0.0012102055 -0.055638075 0.72709084
-0.0014827088 -0.055681579 0.72712106
-0.0017729747 -0.055727918 0.7271533
-0.0020816771 -0.0557772 0.72718751
-0.0024094139 -0.055829521 0.72722387
-0.0027567071 -0.055884965 0.72726244
-0.0031239891 -0.055943601 0.72730315
-0.0035116018 -0.056005482 0.72734618
-0.0039197919 -0.056070644 0.72739142
-0.004348713 -0.056139123 0.72743905
-0.0047984277 -0.056210916 0.72748893
-0.0052689132 -0.056286026 0.72754109
-0.0057600639 -0.056364436 0.72759557
-0.0062716994 -0.056446116 0.72765237
-0.0068035736 -0.056531027 0.72771132
-0.0073553789 -0.056619123 0.72777253
-0.0079267593 -0.05671034 0.72783595
-0.0085173137 -0.05680462 0.72790146
-0.0091266055 -0.056901887 0.72796905
-0.0097541707 -0.057002075 0.72803867
-0.01039952 -0.057105102 0.72811025
-0.011062154 -0.057210889 0.72818375
-0.011741555 -0.057319354 0.72825915
-0.012437206 -0.057430413 0.72833633
-0.013148584 -0.057543982 0.72841525
-0.013875168 -0.05765998 0.72849584
-0.01461644 -0.057778329 0.72857809
-0.015371888 -0.057898954 0.72866189
-0.016140994 -0.058021788 0.72874725
-0.016923234 -0.058146775 0.72883415
-0.017718051 -0.0582739 0.72892249
-0.018524809 -0.058403201 0.72901243
-0.019342693 -0.058534835 0.7291041
-0.020170508 -0.058669191 0.72919792
-0.021199474 -0.058839489 0.72931743
-0.022230105 -0.059018116 0.72944421
-0.023253636 -0.059214193 0.72958672
-0.024248628 -0.059450578 0.72976577
-0.025149766 -0.059798028 0.73004615
-0.025644623 -0.060668703 0.73080254
-0.025575861 -0.061139762 0.73122203
0.0039105844 -0.054820564 0.7265228
0.0040018675 -0.05480599 0.72651267
0.004099702 -0.054790374 0.72650182
0.0042045587 -0.054773632 0.72649014
0.0043169409 -0.054755691 0.72647768
0.0044373893 -0.054736461 0.72646433
0.0045664827 -0.054715853 0.72645003
0.0047048395 -0.054693766 0.72643465
0.0048531215 -0.054670092 0.7264182
0.0050120298 -0.054644726 0.72640061
0.0051823086 -0.054617539 0.72638172
0.0053647347 -0.054588418 0.72636145
0.005560114 -0.054557227 0.72633982
0.0057692737 -0.054523833 0.72631657
0.0059930468 -0.054488111 0.72629178
0.0062322631 -0.05444992 0.72626525
0.0064877332 -0.054409135 0.72623688
0.0067602368 -0.054365631 0.72620666
0.0070505026 -0.054319292 0.72617447
0.0073592048 -0.05427001 0.7261402
0.0076869419 -0.054217689 0.72610384
0.0080342349 -0.054162245 0.72606534
0.0084015168 -0.054103609 0.72602457
0.0087891296 -0.054041728 0.72598159
0.0091973199 -0.053976562 0.72593629
0.0096262405 -0.053908087 0.72588873
0.010075956 -0.053836294 0.72583884
0.010546441 -0.053761184 0.72578663
0.011037592 -0.053682774 0.72573215
0.011549227 -0.053601094 0.7256754
0.012081102 -0.053516183 0.7256164
0.012632906 -0.053428087 0.72555518
0.013204288 -0.05333687 0.72549182
0.013794842 -0.05324259 0.72542626
0.014404134 -0.053145323 0.72535866
0.015031699 -0.053045135 0.72528905
0.015677048 -0.052942105 0.72521746
0.016339682 -0.052836321 0.72514397
0.017019084 -0.052727859 0.72506863
0.017714735 -0.052616801 0.72499144
0.018426113 -0.052503236 0.72491252
0.019152699 -0.052387241 0.72483194
0.019893976 -0.052268911 0.72474968
0.020649435 -0.052148327 0.72466588
0.021418564 -0.052025586 0.72458065
0.022200858 -0.051900808 0.72449392
0.022995792 -0.051774133 0.72440594
0.023802802 -0.051645804 0.7243169
0.024621213 -0.051516213 0.72422701
0.025450122 -0.051386081 0.72413701
0.026482087 -0.051227361 0.72402787
0.027519722 -0.051075798 0.72392529
0.028559495 -0.050942481 0.72383887
0.02959303 -0.050855022 0.72379291
0.030595371 -0.050898589 0.72386211
0.031483762 -0.051548436 0.72446507
0.031654619 -0.052003197 0.72487319
0.0078173596 -0.069915362 0.740017
0.0079086432 -0.069900796 0.74000686
0.0080064777 -0.069885172 0.73999602
0.0081113344 -0.06986843 0.73998433
0.0082237162 -0.069850489 0.73997188
0.008344165 -0.069831267 0.73995852
0.0084732585 -0.069810651 0.73994422
0.0086116148 -0.069788568 0.73992884
0.0087598972 -0.069764897 0.73991239
0.008918805 -0.069739528 0.73989481
0.0090890843 -0.069712341 0.73987591
0.0092715099 -0.069683217 0.73985565
0.0094668893 -0.069652028 0.73983401
0.0096760495 -0.069618635 0.73981076
0.0098998221 -0.069582909 0.73978597
0.010139039 -0.069544718 0.73975945
0.010394509 -0.069503933 0.73973107
0.010667012 -0.069460429 0.73970085
0.010957278 -0.069414094 0.73966867
0.01126598 -0.069364808 0.73963439
0.011593717 -0.069312491 0.73959804
0.011941011 -0.069257043 0.73955953
0.012308293 -0.069198407 0.73951876
0.012695905 -0.06913653 0.73947579
0.013104095 -0.069071367 0.73943049
0.013533016 -0.069002889 0.73938292
0.013982731 -0.068931095 0.73933303
0.014453216 -0.068855986 0.73928082
0.014944367 -0.068777576 0.73922634
0.015456003 -0.068695895 0.7391696
0.015987877 -0.068610981 0.73911059
0.016539682 -0.068522885 0.73904938
0.017111063 -0.068431668 0.73898602
0.017701617 -0.068337388 0.73892045
0.018310908 -0.068240121 0.73885286
0.018938474 -0.068139933 0.73878324
0.019583825 -0.068036906 0.73871166
0.020246457 -0.067931123 0.73863816
0.020925859 -0.067822658 0.73856282
0.021621509 -0.067711599 0.73848563
0.022332888 -0.06759803 0.73840672
0.023059471 -0.067482032 0.73832607
0.023800744 -0.067363679 0.73824388
0.024556192 -0.067243055 0.73816001
0.025325296 -0.067120224 0.73807466
0.026107537 -0.066995233 0.73798782
0.026902355 -0.066868111 0.73789942
0.027709112 -0.066738807 0.73780948
0.028526995 -0.066607177 0.73771781
0.029354811 -0.066472821 0.73762405
0.030383777 -0.066302523 0.73750454
0.031414408 -0.066123895 0.7373777
0.032437939 -0.065927818 0.73723519
0.033432931 -0.065691434 0.73705614
0.034334071 -0.065343983 0.73677576
0.034828927 -0.064473309 0.73601943
0.034760166 -0.064002246 0.73559994
0.0052658222 -0.070234075 0.74021345
0.0051756152 -0.07024847 0.74022347
0.0050789337 -0.070263907 0.7402342
0.0049753133 -0.070280448 0.7402457
0.0048642554 -0.07029818 0.74025798
0.0047452268 -0.070317179 0.74027121
0.0046176556 -0.070337549 0.74028534
0.0044809296 -0.070359379 0.74030054
0.0043343962 -0.070382766 0.74031675
0.0041773603 -0.070407838 0.74033421
0.004009089 -0.070434704 0.74035287
0.0038288138 -0.070463486 0.74037284
0.0036357371 -0.070494309 0.74039429
0.0034290433 -0.070527308 0.74041718
0.0032079085 -0.070562609 0.74044174
0.002971512 -0.070600346 0.74046797
0.0027190528 -0.070640653 0.74049598
0.0024497621 -0.070683643 0.74052584
0.0021629175 -0.070729434 0.74055767
0.0018578548 -0.070778139 0.74059153
0.0015339808 -0.070829839 0.74062741
0.0011907818 -0.07088463 0.7406655
0.00082782953 -0.070942573 0.74070579
0.00044478619 -0.071003728 0.74074829
4.1408126e-05 -0.071068123 0.74079299
-0.00038245687 -0.071135789 0.74084002
-0.0008268705 -0.071206741 0.74088931
-0.0012918104 -0.071280964 0.74094093
-0.0017771705 -0.07135845 0.74099475
-0.0022827748 -0.071439169 0.74105084
-0.0028083792 -0.071523078 0.74110913
-0.0033536793 -0.07161013 0.74116963
-0.0039183241 -0.071700275 0.74123228
-0.0045019174 -0.071793444 0.74129701
-0.0051040272 -0.071889564 0.74136382
-0.0057241935 -0.071988575 0.74143261
-0.0063619367 -0.072090387 0.74150336
-0.007016758 -0.072194926 0.74157602
-0.0076881507 -0.07230211 0.74165046
-0.0083756009 -0.072411858 0.74172676
-0.0090785939 -0.072524086 0.74180472
-0.0097966138 -0.072638713 0.74188435
-0.010529154 -0.07275565 0.74196565
-0.011275707 -0.072874807 0.74204844
-0.012035768 -0.072996102 0.74213272
-0.01280884 -0.073119409 0.74221838
-0.013594403 -0.073244594 0.74230534
-0.014391901 -0.07337141 0.74239331
-0.015200663 -0.073499471 0.74248213
-0.016019801 -0.073628068 0.74257106
-0.017039603 -0.073784918 0.74267894
-0.018065004 -0.073934697 0.74278033
-0.019092521 -0.074066445 0.74286568
-0.020113872 -0.074152872 0.7429111
-0.021104397 -0.074109815 0.74284273
-0.021982318 -0.073467627 0.74224693
-0.022151157 -0.07301823 0.74184358
0.0014051009 -0.055317216 0.72687835
0.0013148939 -0.055331614 0.72688836
0.0012182127 -0.055347051 0.72689909
0.0011145921 -0.055363592 0.72691053
0.0010035345 -0.05538132 0.72692287
0.00088450575 -0.055400323 0.7269361
0.0007569344 -0.055420689 0.72695023
0.00062020845 -0.055442519 0.72696537
0.00047367494 -0.055465911 0.72698164
0.00031663926 -0.055490982 0.72699904
0.00014836792 -0.055517845 0.72701776
-3.1907395e-05 -0.055546626 0.72703773
-0.0002249839 -0.05557745 0.72705919
-0.00043167776 -0.055610448 0.72708207
-0.00065281265 -0.055645749 0.72710663
-0.00088920916 -0.05568349 0.72713286
-0.0011416682 -0.055723794 0.72716087
-0.0014109591 -0.055766784 0.72719073
-0.0016978035 -0.055812579 0.72722256
-0.0020028662 -0.055861279 0.72725636
-0.0023267404 -0.055912983 0.7272923
-0.0026699393 -0.055967774 0.72733039
-0.0030328915 -0.056025717 0.72737068
-0.003415935 -0.056086868 0.72741312
-0.0038193129 -0.056151267 0.72745788
-0.0042431778 -0.056218933 0.72750491
-0.0046875915 -0.056289881 0.7275542
-0.0051525314 -0.056364108 0.72760582
-0.0056378916 -0.056441594 0.72765964
-0.0061434959 -0.05652231 0.72771573
-0.0066691004 -0.056606222 0.72777402
-0.0072144005 -0.056693275 0.72783452
-0.007779045 -0.056783419 0.72789717
-0.0083626388 -0.056876585 0.7279619
-0.0089647481 -0.056972709 0.72802871
-0.0095849149 -0.057071716 0.7280975
-0.010222658 -0.057173528 0.72816825
-0.010877479 -0.057278067 0.72824091
-0.011548872 -0.057385251 0.72831535
-0.012236322 -0.057495002 0.72839165
-0.012939314 -0.057607234 0.72846961
-0.013657331 -0.057721864 0.72854924
-0.014389868 -0.05783882 0.72863054
-0.01513641 -0.057958022 0.72871339
-0.015896449 -0.058079407 0.72879773
-0.016669467 -0.058202922 0.72888356
-0.017454913 -0.058328547 0.72897094
-0.018252164 -0.058456324 0.72905982
-0.019060403 -0.058586404 0.72915041
-0.019878462 -0.058719177 0.7292431
-0.020895299 -0.058887471 0.72936118
-0.02191378 -0.05906399 0.72948647
-0.022925247 -0.059257753 0.72962731
-0.023908507 -0.059491355 0.72980428
-0.024799023 -0.059834708 0.73008132
-0.025288047 -0.060695119 0.73082876
-0.025220094 -0.061160628 0.73124331
0.0039187563 -0.05491592 0.72659945
0.0040089632 -0.054901522 0.72658944
0.0041056448 -0.054886084 0.72657877
0.0042092651 -0.054869544 0.72656727
0.004320323 -0.054851811 0.72655493
0.0044393516 -0.054832812 0.7265417
0.0045669228 -0.054812446 0.72652757
0.0047036489 -0.054790616 0.72651243
0.0048501822 -0.054767225 0.72649616
0.0050072181 -0.054742154 0.72647876
0.0051754895 -0.054715291 0.72646004
0.0053557646 -0.054686509 0.72644007
0.0055488413 -0.054655686 0.72641867
0.0057555349 -0.054622687 0.72639573
0.00597667 -0.054587387 0.72637117
0.0062130666 -0.054549646 0.72634494
0.0064655254 -0.054509342 0.72631693
0.0067348164 -0.054466352 0.72628707
0.0070216609 -0.054420557 0.72625524
0.0073267235 -0.054371856 0.72622144
0.0076505975 -0.054320149 0.7261855
0.0079937968 -0.054265361 0.72614741
0.0083567491 -0.054207418 0.72610718
0.0087397918 -0.054146267 0.72606468
0.00914317 -0.054081868 0.72601992
0.0095670354 -0.054014202 0.72597289
0.010011449 -0.053943254 0.7259236
0.010476389 -0.053869028 0.72587204
0.010961749 -0.053791542 0.72581816
0.011467353 -0.053710826 0.72576207
0.011992957 -0.053626914 0.72570378
0.012538258 -0.053539861 0.72564328
0.013102902 -0.053449716 0.72558063
0.013686496 -0.053356551 0.7255159
0.014288606 -0.053260427 0.72544909
0.014908772 -0.05316142 0.7253803
0.015546515 -0.053059608 0.72530955
0.016201336 -0.052955069 0.72523689
0.01687273 -0.052847881 0.72516245
0.01756018 -0.052738134 0.72508615
0.018263172 -0.052625906 0.72500819
0.018981192 -0.052511282 0.72492856
0.019713733 -0.052394345 0.72484732
0.020460285 -0.052275185 0.72476447
0.021220347 -0.052153889 0.72468024
0.021993419 -0.052030582 0.72459453
0.022778982 -0.051905401 0.72450763
0.023576479 -0.051778585 0.72441959
0.024385242 -0.05165052 0.72433078
0.025204379 -0.05152192 0.72424185
0.026224181 -0.051365074 0.72413403
0.027249582 -0.051215298 0.72403258
0.028277099 -0.05108355 0.72394723
0.029298451 -0.050997123 0.72390181
0.030288976 -0.051040176 0.72397017
0.031166896 -0.051682364 0.72456598
0.031335738 -0.052131765 0.72496933
0.0077794776 -0.069832779 0.73993462
0.0078696841 -0.069818377 0.73992461
0.0079663657 -0.06980294 0.73991388
0.0080699865 -0.0697864 0.73990238
0.0081810439 -0.069768667 0.73989004
0.0083000725 -0.069749668 0.73987687
0.0084276441 -0.069729298 0.73986268
0.0085643698 -0.069707476 0.73984754
0.0087109031 -0.069684081 0.73983127
0.008867939 -0.06965901 0.73981386
0.0090362104 -0.06963215 0.73979521
0.0092164855 -0.069603369 0.73977518
0.0094095627 -0.069572546 0.73975378
0.0096162558 -0.069539547 0.73973083
0.0098373909 -0.069504246 0.73970628
0.010073788 -0.069466501 0.73968005
0.010326247 -0.069426201 0.7396521
0.010595538 -0.069383211 0.73962218
0.010882382 -0.069337413 0.73959041
0.011187444 -0.069288716 0.73955655
0.011511318 -0.069237009 0.73952061
0.011854517 -0.069182217 0.73948252
0.01221747 -0.069124274 0.73944229
0.012600513 -0.069063127 0.73939979
0.013003891 -0.068998724 0.73935503
0.013427757 -0.068931058 0.739308
0.01387217 -0.068860114 0.73925871
0.01433711 -0.068785883 0.73920715
0.01482247 -0.068708397 0.73915327
0.015328074 -0.068627685 0.73909718
0.015853679 -0.068543769 0.73903888
0.016398979 -0.068456717 0.73897839
0.016963623 -0.068366572 0.73891574
0.017547216 -0.06827341 0.73885101
0.018149327 -0.068177283 0.73878425
0.018769493 -0.068078279 0.73871541
0.019407237 -0.067976467 0.73864466
0.020062057 -0.067871928 0.73857206
0.02073345 -0.067764737 0.73849756
0.0214209 -0.06765499 0.73842132
0.022123892 -0.067542762 0.7383433
0.02284191 -0.067428127 0.73826367
0.023574445 -0.067311175 0.73818237
0.024320988 -0.067191973 0.73809958
0.025081027 -0.067070588 0.73801517
0.025854046 -0.066947073 0.73792934
0.026639491 -0.066821449 0.73784202
0.027436743 -0.066693671 0.73775309
0.028244982 -0.066563584 0.73766255
0.02906304 -0.066430815 0.73756987
0.030079877 -0.066262521 0.73745179
0.031098358 -0.066086002 0.73732644
0.032109823 -0.065892234 0.73718566
0.033093084 -0.065658636 0.73700863
0.033983599 -0.065315284 0.73673159
0.034472626 -0.064454876 0.73598415
0.034404673 -0.063989364 0.7355696
0.0052578929 -0.070145845 0.74012858
0.0051687625 -0.070160069 0.74013847
0.0050732354 -0.07017532 0.74014908
0.0049708514 -0.070191666 0.74016047
0.0048611192 -0.070209183 0.74017262
0.0047435113 -0.070227958 0.74018568
0.0046174624 -0.070248082 0.74019963
0.0044823685 -0.070269652 0.74021465
0.0043375841 -0.070292763 0.74023068
0.004182423 -0.070317537 0.74024791
0.00401616 -0.070344076 0.74026638
0.003838036 -0.070372514 0.74028611
0.0036472643 -0.070402972 0.74030727
0.0034430374 -0.070435576 0.74032992
0.0032245419 -0.07047046 0.74035418
0.0029909671 -0.070507742 0.74038011
0.0027415212 -0.070547566 0.74040776
0.0024754447 -0.070590049 0.74043727
0.0021920239 -0.070635296 0.74046874
0.0018906019 -0.070683412 0.74050218
0.0015705941 -0.070734501 0.74053764
0.0012314909 -0.070788637 0.74057525
0.00087287097 -0.070845887 0.74061507
0.00049439957 -0.070906311 0.74065703
9.5836207e-05 -0.070969939 0.74070126
-0.00032296957 -0.071036801 0.74074769
-0.00076207897 -0.071106903 0.74079645
-0.0012214696 -0.071180239 0.74084741
-0.0017010364 -0.071256801 0.74090058
-0.002200606 -0.071336553 0.74095601
-0.0027199371 -0.071419463 0.74101359
-0.0032587289 -0.07150548 0.74107337
-0.0038166342 -0.071594544 0.7411353
-0.0043932614 -0.071686603 0.74119925
-0.0049881847 -0.071781576 0.74126524
-0.0056009497 -0.071879402 0.74133325
-0.0062310798 -0.07198 0.7414031
-0.0068780859 -0.072083287 0.74147487
-0.0075414646 -0.072189197 0.74154848
-0.0082207099 -0.072297633 0.74162382
-0.0089153117 -0.07240852 0.74170089
-0.0096247634 -0.072521776 0.74177957
-0.010348558 -0.07263732 0.74185985
-0.011086201 -0.072755061 0.74194169
-0.011837192 -0.072874904 0.74202496
-0.012601037 -0.072996743 0.7421096
-0.013377223 -0.07312043 0.74219549
-0.0141652 -0.073245734 0.74228245
-0.014964311 -0.073372267 0.74237019
-0.015773673 -0.073499329 0.74245811
-0.0167813 -0.073654309 0.74256468
-0.017794464 -0.073802292 0.74266487
-0.018809715 -0.073932469 0.74274921
-0.019818876 -0.074017867 0.7427941
-0.020797579 -0.073975325 0.7427265
-0.02166502 -0.073340803 0.74213779
-0.021831846 -0.072896764 0.74173927
0.0014432519 -0.055407025 0.72695267
0.0013541216 -0.055421256 0.72696251
0.0012585942 -0.055436507 0.72697312
0.0011562106 -0.05545285 0.7269845
0.0010464784 -0.05547037 0.72699666
0.00092887046 -0.055489145 0.72700971
0.00080282171 -0.055509269 0.72702372
0.00066772767 -0.055530835 0.72703868
0.00052294298 -0.05555395 0.72705472
0.00036778187 -0.05557872 0.72707194
0.00020151907 -0.055605263 0.72709042
2.3395116e-05 -0.055633698 0.72711015
-0.00016737668 -0.055664156 0.72713131
-0.00037160356 -0.055696759 0.72715396
-0.00059009914 -0.055731639 0.72717822
-0.00082367391 -0.055768929 0.72720414
-0.0010731198 -0.055808753 0.7272318
-0.0013391962 -0.055851232 0.7272613
-0.001622617 -0.055896476 0.72729278
-0.001924039 -0.055944599 0.72732621
-0.0022440469 -0.055995684 0.72736168
-0.0025831501 -0.05604982 0.72739929
-0.00294177 -0.056107074 0.72743911
-0.0033202413 -0.056167495 0.72748107
-0.0037188048 -0.056231122 0.72752529
-0.0041376106 -0.056297984 0.72757173
-0.0045767198 -0.056368086 0.72762048
-0.0050361105 -0.056441426 0.72767144
-0.0055156774 -0.056517985 0.72772461
-0.0060152467 -0.056597739 0.72778004
-0.0065345778 -0.05668065 0.72783768
-0.0070733698 -0.056766663 0.72789741
-0.0076312749 -0.056855731 0.72795933
-0.0082079023 -0.056947786 0.72802329
-0.0088028256 -0.057042763 0.72808927
-0.0094155902 -0.057140589 0.72815728
-0.010045721 -0.057241183 0.72822714
-0.010692726 -0.057344478 0.72829896
-0.011356105 -0.05745038 0.72837251
-0.01203535 -0.05755882 0.72844785
-0.012729951 -0.05766971 0.72852492
-0.013439401 -0.057782978 0.72860366
-0.014163191 -0.057898533 0.72868395
-0.014900824 -0.058016315 0.72876579
-0.015651792 -0.058136251 0.72884917
-0.016415583 -0.058258291 0.72893399
-0.017191656 -0.058382418 0.72902024
-0.017979387 -0.058508668 0.7291081
-0.018777983 -0.058637198 0.72919762
-0.019586276 -0.058768384 0.72928917
-0.020590976 -0.05893467 0.72940582
-0.021597302 -0.059109084 0.72952968
-0.022596695 -0.059300534 0.7296688
-0.023568219 -0.059531346 0.72984368
-0.024448106 -0.059870601 0.73011738
-0.024931295 -0.060720742 0.73085594
-0.024864154 -0.061180696 0.73126554
0.0039269053 -0.055010524 0.72667712
0.0040160352 -0.054996293 0.72666723
0.0041115629 -0.054981042 0.72665662
0.0042139464 -0.054964699 0.72664529
0.0043236786 -0.054947179 0.72663313
0.0044412864 -0.054928403 0.72662008
0.0045673354 -0.054908283 0.72660607
0.0047024293 -0.054886714 0.72659111
0.0048472141 -0.054863602 0.72657502
0.0050023752 -0.054838829 0.72655779
0.0051686377 -0.054812286 0.72653937
0.005346762 -0.054783851 0.72651964
0.0055375337 -0.054753393 0.72649843
0.0057417606 -0.054720789 0.72647578
0.0059602563 -0.054685909 0.72645158
0.0061938311 -0.054648619 0.72642565
0.0064432765 -0.054608796 0.72639799
0.0067093531 -0.05456632 0.72636849
0.0069927741 -0.054521073 0.72633702
0.0072941962 -0.054472953 0.72630358
0.0076142037 -0.054421864 0.72626805
0.0079533067 -0.054367729 0.72623044
0.0083119273 -0.054310475 0.72619069
0.0086903982 -0.054250054 0.72614866
0.0090889614 -0.054186426 0.7261045
0.0095077679 -0.054119565 0.72605801
0.0099468771 -0.054049466 0.72600931
0.010406268 -0.053976126 0.72595835
0.010885835 -0.053899564 0.72590512
0.011385404 -0.053819809 0.72584975
0.011904735 -0.053736903 0.72579211
0.012443527 -0.053650886 0.72573233
0.013001432 -0.053561818 0.72567046
0.013578059 -0.053469762 0.7256065
0.014172982 -0.053374786 0.72554046
0.014785747 -0.053276964 0.72547251
0.015415878 -0.053176366 0.72540259
0.016062884 -0.053073075 0.72533083
0.016726263 -0.052967168 0.72525722
0.017405508 -0.052858733 0.72518188
0.018100109 -0.052747842 0.72510487
0.018809561 -0.052634586 0.72502613
0.019533357 -0.052519046 0.72494584
0.020271 -0.052401304 0.72486407
0.02102199 -0.052281462 0.7247808
0.021785835 -0.052159622 0.72469616
0.022562021 -0.052035939 0.72461021
0.023349999 -0.051910635 0.72452325
0.024149109 -0.051784098 0.72443551
0.024958469 -0.051657032 0.72434765
0.025966097 -0.05150206 0.72424108
0.026979262 -0.051354073 0.72414088
0.027994514 -0.051223896 0.72405654
0.029003674 -0.051138502 0.72401166
0.029982375 -0.051181041 0.72407919
0.030849818 -0.051815562 0.72466791
0.031016644 -0.052259598 0.72506648
0.0077415463 -0.06974934 0.73985308
0.0078306766 -0.06973511 0.73984319
0.0079262033 -0.069719858 0.73983258
0.0080285873 -0.069703512 0.73982126
0.0081383195 -0.069685996 0.73980904
0.0082559278 -0.06966722 0.73979604
0.0083819758 -0.069647096 0.73978204
0.0085170707 -0.069625527 0.73976707
0.008661855 -0.069602415 0.73975098
0.0088170161 -0.069577642 0.73973376
0.0089832786 -0.069551103 0.73971534
0.0091614025 -0.069522664 0.73969555
0.0093521746 -0.069492206 0.73967439
0.0095564015 -0.069459602 0.73965174
0.0097748972 -0.069424726 0.73962754
0.010008472 -0.069387436 0.73960161
0.010257917 -0.069347613 0.73957396
0.010523994 -0.069305137 0.73954439
0.010807415 -0.069259889 0.73951298
0.011108837 -0.069211766 0.73947954
0.011428845 -0.069160677 0.73944402
0.011767948 -0.069106542 0.73940641
0.012126568 -0.069049291 0.73936665
0.01250504 -0.068988867 0.73932463
0.012903603 -0.068925239 0.73928046
0.013322408 -0.068858378 0.73923397
0.013761518 -0.068788283 0.73918527
0.014220908 -0.068714939 0.73913431
0.014700475 -0.068638377 0.73908108
0.015200045 -0.068558626 0.73902565
0.015719377 -0.068475716 0.73896807
0.016258167 -0.068389699 0.73890829
0.016816072 -0.068300635 0.73884642
0.017392701 -0.068208583 0.73878247
0.017987624 -0.068113603 0.73871642
0.018600387 -0.068015777 0.73864847
0.019230518 -0.067915179 0.73857856
0.019877525 -0.067811891 0.73850679
0.020540904 -0.067705981 0.73843318
0.021220148 -0.067597546 0.73835784
0.021914748 -0.067486651 0.73828077
0.022624198 -0.067373388 0.7382021
0.023347989 -0.067257829 0.73812181
0.024085622 -0.06714005 0.73803991
0.024836589 -0.067020118 0.73795658
0.025600381 -0.06689807 0.73787177
0.026376454 -0.066773944 0.73778546
0.027164185 -0.066647694 0.73769766
0.027962781 -0.066519164 0.73760813
0.028771074 -0.066387981 0.73751658
0.029775774 -0.066221699 0.73739988
0.030782098 -0.066047281 0.73727608
0.031781491 -0.065855831 0.7371369
0.032753017 -0.065625019 0.73696208
0.033632904 -0.065285765 0.73668832
0.034116093 -0.064435624 0.73594981
0.034048952 -0.063975669 0.73554021
0.0052499357 -0.070056893 0.74004447
0.0051618828 -0.070070952 0.74005425
0.0050675101 -0.070086017 0.74006468
0.0049663638 -0.070102163 0.74007595
0.0048579583 -0.07011947 0.74008793
0.0047417716 -0.070138022 0.74010086
0.0046172468 -0.0701579 0.74011463
0.0044837855 -0.070179209 0.74012947
0.0043407511 -0.070202045 0.74014533
0.0041874652 -0.070226513 0.74016231
0.004023212 -0.070252739 0.74018055
0.0038472412 -0.070280828 0.74020004
0.0036587752 -0.070310913 0.74022096
0.0034570168 -0.070343122 0.74024338
0.0032411623 -0.070377588 0.74026728
0.0030104108 -0.070414424 0.74029291
0.0027639796 -0.070453763 0.74032027
0.0025011194 -0.070495732 0.74034941
0.0022211242 -0.070540428 0.74038047
0.0019233458 -0.07058797 0.74041349
0.001607206 -0.070638441 0.74044853
0.0012722015 -0.070691921 0.74048573
0.00091791595 -0.070748478 0.74052501
0.00054401968 -0.070808172 0.74056649
0.00015027326 -0.070871033 0.74061018
-0.00026347008 -0.070937082 0.74065608
-0.00069727207 -0.071006335 0.74070418
-0.0011511093 -0.071078792 0.74075454
-0.0016248805 -0.071154423 0.74080712
-0.0021184117 -0.071233213 0.74086183
-0.002631465 -0.071315125 0.74091876
-0.003163744 -0.071400099 0.74097782
-0.0037149061 -0.07148809 0.74103898
-0.0042845644 -0.071579032 0.74110216
-0.0048722965 -0.071672857 0.74116737
-0.0054776543 -0.071769506 0.74123454
-0.0061001685 -0.071868882 0.74130356
-0.0067393533 -0.071970925 0.74137449
-0.0073947147 -0.072075553 0.74144715
-0.0080657499 -0.072182678 0.7415216
-0.0087519558 -0.072292224 0.74159777
-0.0094528319 -0.072404116 0.7416755
-0.010167878 -0.072518259 0.74175483
-0.010896604 -0.072634578 0.74183565
-0.011638518 -0.072752975 0.74191791
-0.012393131 -0.072873339 0.74200153
-0.013159935 -0.072995529 0.74208635
-0.013938389 -0.073119313 0.7421723
-0.014727841 -0.073244326 0.74225897
-0.015527418 -0.073369853 0.74234581
-0.016522866 -0.073522948 0.74245107
-0.017523782 -0.07366915 0.74255008
-0.018526765 -0.073797755 0.7426334
-0.019523729 -0.073882118 0.74267769
-0.0204906 -0.073840089 0.74261099
-0.021347556 -0.073213242 0.74202937
-0.021512367 -0.072774567 0.74163568
0.0014814029 -0.055496231 0.72702777
0.00139335 -0.055510286 0.72703755
0.0012989773 -0.055525351 0.72704798
0.0011978311 -0.0555415 0.72705925
0.0010894254 -0.055558808 0.72707123
0.00097323884 -0.055577356 0.72708416
0.00084871374 -0.055597235 0.72709793
0.00071525259 -0.055618543 0.72711277
0.00057221798 -0.055641375 0.72712862
0.00041893235 -0.055665847 0.72714561
