# .PCD v0.7 - Point Cloud Data file format
VERSION 0.7
FIELDS x y z
SIZE 4 4 4
TYPE F F F
COUNT 1 1 1
WIDTH 1303
HEIGHT 1
VIEWPOINT 0 0 0 1 0 0 0
POINTS 1303
DATA ascii
-0.047053818 -0.0098198475 0.83377826
-0.046986181 -0.0091578476 0.83511829
-0.046981398 -0.0091421604 0.83515769
-0.03420468 -0.018596834 0.84919268
-0.035228297 -0.017398195 0.84885246
-0.036246859 -0.016259264 0.8484183
-0.037263699 -0.015172918 0.84789485
-0.038276751 -0.014140458 0.84728473
-0.039282583 -0.013165835 0.84658927
-0.040276866 -0.01225479 0.84580863
-0.041254289 -0.011414835 0.84494233
-0.042208217 -0.010655561 0.84398931
-0.043130178 -0.0099891536 0.84294844
-0.044009071 -0.009431106 0.84181887
-0.044830073 -0.0090011219 0.84060138
-0.045573022 -0.008724086 0.83930045
-0.046210073 -0.0086306818 0.83792871
-0.046701018 -0.0087559437 0.83652103
-0.046712484 -0.0087631578 0.8364805
-0.032407895 -0.021144001 0.84936887
-0.031471997 -0.022428518 0.84934467
-0.030580327 -0.023709496 0.84922004
-0.029727468 -0.024990948 0.84900087
-0.028914481 -0.026270224 0.84868932
-0.02814446 -0.027543006 0.84828562
-0.027421854 -0.028803905 0.84778857
-0.026752472 -0.03004632 0.84719586
-0.02614372 -0.031262022 0.84650433
-0.025605015 -0.032440487 0.84570992
-0.02514834 -0.033567932 0.84480816
-0.024788978 -0.034625866 0.84379506
-0.024546299 -0.035589054 0.84266877
-0.024444353 -0.036422461 0.84143341
-0.024511022 -0.037075002 0.84011257
-0.024515737 -0.037090465 0.8400737
-0.037109856 -0.02777091 0.82623929
-0.036100872 -0.028952418 0.82657462
-0.035096865 -0.030075073 0.82700258
-0.034094557 -0.031145893 0.82751858
-0.033095982 -0.032163598 0.82811993
-0.032104526 -0.033124294 0.82880551
-0.03112445 -0.03402232 0.829575
-0.030160995 -0.03485027 0.8304289
-0.0292207 -0.035598692 0.83136827
-0.028311918 -0.036255576 0.8323943
-0.027445585 -0.036805648 0.83350772
-0.026636314 -0.037229486 0.8347078
-0.025903983 -0.037502564 0.83599013
-0.025276037 -0.037594631 0.83734226
-0.024792107 -0.03747116 0.83872986
-0.024780804 -0.037464052 0.83876979
-0.039015554 -0.025354572 0.82593435
-0.039951451 -0.024070054 0.82595855
-0.040843122 -0.022789076 0.82608318
-0.041695982 -0.021507625 0.82630235
-0.042508967 -0.020228349 0.8266139
-0.043278988 -0.018955566 0.82701761
-0.044001594 -0.017694667 0.82751465
-0.044670977 -0.016452253 0.82810736
-0.045279726 -0.015236553 0.82879889
-0.045818433 -0.014058085 0.8295933
-0.046275109 -0.012930642 0.83049506
-0.046634469 -0.011872708 0.83150816
-0.046877149 -0.010909517 0.83263445
-0.046979096 -0.010076111 0.83386981
-0.046912428 -0.0094235716 0.83519065
-0.046907712 -0.009408108 0.83522952
-0.034313593 -0.018727662 0.84906393
-0.035322577 -0.017546155 0.8487286
-0.036326583 -0.016423499 0.84830064
-0.037328891 -0.015352679 0.84778464
-0.038327467 -0.014334974 0.84718323
-0.039318923 -0.01337428 0.84649771
-0.040298998 -0.012476255 0.84572822
-0.041262452 -0.011648304 0.84487432
-0.042202748 -0.01089988 0.84393495
-0.043111529 -0.010242997 0.84290892
-0.043977864 -0.0096929241 0.8417955
-0.044787135 -0.0092690857 0.84059542
-0.045519464 -0.008996008 0.83931309
-0.04614741 -0.0089039402 0.83796096
-0.04663134 -0.0090274122 0.83657336
-0.046642642 -0.0090345219 0.83653343
-0.03254291 -0.021238673 0.84923506
-0.031620581 -0.022504568 0.84921122
-0.030741837 -0.023766974 0.84908837
-0.029901342 -0.025029847 0.84887242
-0.029100142 -0.026290577 0.8485654
-0.028341284 -0.027544906 0.84816748
-0.027629154 -0.028787525 0.84767765
-0.026969478 -0.030011926 0.84709358
-0.026369551 -0.031210002 0.84641206
-0.025838656 -0.032371383 0.84562916
-0.025388602 -0.033482481 0.84474051
-0.025034452 -0.034525078 0.84374207
-0.02479529 -0.035474304 0.84263211
-0.024694821 -0.036295626 0.84141469
-0.024760524 -0.036938708 0.84011298
-0.024765171 -0.036953945 0.84007466
-0.037176698 -0.027769506 0.82644081
-0.036182344 -0.028933885 0.82677132
-0.035192896 -0.030040262 0.82719308
-0.034205116 -0.031095559 0.82770157
-0.033221018 -0.032098509 0.82829422
-0.032243937 -0.033045273 0.82896984
-0.03127807 -0.033930279 0.82972819
-0.030328585 -0.03474623 0.83056968
-0.029401921 -0.0354838 0.83149546
-0.028506314 -0.036131162 0.8325066
-0.027652541 -0.036673259 0.83360392
-0.026855005 -0.03709095 0.83478653
-0.026133291 -0.037360072 0.83605027
-0.025514448 -0.037450805 0.83738279
-0.025037535 -0.037329122 0.8387503
-0.025026396 -0.037322115 0.83878964
-0.039054766 -0.0253882 0.82614034
-0.039977096 -0.024122305 0.82616419
-0.04085584 -0.022859899 0.82628703
-0.041696336 -0.021597026 0.82650298
-0.042497534 -0.020336298 0.82681
-0.043256391 -0.019081967 0.82720786
-0.043968521 -0.017839348 0.82769775
-0.044628199 -0.016614947 0.82828182
-0.045228124 -0.015416872 0.82896334
-0.045759019 -0.01425549 0.82974625
-0.046209075 -0.013144393 0.83063489
-0.046563223 -0.012101797 0.83163327
-0.046802387 -0.01115257 0.83274329
-0.046902854 -0.010331246 0.83396071
-0.046837151 -0.0096881669 0.83526242
-0.046832506 -0.0096729295 0.83530074
-0.034420975 -0.018857367 0.84893459
-0.035415333 -0.017692991 0.84860408
-0.036404781 -0.016586611 0.84818232
-0.037392557 -0.015531315 0.84767383
-0.038376655 -0.014528365 0.84708118
-0.039353739 -0.013581598 0.84640557
-0.040319607 -0.012696593 0.84564722
-0.04126909 -0.011880646 0.84480572
-0.042195756 -0.011143073 0.84387994
-0.04309136 -0.010495713 0.8428688
-0.043945134 -0.0099536153 0.84177148
-0.04474267 -0.0095359227 0.84058887
-0.045464385 -0.009266803 0.83932507
-0.046083227 -0.0091760699 0.83799261
-0.046560142 -0.0092977509 0.8366251
-0.046571281 -0.00930476 0.83658576
-0.03267641 -0.021332234 0.84910065
-0.031767651 -0.022579506 0.84907717
-0.030901834 -0.023823339 0.84895617
-0.030073704 -0.025067635 0.84874332
-0.029284291 -0.026309816 0.84844083
-0.028536595 -0.027545694 0.84804881
-0.027834943 -0.028770033 0.84756619
-0.027184969 -0.029976422 0.8469907
-0.02659387 -0.031156871 0.8463192
-0.026070785 -0.032301169 0.8455478
-0.025627352 -0.03339592 0.8446722
-0.02527841 -0.03442318 0.84368849
-0.025042769 -0.03535844 0.8425948
-0.024943776 -0.036167681 0.84139532
-0.025008513 -0.036801301 0.84011275
-0.025013091 -0.036816314 0.84007502
-0.037242033 -0.02776699 0.82664174
-0.036262304 -0.028914239 0.82696736
-0.03528741 -0.030004341 0.82738292
-0.034314167 -0.031044113 0.82788396
-0.033344544 -0.032032307 0.82846791
-0.032381836 -0.032965146 0.82913357
-0.031430177 -0.033837132 0.82988071
-0.030494662 -0.034641076 0.83070987
-0.029581629 -0.035367798 0.831622
-0.028699199 -0.036005635 0.8326183
-0.027857985 -0.036539759 0.83369941
-0.027072182 -0.036951307 0.83486468
-0.026361085 -0.037216466 0.83610988
-0.025751345 -0.037305865 0.83742279
-0.025281448 -0.037185974 0.83877015
-0.025270473 -0.037179068 0.83880889
-0.03909247 -0.025420714 0.82634568
-0.040001232 -0.024173442 0.82636917
-0.040867049 -0.022929609 0.82649016
-0.041695178 -0.021685313 0.82670301
-0.042484593 -0.020443132 0.82700551
-0.043232284 -0.019207254 0.82739753
-0.043933939 -0.017982917 0.82788014
-0.044583913 -0.016776528 0.82845563
-0.045175012 -0.015596077 0.82912713
-0.045698099 -0.01445178 0.82989854
-0.046141531 -0.013357028 0.83077413
-0.046490472 -0.01232977 0.83175784
-0.046726115 -0.011394508 0.83285153
-0.046825107 -0.010585266 0.83405101
-0.046760369 -0.0099516483 0.83533359
-0.046755791 -0.0099366335 0.83537132
-0.034526847 -0.018985959 0.84880459
-0.035506576 -0.017838711 0.84847897
-0.03648147 -0.016748607 0.84806341
-0.037454717 -0.015708838 0.84756237
-0.038424335 -0.01472064 0.84697843
-0.039387047 -0.013787802 0.84631276
-0.040338702 -0.012915816 0.84556562
-0.04127422 -0.012111872 0.84473646
-0.042187251 -0.01138515 0.84382433
-0.043069683 -0.010747313 0.84282804
-0.043910898 -0.010213191 0.84174687
-0.0446967 -0.009801642 0.8405816
-0.045407798 -0.0095364824 0.83933645
-0.046017535 -0.0094470829 0.83802354
-0.046487432 -0.0095669758 0.83667618
-0.046498407 -0.0095738806 0.83663744
-0.032808412 -0.021424688 0.84896559
-0.031913217 -0.022653338 0.84894252
-0.031060329 -0.023878602 0.84882325
-0.030244563 -0.025104318 0.84861362
-0.029466936 -0.026327955 0.84831566
-0.028730405 -0.027545379 0.84792948
-0.028039228 -0.028751438 0.84745407
-0.027398959 -0.029939815 0.84688717
-0.026816685 -0.031102641 0.84622568
-0.02630141 -0.032229852 0.84546584
-0.025864597 -0.03330826 0.8446033
-0.025520865 -0.034320179 0.84363425
-0.025288742 -0.035241481 0.84255695
-0.025191227 -0.036038637 0.84137529
-0.025254998 -0.036662795 0.84011191
-0.025259508 -0.036677588 0.84007472
-0.037305865 -0.02776337 0.82684201
-0.036340766 -0.028893491 0.8271628
-0.035380431 -0.029967317 0.82757211
-0.034421716 -0.030991565 0.82806569
-0.03346657 -0.031965006 0.82864094
-0.032518234 -0.032883916 0.82929665
-0.031580787 -0.033742886 0.83003265
-0.030659236 -0.034534823 0.83084941
-0.029759835 -0.035250697 0.83174795
-0.02889058 -0.035879012 0.83272934
-0.028061926 -0.036405157 0.83379436
-0.027287854 -0.036810562 0.83494222
-0.026587375 -0.037071764 0.83616877
-0.02598674 -0.037159827 0.83746207
-0.025523858 -0.037041724 0.83878934
-0.025513047 -0.037034925 0.83882755
-0.039128676 -0.025452128 0.82655036
-0.040023871 -0.024223477 0.82657349
-0.040876757 -0.022998214 0.82669276
-0.041692525 -0.021772496 0.82690239
-0.04247015 -0.020548861 0.82720035
-0.043206684 -0.019331437 0.82758653
-0.04389786 -0.018125378 0.82806194
-0.044538129 -0.016937001 0.82862884
-0.045120403 -0.015774174 0.82929033
-0.045635678 -0.014646962 0.83005017
-0.046072491 -0.013568556 0.83091271
-0.046416223 -0.012556635 0.83188176
-0.046648346 -0.011635336 0.83295906
-0.046745859 -0.010838177 0.83414066
-0.04668209 -0.01021402 0.8354041
-0.046677582 -0.010199228 0.83544129
-0.034631222 -0.019113444 0.848674
-0.035596322 -0.017983325 0.84835321
-0.036556657 -0.016909497 0.8479439
-0.037515376 -0.015885251 0.84745032
-0.038470518 -0.014911809 0.84687507
-0.039418854 -0.013992898 0.84621936
-0.040356301 -0.013133931 0.84548336
-0.041277852 -0.012341991 0.8446666
-0.042177252 -0.011626118 0.84376806
-0.043046508 -0.010997805 0.84278667
-0.043875162 -0.010471657 0.84172165
-0.044649232 -0.010066253 0.84057379
-0.045349713 -0.0098050516 0.83934724
-0.045950349 -0.0097169876 0.83805394
-0.046413232 -0.0098350896 0.83672667
-0.046424042 -0.009841891 0.83668846
-0.032938924 -0.021516049 0.84882998
-0.0320573 -0.022726076 0.84880722
-0.031217339 -0.02393277 0.84868979
-0.030413937 -0.025139909 0.84848332
-0.029648095 -0.026344998 0.84818983
-0.028922727 -0.027543973 0.84780955
-0.028242026 -0.02873175 0.8473413
-0.027611461 -0.029902115 0.84678304
-0.027038012 -0.031047318 0.84613156
-0.026530545 -0.032157447 0.84538323
-0.026100354 -0.033219509 0.8445338
-0.025761832 -0.034216091 0.84357941
-0.025533227 -0.035123426 0.84251845
-0.025437191 -0.035908502 0.84135473
-0.025499994 -0.036523201 0.84011048
-0.025504436 -0.036537766 0.84007382
-0.037368216 -0.02775866 0.82704169
-0.036417741 -0.02887165 0.82735759
-0.035471961 -0.029929202 0.82776076
-0.034527775 -0.030937925 0.82824683
-0.033587109 -0.031896614 0.82881331
-0.032653145 -0.032801598 0.82945913
-0.031729907 -0.033647545 0.83018398
-0.030822324 -0.034427483 0.83098835
-0.029936556 -0.035132505 0.8318733
-0.029080475 -0.035751294 0.83283979
-0.028264379 -0.036269467 0.83388865
-0.027502041 -0.036668729 0.83501911
-0.026812179 -0.036925968 0.83622712
-0.026220646 -0.0370127 0.83750081
-0.02576478 -0.036896389 0.83880794
-0.025754133 -0.036889691 0.83884555
-0.039163399 -0.025482446 0.82675451
-0.040045023 -0.024272418 0.82677728
-0.040884987 -0.023065725 0.8268947
-0.041688386 -0.021858586 0.82710111
-0.042454228 -0.020653496 0.8273946
-0.043179598 -0.019454522 0.82777494
-0.043860298 -0.018266743 0.82824314
-0.044490863 -0.017096378 0.82880145
-0.045064311 -0.015951175 0.82945287
-0.045571778 -0.014841049 0.83020121
-0.046001971 -0.013778986 0.83105069
-0.046340492 -0.012782403 0.83200502
-0.046569098 -0.011875069 0.83306605
-0.046665132 -0.011089992 0.83422977
-0.046602331 -0.010475293 0.83547401
-0.046597887 -0.010460726 0.83551061
-0.034734108 -0.019239835 0.84854275
-0.035684582 -0.018126843 0.84822685
-0.036630362 -0.017069291 0.84782374
-0.037574548 -0.016060568 0.84733766
-0.038515218 -0.015101881 0.84677112
-0.039449178 -0.014196898 0.84612536
-0.040372416 -0.013350949 0.84540051
-0.041280001 -0.012571012 0.84459609
-0.042165767 -0.01186599 0.8437112
-0.04302185 -0.011247199 0.84274465
-0.043837946 -0.010729026 0.84169579
-0.044600282 -0.010329766 0.84056532
-0.045290146 -0.010072525 0.83935738
-0.045881677 -0.0099857952 0.83808368
-0.046337545 -0.010102106 0.83677649
-0.046348192 -0.010108805 0.83673888
-0.033067957 -0.021606319 0.84869373
-0.032199901 -0.022797724 0.84867132
-0.031372868 -0.023985848 0.84855568
-0.030581828 -0.025174409 0.84835243
-0.029827774 -0.026360953 0.84806347
-0.029113568 -0.027541475 0.84768897
-0.028443342 -0.028710976 0.84722799
-0.027822481 -0.02986333 0.84667826
-0.027257858 -0.030990908 0.84603685
-0.026758201 -0.032083951 0.84530002
-0.02633463 -0.03312967 0.84446365
-0.026001317 -0.034110915 0.84352398
-0.02577623 -0.035004288 0.84247929
-0.025681673 -0.035777282 0.84133351
-0.025743509 -0.036382522 0.84010839
-0.025747882 -0.036396861 0.84007233
-0.037429087 -0.02775286 0.82724077
-0.036493238 -0.028848723 0.82755184
-0.035562012 -0.029889999 0.82794875
-0.034632359 -0.030883199 0.82842731
-0.033706166 -0.031827133 0.8289851
-0.032786578 -0.032718189 0.82962096
-0.031877548 -0.033551119 0.83033466
-0.03098393 -0.034319054 0.83112669
-0.030111793 -0.035013225 0.83199799
-0.029268887 -0.035622492 0.83294964
-0.028465351 -0.036132693 0.83398235
-0.027714744 -0.036525808 0.83509541
-0.027035499 -0.036779091 0.83628482
-0.02645307 -0.036864486 0.8375389
-0.026004219 -0.036749963 0.83882594
-0.025993736 -0.036743369 0.83886296
-0.039196644 -0.025511675 0.82695794
-0.0400647 -0.024320269 0.82698041
-0.040891733 -0.023132147 0.82709599
-0.041682772 -0.021943584 0.8272993
-0.042436827 -0.02075704 0.82758826
-0.043151032 -0.019576518 0.8279627
-0.04382126 -0.018407019 0.82842374
-0.044442121 -0.017254664 0.82897341
-0.045006745 -0.016127085 0.82961482
-0.045506399 -0.015034043 0.83035165
-0.045929972 -0.013988325 0.83118802
-0.046263285 -0.013007078 0.83212769
-0.046488371 -0.012113706 0.83317238
-0.04658293 -0.011340712 0.83431816
-0.046521094 -0.010735474 0.83554327
-0.046516716 -0.010721131 0.83557934
-0.034835514 -0.019365134 0.8484109
-0.035771362 -0.018269271 0.84809989
-0.036702588 -0.017227994 0.84770298
-0.037632242 -0.016234795 0.84722435
-0.038558435 -0.015290861 0.84666657
-0.039478023 -0.014399805 0.84603071
-0.040387053 -0.013566875 0.84531701
-0.041280668 -0.01279894 0.84452498
-0.042152807 -0.012104768 0.84365374
-0.042995714 -0.011495501 0.84270203
-0.043799248 -0.010985302 0.84166932
-0.044549856 -0.010592186 0.84055626
-0.045229103 -0.010338902 0.83936691
-0.04581153 -0.01025351 0.83811277
-0.046260383 -0.01036803 0.83682573
-0.046270862 -0.010374626 0.83678871
-0.033195529 -0.021695511 0.84855688
-0.032341041 -0.022868296 0.84853482
-0.031526931 -0.024037849 0.84842098
-0.030748254 -0.025207834 0.84822088
-0.030005986 -0.026375834 0.84793645
-0.029302943 -0.027537905 0.84756786
-0.028643193 -0.028689126 0.84711403
-0.028032036 -0.029823469 0.84657294
-0.027476236 -0.030933423 0.84594154
-0.02698439 -0.032009382 0.84521621
-0.026567439 -0.033038758 0.8443929
-0.026239336 -0.034004666 0.84346795
-0.026017766 -0.034884077 0.84243959
-0.025924686 -0.035644989 0.84131169
-0.025985556 -0.036240768 0.84010571
-0.02598986 -0.036254887 0.84007025
-0.037488494 -0.027745984 0.82743919
-0.036567274 -0.028824719 0.82774538
-0.0356506 -0.029849721 0.82813615
-0.034735478 -0.030827397 0.8286072
-0.033823762 -0.03175658 0.82915628
-0.032918546 -0.032633707 0.82978225
-0.03202372 -0.033453617 0.83048475
-0.031144073 -0.034209549 0.83126438
-0.030285567 -0.034892872 0.83212209
-0.029455835 -0.035492618 0.83305883
-0.028664859 -0.035994843 0.83407539
-0.027925983 -0.036381815 0.8351711
-0.027257353 -0.036631141 0.83634186
-0.026684029 -0.036715198 0.83757639
-0.026242193 -0.036602467 0.83884329
-0.026231874 -0.036595974 0.83887976
-0.039228424 -0.025539828 0.82716084
-0.040082913 -0.024367044 0.82718289
-0.040897023 -0.023197491 0.82729673
-0.041675698 -0.022027506 0.82749683
-0.042417966 -0.020859506 0.82778126
-0.043121006 -0.019697435 0.82814986
-0.043780759 -0.018546214 0.82860368
-0.044391915 -0.017411871 0.82914478
-0.044947714 -0.016301917 0.82977617
-0.04543956 -0.015225957 0.8305015
-0.045856513 -0.014196583 0.83132482
-0.046184614 -0.013230673 0.83224976
-0.046406183 -0.012351264 0.83327812
-0.046499263 -0.011590351 0.83440602
-0.046438396 -0.010994572 0.835612
-0.04643409 -0.010980454 0.83564746
-0.034935459 -0.019489355 0.84827846
-0.035856679 -0.018410621 0.84797227
-0.03677335 -0.017385619 0.84758157
-0.037688475 -0.016407942 0.84711045
-0.038600191 -0.015478761 0.84656137
-0.039505407 -0.014601632 0.84593546
-0.040400229 -0.013781721 0.84523296
-0.041279878 -0.013025789 0.84445328
-0.042138383 -0.012342466 0.84359562
-0.042968117 -0.01174272 0.84265888
-0.043759093 -0.011240495 0.84164226
-0.044497967 -0.010853524 0.84054661
-0.045166597 -0.0106042 0.83937579
-0.045739923 -0.010520142 0.83814132
-0.046181761 -0.010632872 0.83687437
-0.04619208 -0.010639364 0.83683795
-0.033321641 -0.021783631 0.84841943
-0.03248072 -0.022937795 0.84839767
-0.031679537 -0.024088779 0.84828568
-0.030913226 -0.025240188 0.8480888
-0.030182743 -0.026389642 0.84780884
-0.029490864 -0.027533263 0.84744608
-0.028841587 -0.028666206 0.84699947
-0.028240135 -0.029782537 0.84646696
-0.02769316 -0.030874869 0.84584558
-0.027209122 -0.031933744 0.84513181
-0.02679879 -0.032946773 0.84432155
-0.026475897 -0.033897348 0.84341127
-0.026257847 -0.034762796 0.84239924
-0.026166245 -0.035511624 0.84128928
-0.026226148 -0.036097944 0.84010243
-0.026230386 -0.036111839 0.84006757
-0.037546445 -0.027738038 0.82763708
-0.036639854 -0.028799646 0.82793838
-0.035737734 -0.029808374 0.82832289
-0.034837142 -0.030770527 0.82878649
-0.033939902 -0.031684954 0.82932687
-0.033049058 -0.032548156 0.82994288
-0.032168444 -0.03335505 0.83063424
-0.031302761 -0.034098979 0.83140153
-0.030457886 -0.034771454 0.83224559
-0.029641327 -0.035361677 0.83316749
-0.028862908 -0.035855927 0.8341679
-0.028135765 -0.036236756 0.83524621
-0.027477752 -0.036482118 0.83639836
-0.026913529 -0.036564846 0.83761328
-0.02647871 -0.036453903 0.83886009
-0.026468555 -0.036447514 0.83889598
-0.039258752 -0.025566911 0.82736307
-0.040099673 -0.024412747 0.82738483
-0.040900856 -0.023261763 0.82749683
-0.041667167 -0.022110354 0.82769376
-0.042397652 -0.020960901 0.82797366
-0.043089531 -0.019817282 0.82833642
-0.043738808 -0.018684339 0.82878304
-0.04434026 -0.017568005 0.82931554
-0.044887234 -0.016475674 0.82993692
-0.045371272 -0.015416798 0.83065069
-0.045781605 -0.014403769 0.83146095
-0.046104498 -0.013453195 0.83237123
-0.046322547 -0.012587749 0.83338326
-0.046414148 -0.011838918 0.83449322
-0.046354245 -0.011252598 0.83568007
-0.04635001 -0.011238704 0.835715
-0.035033949 -0.019612504 0.84814543
-0.035940543 -0.018550897 0.84784412
-0.036842659 -0.017542168 0.84745961
-0.037743252 -0.016580017 0.84699601
-0.038640492 -0.015665589 0.84645563
-0.039531335 -0.014802387 0.84583962
-0.040411953 -0.013995493 0.84514827
-0.041277632 -0.013251563 0.84438097
-0.042122509 -0.01257909 0.84353697
-0.042939067 -0.011988867 0.84261507
-0.043717485 -0.011494616 0.8416146
-0.044444628 -0.011113789 0.84053636
-0.045102641 -0.010868424 0.83938414
-0.045666866 -0.010785699 0.83816922
-0.046101686 -0.010896641 0.83692241
-0.046111841 -0.010903031 0.83688658
-0.033446312 -0.021870688 0.84828138
-0.032618959 -0.023006231 0.84825999
-0.031830698 -0.024138646 0.84814984
-0.031076752 -0.025271479 0.84795606
-0.030358052 -0.026402388 0.84768063
-0.029677335 -0.027527558 0.84732378
-0.029038534 -0.028642222 0.84688437
-0.028446784 -0.029740544 0.84636045
-0.027908634 -0.030815253 0.84574908
-0.027432406 -0.031857047 0.84504682
-0.027028695 -0.03285373 0.84424961
-0.026711011 -0.033788972 0.84335405
-0.026496477 -0.034640454 0.84235835
-0.026406353 -0.035377204 0.84126627
-0.026465291 -0.035954062 0.84009862
-0.026469458 -0.035967734 0.84006423
-0.037602954 -0.027729031 0.82783431
-0.036710989 -0.028773511 0.82813078
-0.035823423 -0.029765964 0.82850909
-0.034937359 -0.030712593 0.82896525
-0.034054596 -0.03161227 0.82949686
-0.033178125 -0.032461546 0.83010292
-0.032311715 -0.033255421 0.83078313
-0.031460002 -0.033987347 0.83153802
-0.030628756 -0.034648973 0.83236843
-0.029825371 -0.035229672 0.8332755
-0.029059513 -0.035715949 0.83425975
-0.0283441 -0.036090631 0.83532065
-0.027696703 -0.036332041 0.83645427
-0.027141582 -0.036413431 0.83764958
-0.026713777 -0.036304276 0.83887625
-0.026703786 -0.036297992 0.83891153
-0.039287634 -0.025592931 0.82756478
-0.040114988 -0.024457388 0.82758611
-0.040903248 -0.023324972 0.82769632
-0.041657194 -0.022192139 0.82789004
-0.042375892 -0.02106123 0.82816547
-0.043056611 -0.019936061 0.82852238
-0.043695413 -0.018821396 0.82896179
-0.04428716 -0.017723074 0.82948571
-0.044825312 -0.016648365 0.83009702
-0.045301542 -0.015606573 0.83079934
-0.045705251 -0.014609886 0.83159649
-0.046022937 -0.013674648 0.83249211
-0.046237469 -0.012823165 0.83348781
-0.046327595 -0.012086414 0.83457989
-0.046268657 -0.011509554 0.83574754
-0.046264488 -0.011495885 0.83578187
-0.035130993 -0.019734588 0.84801185
-0.036022957 -0.018690107 0.84771538
-0.036910523 -0.017697655 0.84733707
-0.037796587 -0.016751025 0.84688091
-0.03867935 -0.015851349 0.84634924
-0.039555822 -0.015002073 0.84574324
-0.040422231 -0.014208198 0.84506297
-0.041273948 -0.013476269 0.84430808
-0.04210519 -0.012814646 0.84347767
-0.042908575 -0.012233946 0.84257066
-0.043674435 -0.011747668 0.84158635
-0.044389848 -0.011372985 0.84052545
-0.045037244 -0.011131578 0.83939183
-0.045592364 -0.011050188 0.83819658
-0.046020169 -0.01115934 0.83696985
-0.04603016 -0.011165625 0.83693457
-0.033569548 -0.02195669 0.84814274
-0.032755759 -0.023073612 0.8481217
-0.031980429 -0.024187457 0.84801334
-0.031238843 -0.025301715 0.84782279
-0.030531928 -0.02641408 0.84755188
-0.029862372 -0.0275208 0.84720081
-0.029234046 -0.028617186 0.84676862
-0.028652001 -0.0296975 0.84625328
-0.028122675 -0.030754585 0.84565198
-0.027654257 -0.031779297 0.84496117
-0.027257165 -0.032759637 0.84417713
-0.026944689 -0.033679541 0.84329617
-0.026733674 -0.034517061 0.84231681
-0.026645027 -0.035241731 0.84124267
-0.026702998 -0.035809133 0.84009415
-0.026707098 -0.035822578 0.84006035
-0.037658032 -0.027718969 0.82803094
-0.036780693 -0.028746322 0.82832253
-0.035907682 -0.029722502 0.82869464
-0.035036147 -0.030653609 0.82914335
-0.03416786 -0.031538531 0.82966626
-0.033305757 -0.032373883 0.83026236
-0.032453556 -0.033154741 0.83093143
-0.031615809 -0.033874668 0.83167392
-0.030798193 -0.034525439 0.83249074
-0.030007983 -0.035096619 0.8333829
-0.02925468 -0.035574924 0.83435106
-0.028550999 -0.03594346 0.83539456
-0.027914217 -0.03618091 0.83650959
-0.027368201 -0.036260966 0.83768529
-0.026947411 -0.036153603 0.83889186
-0.026937583 -0.036147419 0.83892655
-0.039315086 -0.025617896 0.82776582
-0.040128876 -0.024500972 0.82778686
-0.040904209 -0.023387127 0.82789522
-0.041645795 -0.02227287 0.82808578
-0.042352706 -0.021160506 0.82835668
-0.043022264 -0.020053783 0.82870775
-0.04365059 -0.018957399 0.82913995
-0.044232633 -0.017877085 0.82965529
-0.044761959 -0.01682 0.83025658
-0.045230381 -0.01579529 0.83094734
-0.045627471 -0.014814947 0.83173144
-0.045939945 -0.013895045 0.83261234
-0.04615096 -0.013057523 0.83359176
-0.046239607 -0.012332854 0.83466589
-0.046181638 -0.011765452 0.83581442
-0.046177536 -0.011752008 0.83584821
-0.035226602 -0.019855617 0.84787762
-0.036103945 -0.018828264 0.84758604
-0.036976952 -0.017852083 0.84721392
-0.037848487 -0.016920974 0.84676522
-0.038716778 -0.016036052 0.84624231
-0.039578877 -0.015200702 0.8456462
-0.040431079 -0.014419844 0.84497714
-0.041268829 -0.013699919 0.84423465
-0.042086441 -0.013049144 0.84341782
-0.042876653 -0.012477966 0.84252566
-0.043629956 -0.011999662 0.8415575
-0.044333637 -0.011631124 0.840514
-0.044970419 -0.011393675 0.83939898
-0.045516435 -0.011313619 0.83822328
-0.045937225 -0.01142098 0.8370167
-0.045947053 -0.011427164 0.83698201
-0.033691362 -0.022041643 0.84800351
-0.032891139 -0.023139946 0.84798282
-0.032128733 -0.024235222 0.84787625
-0.031399511 -0.025330905 0.84768885
-0.030704381 -0.026424726 0.84742248
-0.030045988 -0.027512996 0.84707731
-0.029428136 -0.028591106 0.84665233
-0.028855791 -0.029653409 0.84614557
-0.02833529 -0.030692872 0.84555429
-0.02787468 -0.031700499 0.84487498
-0.027484208 -0.0326645 0.84410399
-0.027176943 -0.033569068 0.84323776
-0.026969446 -0.034392625 0.84227473
-0.026882276 -0.035105214 0.84121847
-0.02693928 -0.035663158 0.84008908
-0.026943313 -0.035676379 0.84005582
-0.037711687 -0.027707862 0.82822698
-0.036848973 -0.028718088 0.82851374
-0.035990518 -0.029677995 0.82887965
-0.035133511 -0.03059358 0.82932085
-0.034279697 -0.03146375 0.82983506
-0.03343197 -0.032285172 0.83042121
-0.032593973 -0.033053014 0.83107913
-0.031770188 -0.033760939 0.83180922
-0.030966206 -0.034400865 0.83261245
-0.03018917 -0.03496252 0.83348972
-0.029448425 -0.035432849 0.83444172
-0.028756475 -0.035795245 0.83546782
-0.028130308 -0.036028735 0.8365643
-0.027593393 -0.036107458 0.83772039
-0.027179617 -0.036001887 0.83890682
-0.027169954 -0.035995807 0.83894098
-0.039341118 -0.025641814 0.82796627
-0.04014134 -0.024543511 0.82798696
-0.040903747 -0.023448234 0.82809353
-0.041632969 -0.022352552 0.82828093
-0.042328101 -0.02125873 0.8285473
-0.042986494 -0.020170461 0.82889253
-0.043604344 -0.019092351 0.82931751
-0.044176687 -0.018030047 0.82982427
-0.044697188 -0.016990585 0.83041555
-0.045157798 -0.015982958 0.8310948
-0.045548271 -0.015018958 0.83186579
-0.045855537 -0.01411439 0.83273202
-0.046063032 -0.013290832 0.83369511
-0.046150204 -0.012578242 0.83475137
-0.046093199 -0.0120203 0.8358807
-0.046089169 -0.012007078 0.83591396
-0.035320792 -0.019975595 0.8477428
-0.036183506 -0.018965369 0.84745604
-0.037041962 -0.018005462 0.84709018
-0.037898969 -0.017089877 0.84664899
-0.038752783 -0.016219707 0.84613478
-0.03960051 -0.015398283 0.84554857
-0.040438507 -0.014630442 0.84489065
-0.041262288 -0.013922517 0.84416056
-0.042066272 -0.013282591 0.84335732
-0.042843312 -0.012720936 0.84248006
-0.043584052 -0.012250606 0.84152806
-0.044276003 -0.01188821 0.84050196
-0.044902172 -0.01165472 0.83940554
-0.045439087 -0.011575999 0.83824944
-0.045852862 -0.011681571 0.83706295
-0.045862526 -0.011687651 0.8370288
-0.033811759 -0.022125553 0.84786367
-0.033025101 -0.023205237 0.84784341
-0.032275621 -0.024281945 0.84773862
-0.03155876 -0.025359053 0.84755439
-0.030875416 -0.02643433 0.84729254
-0.030228185 -0.027504152 0.84695321
-0.029620808 -0.028563984 0.84653538
-0.029058168 -0.029608278 0.84603727
-0.02854649 -0.030630119 0.845456
-0.028093688 -0.031620663 0.84478825
-0.027709836 -0.032568321 0.84403026
-0.02740778 -0.033457555 0.84317875
-0.027203798 -0.03426715 0.84223205
-0.027118107 -0.034967661 0.84119368
-0.027174147 -0.035516143 0.84008348
-0.027178111 -0.03552914 0.84005076
-0.037763927 -0.027695714 0.82842249
-0.036915839 -0.028688813 0.82870436
-0.036071938 -0.029632447 0.82906401
-0.035229459 -0.030532509 0.82949775
-0.034390122 -0.031387929 0.83000326
-0.033556763 -0.032195427 0.83057946
-0.032732975 -0.032950252 0.83122623
-0.031923156 -0.033646174 0.83194399
-0.031132802 -0.034275252 0.83273357
-0.030368939 -0.034827385 0.83359599
-0.029640753 -0.035289742 0.83453184
-0.028960533 -0.035645992 0.83554053
-0.028344981 -0.035875525 0.83661842
-0.027817169 -0.035952911 0.83775491
-0.027410408 -0.035849132 0.83892125
-0.027400909 -0.035843153 0.83895481
-0.039365735 -0.025664693 0.82816619
-0.040152393 -0.024585009 0.82818651
-0.040901873 -0.023508299 0.82829124
-0.041618735 -0.022431193 0.82847548
-0.042302079 -0.021355914 0.82873732
-0.042949311 -0.020286093 0.82907671
-0.043556686 -0.019226262 0.82949448
-0.044119328 -0.018181967 0.82999265
-0.044631004 -0.017160125 0.83057392
-0.045083806 -0.016169582 0.83124167
-0.04546766 -0.015221924 0.8319996
-0.045769714 -0.014332692 0.83285111
-0.045973696 -0.013523094 0.83379787
-0.046059385 -0.012822585 0.83483618
-0.046003349 -0.012274102 0.83594644
-0.045999385 -0.012261105 0.8359791
-0.035413567 -0.020094533 0.84760743
-0.036261655 -0.019101432 0.84732556
-0.037105557 -0.018157799 0.84696585
-0.037948035 -0.017257735 0.84653211
-0.038787376 -0.016402317 0.84602666
-0.039620731 -0.015594818 0.8454504
-0.040444519 -0.014839995 0.84480363
-0.041254338 -0.014144071 0.84408587
-0.042044692 -0.013514994 0.84329629
-0.042808555 -0.01296286 0.84243387
-0.043536741 -0.012500503 0.84149802
-0.044216961 -0.012144252 0.84048933
-0.044832513 -0.01191472 0.8394115
-0.045360323 -0.011837333 0.83827496
-0.045767084 -0.011941115 0.83710861
-0.045776583 -0.011947093 0.83707505
-0.033930752 -0.02220843 0.84772331
-0.033157662 -0.023269495 0.84770334
-0.032421105 -0.024327636 0.8476004
-0.031716608 -0.02538617 0.84741932
-0.031045048 -0.026442904 0.84716201
-0.030408977 -0.027494276 0.84682852
-0.029812075 -0.02853583 0.8464179
-0.029259136 -0.029562116 0.84592837
-0.028756283 -0.030566335 0.84535712
-0.02831129 -0.031539798 0.84470087
-0.027934058 -0.032471113 0.84395599
-0.02763721 -0.03334501 0.84311914
-0.027436748 -0.034140646 0.84218878
-0.027352534 -0.034829076 0.84116834
-0.027407605 -0.0353681 0.84007722
-0.0274115 -0.035380874 0.84004515
-0.037814766 -0.027682533 0.82861733
-0.036981303 -0.028658507 0.82889438
-0.036151953 -0.029585868 0.82924783
-0.035324007 -0.03047041 0.82967407
-0.034499139 -0.031311076 0.83017087
-0.033680156 -0.032104649 0.83073717
-0.032870572 -0.032846455 0.83137274
-0.03207472 -0.033530377 0.83207816
-0.031297997 -0.034148607 0.83285409
-0.030547304 -0.034691222 0.83370167
-0.029831676 -0.035145603 0.83462137
-0.029163187 -0.03549571 0.83561265
-0.028558251 -0.035721283 0.83667195
-0.028039541 -0.035797335 0.83778882
-0.027639795 -0.035695344 0.83893508
-0.027630458 -0.035689469 0.83896804
-0.039388951 -0.025686536 0.82836545
-0.040162042 -0.024625473 0.82838547
-0.040898599 -0.023567332 0.82848841
-0.041603096 -0.022508798 0.82866943
-0.042274658 -0.021452064 0.8289268
-0.042910729 -0.020400692 0.82926029
-0.043507628 -0.019359138 0.82967085
-0.044060566 -0.018332852 0.83016044
-0.04456342 -0.017328633 0.83073169
-0.045008413 -0.01635517 0.83138788
-0.045385648 -0.015423854 0.83213276
-0.045682494 -0.014549957 0.83296961
-0.045882955 -0.013754321 0.83390003
-0.045967169 -0.013065892 0.83492047
-0.045912098 -0.012526869 0.83601153
-0.045908205 -0.012514095 0.83604366
-0.035504937 -0.020212434 0.84747148
-0.0363384 -0.01923646 0.84719443
-0.03716775 -0.0183091 0.84684092
-0.0379957 -0.017424557 0.84641469
-0.038820565 -0.016583892 0.84591794
-0.039639547 -0.015790317 0.84535164
-0.040449131 -0.015048511 0.84471601
-0.041244984 -0.01436459 0.84401065
-0.042021707 -0.013746361 0.84323472
-0.042772401 -0.013203748 0.84238714
-0.043488029 -0.012749365 0.84146744
-0.044156518 -0.012399256 0.8404761
-0.044761453 -0.012173682 0.83941686
-0.045280162 -0.012097631 0.83829993
-0.045679908 -0.012199624 0.83715373
-0.045689248 -0.012205497 0.83712071
-0.034048352 -0.02229028 0.84758234
-0.033288825 -0.023332726 0.84756273
-0.032565195 -0.0243723 0.84746158
-0.031873059 -0.025412258 0.84728372
-0.031213282 -0.02645045 0.84703088
-0.030588374 -0.027483374 0.84670323
-0.030001944 -0.028506652 0.84629989
-0.029458709 -0.029514929 0.84581888
-0.02896468 -0.030501528 0.8452577
-0.028527495 -0.031457908 0.84461296
-0.028156882 -0.032372881 0.84388113
-0.027865242 -0.033231445 0.843059
-0.027668299 -0.034013119 0.84214491
-0.027585562 -0.034689467 0.84114236
-0.027639668 -0.035219032 0.84007043
-0.027643494 -0.035231583 0.8400389
-0.037864212 -0.027668327 0.82881165
-0.037045375 -0.028627176 0.8290838
-0.036230575 -0.029538264 0.82943112
-0.035417158 -0.030407285 0.82984984
-0.034606766 -0.031233201 0.83033788
-0.033802152 -0.03201285 0.83089423
-0.033006776 -0.032741636 0.83151871
-0.032224886 -0.033413559 0.83221173
-0.031461794 -0.034020938 0.83297408
-0.030724272 -0.034554031 0.83380675
-0.030021202 -0.03500044 0.8347103
-0.029364442 -0.035344407 0.83568424
-0.028770123 -0.035566021 0.83672488
-0.028260514 -0.035640739 0.8378222
-0.027867783 -0.035540536 0.83894831
-0.027858609 -0.035534766 0.83898073
-0.039410774 -0.025707355 0.82856417
-0.040170297 -0.024664911 0.82858384
-0.040893931 -0.023625337 0.82868499
-0.041586068 -0.022585379 0.82886285
-0.042245843 -0.021547187 0.82911569
-0.042870753 -0.020514263 0.82944328
-0.04345718 -0.019490985 0.82984668
-0.044000417 -0.018482707 0.83032763
-0.044494446 -0.017496109 0.83088887
-0.044931632 -0.016539728 0.83153361
-0.045302242 -0.015624755 0.83226538
-0.045593884 -0.014766192 0.83308756
-0.045790825 -0.013984518 0.83400166
-0.045873564 -0.013308169 0.83500415
-0.045819458 -0.012778603 0.83607608
-0.045815632 -0.012766054 0.83610767
-0.035594914 -0.02032931 0.84733492
-0.036413752 -0.019370461 0.84706277
-0.037228547 -0.018459372 0.84671545
-0.038041968 -0.017590351 0.84629673
-0.03885236 -0.016764436 0.84580863
-0.039656974 -0.015984789 0.84525228
-0.04045235 -0.015255999 0.84462786
-0.041234236 -0.014584078 0.84393483
-0.041997332 -0.013976697 0.84317249
-0.042734854 -0.013443605 0.84233981
-0.043437924 -0.012997195 0.84143621
-0.044094682 -0.012653231 0.84046233
-0.044689003 -0.012431616 0.83942163
-0.045198612 -0.012356898 0.83832437
-0.045591343 -0.012457101 0.8371982
-0.045600515 -0.012462871 0.83716583
-0.034164567 -0.022371111 0.84744084
-0.033418607 -0.02339494 0.84742159
-0.0327079 -0.024415946 0.84732223
-0.032028124 -0.025437331 0.84714752
-0.031380132 -0.02645698 0.84689921
-0.030766385 -0.027471453 0.84657741
-0.030190431 -0.028476456 0.84618127
-0.029656896 -0.029466726 0.84570885
-0.02917169 -0.030435702 0.84515768
-0.028742313 -0.031375002 0.84452444
-0.028378321 -0.032273635 0.84380573
-0.028091891 -0.033116862 0.84299827
-0.027898462 -0.033884577 0.8421005
-0.027817205 -0.034548845 0.84111589
-0.027870344 -0.035068952 0.8400631
-0.027874103 -0.035081279 0.8400321
-0.037912276 -0.027653106 0.82900536
-0.03710806 -0.028594827 0.82927263
-0.036307815 -0.029489644 0.82961375
-0.035508923 -0.030343143 0.83002502
-0.034713008 -0.031154307 0.83050436
-0.033922765 -0.031920031 0.83105075
-0.033141594 -0.032635804 0.83166409
-0.03237367 -0.033295725 0.83234471
-0.031624205 -0.033892255 0.83309346
-0.030899856 -0.034415826 0.83391124
-0.030209344 -0.034854263 0.83479869
-0.029564314 -0.035192084 0.83575523
-0.028980607 -0.035409741 0.83677727
-0.028480101 -0.035483126 0.83785498
-0.028094385 -0.035384711 0.83896101
-0.028085375 -0.035379045 0.83899283
-0.039431214 -0.025727157 0.82876235
-0.040177174 -0.024703329 0.8287816
-0.040887881 -0.023682322 0.82888097
-0.041567653 -0.022660939 0.82905561
-0.042215649 -0.02164129 0.82930398
-0.042829394 -0.020626815 0.82962573
-0.04340535 -0.019621814 0.83002192
-0.043938883 -0.018631544 0.83049428
-0.044424091 -0.017662566 0.83104551
-0.044853467 -0.016723266 0.83167869
-0.045217458 -0.015824635 0.8323974
-0.045503888 -0.014981407 0.83320493
-0.045697317 -0.014213693 0.83410263
-0.045778576 -0.013549424 0.8350873
-0.045725435 -0.013029316 0.8361401
-0.045721676 -0.013016991 0.83617103
-0.035683505 -0.020445164 0.84719783
-0.036487721 -0.019503441 0.8469305
-0.037287962 -0.018608626 0.84658939
-0.038086858 -0.017755127 0.84617811
-0.038882773 -0.016943961 0.84569877
-0.039673015 -0.016178237 0.84515238
-0.040454186 -0.015462465 0.84453905
-0.04122211 -0.014802544 0.84385848
-0.041971575 -0.014206012 0.84310973
-0.042695925 -0.013682442 0.84229195
-0.043386437 -0.013244005 0.8414045
-0.044031464 -0.012906183 0.84044796
-0.044615172 -0.012688526 0.83942586
-0.04511568 -0.012615142 0.83834815
-0.045501396 -0.012713556 0.83724219
-0.045510404 -0.012719224 0.83721036
-0.034279399 -0.022450926 0.84729874
-0.033547007 -0.023456136 0.84727979
-0.032849222 -0.024458576 0.84718227
-0.032181811 -0.025461385 0.84701073
-0.031545602 -0.026462492 0.84676695
-0.030943014 -0.027458519 0.84645104
-0.030377533 -0.028445246 0.84606206
-0.029853702 -0.029417507 0.84559828
-0.029377319 -0.030368863 0.84505707
-0.028955752 -0.031291083 0.84443539
-0.028598377 -0.032173373 0.84372973
-0.028317155 -0.033001266 0.84293693
-0.028127246 -0.033755019 0.8420555
-0.028047467 -0.034407206 0.84108877
-0.028099637 -0.034917857 0.84005517
-0.028103329 -0.034929957 0.84002471
-0.037958957 -0.027636867 0.82919848
-0.037169367 -0.028561465 0.82946092
-0.036383677 -0.029440008 0.82979584
-0.03559931 -0.030277986 0.8301996
-0.034817867 -0.031074401 0.83067024
-0.034041993 -0.031826198 0.83120674
-0.033275031 -0.032528955 0.83180887
-0.032521069 -0.033176877 0.83247715
-0.031785235 -0.033762559 0.83321226
-0.03107406 -0.034276608 0.83401519
-0.030396104 -0.034707073 0.83488649
-0.029762803 -0.035038751 0.83582562
-0.029189711 -0.035252452 0.83682913
-0.028698308 -0.035324499 0.83788723
-0.028319605 -0.035227876 0.8389731
-0.028310759 -0.035222311 0.83900434
-0.039450273 -0.025745941 0.82895988
-0.040182669 -0.024740733 0.82897884
-0.040880453 -0.023738293 0.82907635
-0.041547865 -0.022735482 0.82924789
-0.042184073 -0.021734376 0.82949167
-0.042786662 -0.020738348 0.82980758
-0.043352142 -0.019751623 0.83019656
-0.043875974 -0.018779362 0.83066034
-0.044352356 -0.017828004 0.83120155
-0.044773925 -0.016905786 0.83182323
-0.045131296 -0.016023496 0.83252889
-0.045412518 -0.015195602 0.83332169
-0.04560243 -0.01444185 0.83420312
-0.04568221 -0.01378966 0.83516985
-0.045630038 -0.013279011 0.83620346
-0.045626346 -0.01326691 0.83623391
-0.035770718 -0.020560002 0.84706014
-0.036560308 -0.019635404 0.8467977
-0.037345998 -0.018756861 0.84646279
-0.038130362 -0.017918881 0.84605902
-0.038911808 -0.017122468 0.84558839
-0.039687678 -0.016370669 0.84505188
-0.040454645 -0.015667912 0.84444976
-0.041208602 -0.015019992 0.84378153
-0.04194444 -0.014434308 0.84304637
-0.042655617 -0.013920259 0.84224343
-0.043333571 -0.013489795 0.84137213
-0.043966871 -0.013158116 0.840433
-0.044539962 -0.012944418 0.8394295
-0.045031369 -0.012872369 0.8383714
-0.045410071 -0.012968992 0.83728552
-0.045418914 -0.012974557 0.83725429
-0.034392867 -0.022529734 0.84715605
-0.033674039 -0.023516325 0.84713751
-0.032989178 -0.024500199 0.84704179
-0.032334127 -0.025484435 0.8468734
-0.031709701 -0.026467001 0.84663415
-0.031118276 -0.027444581 0.84632409
-0.030563269 -0.028413031 0.84594232
-0.03004914 -0.029367285 0.84548712
-0.02958158 -0.03030102 0.84495592
-0.02916782 -0.031206159 0.84434575
-0.028817065 -0.032072108 0.8436532
-0.028541053 -0.032884669 0.84287506
-0.02835466 -0.033624459 0.84200996
-0.028276356 -0.034264568 0.84106117
-0.028327564 -0.034765761 0.84004664
-0.028331185 -0.034777638 0.84001678
-0.038004275 -0.027619625 0.82939106
-0.037229307 -0.028527098 0.82964867
-0.036458168 -0.029389368 0.82997733
-0.035688333 -0.030211827 0.83037364
-0.034921363 -0.03099349 0.83083558
-0.034159858 -0.031731363 0.83136213
-0.0334071 -0.032421105 0.83195311
-0.032667104 -0.033057027 0.832609
-0.031944897 -0.033631861 0.83333051
-0.031246895 -0.034136388 0.83411855
-0.030581495 -0.034558881 0.83497369
-0.029959925 -0.034884416 0.83589542
-0.029397447 -0.035094157 0.83688033
-0.028915145 -0.03516487 0.83791888
-0.028543456 -0.035070036 0.83898467
-0.028534774 -0.035064574 0.83901531
-0.039467972 -0.025763722 0.82915688
-0.0401868 -0.024777129 0.82917547
-0.040871661 -0.023793258 0.8292712
-0.041526709 -0.022809021 0.82943952
-0.042151134 -0.021826455 0.82967883
-0.042742562 -0.020848876 0.8299889
-0.04329757 -0.019880425 0.83037066
-0.043811698 -0.018926172 0.83082587
-0.044279259 -0.017992437 0.831357
-0.044693019 -0.017087298 0.83196718
-0.045043774 -0.01622135 0.83265978
-0.045319784 -0.015408789 0.83343792
-0.045506179 -0.014668996 0.83430302
-0.045584481 -0.014028886 0.83525181
-0.045533273 -0.013527695 0.83626634
-0.045529652 -0.013515818 0.8362962
-0.035856564 -0.020673832 0.84692186
-0.036631528 -0.019766359 0.84666431
-0.037402667 -0.018904088 0.84633565
-0.038172506 -0.01808163 0.84593928
-0.038939476 -0.017299967 0.8454774
-0.039700978 -0.016562091 0.84495085
-0.040453739 -0.01587235 0.84435987
-0.041193731 -0.015236432 0.84370399
-0.041915942 -0.014661594 0.84298247
-0.042613942 -0.014157066 0.84219444
-0.043279342 -0.013734575 0.84133923
-0.043900914 -0.01340904 0.8404175
-0.044463389 -0.013199299 0.8394326
-0.044945695 -0.013128584 0.83839411
-0.045317382 -0.013223419 0.83732831
-0.045326065 -0.01322888 0.83729768
-0.034504972 -0.022607541 0.84701282
-0.033799708 -0.023575515 0.84699464
-0.033127774 -0.024540821 0.8469007
-0.032485083 -0.025506485 0.84673554
-0.03187244 -0.026470508 0.84650075
-0.031292174 -0.02742964 0.84619653
-0.030747641 -0.028379817 0.84582198
-0.030243214 -0.029316062 0.84537536
-0.029784478 -0.030232178 0.84485424
-0.029378524 -0.031120235 0.84425557
-0.029034389 -0.031969845 0.84357607
-0.028763585 -0.032767072 0.8428126
-0.028580708 -0.033492904 0.84196383
-0.028503884 -0.034120932 0.84103292
-0.028554125 -0.034612667 0.84003758
-0.028557677 -0.03462432 0.84000832
-0.03804823 -0.027601382 0.82958311
-0.037287891 -0.02849173 0.82983583
-0.036531303 -0.02933773 0.83015829
-0.035775993 -0.030144669 0.83054715
-0.035023496 -0.030911582 0.83100033
-0.034276363 -0.03163553 0.83151692
-0.033537809 -0.032312255 0.83209676
-0.032811776 -0.032936174 0.83274025
-0.0321032 -0.033500165 0.83344817
-0.031418364 -0.033995174 0.83422136
-0.030765522 -0.034409691 0.83506036
-0.030155683 -0.034729082 0.83596474
-0.029603818 -0.034934867 0.83693105
-0.029130617 -0.035004247 0.83794993
-0.028765943 -0.0349112 0.83899564
-0.028757425 -0.034905843 0.83902574
-0.039484307 -0.025780501 0.82935333
-0.040189572 -0.024812527 0.82937157
-0.040861506 -0.02384722 0.82946545
-0.041504197 -0.022881556 0.82963061
-0.042116839 -0.021917531 0.8298654
-0.042697106 -0.020958401 0.83016962
-0.043241639 -0.020008225 0.83054417
-0.043746065 -0.019071979 0.83099079
-0.044204801 -0.018155864 0.83151191
-0.044610754 -0.017267805 0.83211058
-0.044954892 -0.016418196 0.83279014
-0.045225695 -0.01562097 0.83355355
-0.045408573 -0.014895137 0.83440232
-0.045485396 -0.014267107 0.83533323
-0.045435157 -0.013775374 0.83632857
-0.045431603 -0.01376372 0.83635789
-0.035941049 -0.02078666 0.8467831
-0.036701392 -0.01989631 0.84653038
-0.03745798 -0.019050311 0.84620786
-0.038213287 -0.018243372 0.84581906
-0.038965784 -0.01747646 0.84536588
-0.039712917 -0.016752509 0.84484923
-0.040451474 -0.016075784 0.84426939
-0.041177504 -0.015451865 0.8436259
-0.041886084 -0.014887876 0.84291804
-0.042570915 -0.014392868 0.84214485
-0.043223757 -0.013978349 0.84130579
-0.043833598 -0.013658958 0.84040147
-0.044385463 -0.013453173 0.83943516
-0.044858664 -0.013383795 0.83841622
-0.045223337 -0.013476839 0.83737057
-0.045231856 -0.013482197 0.83734047
-0.034615725 -0.022684349 0.84686905
-0.033924025 -0.023633705 0.84685117
-0.033265013 -0.024580445 0.84675908
-0.032634683 -0.025527537 0.84659708
-0.032033823 -0.026473019 0.84636682
-0.031464718 -0.027413704 0.84606844
-0.030930657 -0.028345605 0.8457011
-0.030435933 -0.029263843 0.84526306
-0.029986018 -0.03016234 0.84475195
-0.029587874 -0.031033317 0.84416485
-0.029250357 -0.031866584 0.84349835
-0.028984761 -0.032648478 0.84274966
-0.028805403 -0.033360351 0.84191716
-0.028730055 -0.033976302 0.84100419
-0.02877933 -0.034458578 0.84002799
-0.028782815 -0.034470007 0.83999926
-0.038090833 -0.027582143 0.82977456
-0.037345115 -0.028455365 0.83002239
-0.036603082 -0.029285096 0.83033866
-0.035862297 -0.030076513 0.83072007
-0.035124272 -0.030828675 0.83116454
-0.034391511 -0.031538703 0.83167118
-0.033667162 -0.032202411 0.83223987
-0.032955095 -0.032814331 0.83287102
-0.032260142 -0.033367474 0.83356529
-0.031588484 -0.033852961 0.83432359
-0.030948196 -0.034259506 0.83514649
-0.030350083 -0.034572754 0.8360334
-0.029808836 -0.034774579 0.83698118
-0.029344734 -0.034842625 0.83798051
-0.028987072 -0.034751371 0.83900607
-0.02897872 -0.034746114 0.83903557
-0.03949929 -0.025796283 0.82954919
-0.040190987 -0.024846924 0.82956707
-0.040850002 -0.023900185 0.82965916
-0.041480333 -0.022953095 0.82982117
-0.042081188 -0.022007611 0.83005142
-0.042650294 -0.021066926 0.8303498
-0.043184359 -0.020135026 0.83071715
-0.043679081 -0.019216787 0.83115518
-0.044128995 -0.01831829 0.83166629
-0.04452714 -0.017447313 0.83225346
-0.044864658 -0.016614046 0.8329199
-0.045130253 -0.015832152 0.83366865
-0.045309611 -0.01512028 0.83450109
-0.045384958 -0.014504328 0.83541411
-0.045335684 -0.014022051 0.83639032
-0.045332201 -0.014010623 0.83641905
-0.036024179 -0.020898489 0.84664375
-0.036769897 -0.020025264 0.84639585
-0.037511934 -0.019195536 0.84607959
-0.038252715 -0.018404117 0.84569824
-0.03899074 -0.017651955 0.84525377
-0.039723504 -0.016941929 0.84474707
-0.040447854 -0.016278218 0.84417838
-0.04115992 -0.0156663 0.84354728
-0.041854873 -0.015113157 0.84285301
-0.042526532 -0.01462767 0.84209466
-0.04316682 -0.014221124 0.84127176
-0.04376493 -0.013907875 0.84038484
-0.044306178 -0.01370605 0.83943713
-0.044770282 -0.013638005 0.8384378
-0.045127939 -0.013729259 0.83741224
-0.045136295 -0.013734515 0.83738273
-0.034725133 -0.022760168 0.84672475
-0.034047 -0.023690909 0.84670722
-0.033400908 -0.024619084 0.84661692
-0.032782942 -0.025547603 0.84645808
-0.032193866 -0.026474545 0.84623235
-0.031635921 -0.027396781 0.84593982
-0.031112332 -0.028310407 0.84557968
-0.030627308 -0.02921064 0.84515023
-0.030186217 -0.030091517 0.84464914
-0.029795879 -0.030945415 0.84407353
-0.029464981 -0.031762343 0.84342015
-0.029204594 -0.032528903 0.84268606
-0.029028753 -0.033226814 0.84186995
-0.028954884 -0.033830687 0.84097487
-0.02900319 -0.034303509 0.8400178
-0.029006608 -0.034314711 0.8399896
-0.038132098 -0.027561916 0.82996541
-0.037401002 -0.028418018 0.83020842
-0.03667352 -0.029231474 0.83051848
-0.035947263 -0.030007374 0.83089238
-0.035223711 -0.030744785 0.83132815
-0.034505319 -0.031440888 0.8318249
-0.03379517 -0.032091584 0.83238244
-0.03309707 -0.032691501 0.83300114
-0.032415744 -0.033233799 0.83368182
-0.031757258 -0.033709764 0.83442527
-0.031129526 -0.034108337 0.83523202
-0.030543143 -0.034415442 0.83610159
-0.030012507 -0.034613311 0.83703071
-0.029557507 -0.034680024 0.83801043
-0.029206861 -0.034590557 0.8390159
-0.029198671 -0.034585405 0.83904481
-0.039512932 -0.025811078 0.82974452
-0.040191069 -0.024880338 0.82976204
-0.040837158 -0.023952162 0.82985234
-0.041455127 -0.023023644 0.83001113
-0.042044204 -0.022096703 0.83023691
-0.042602148 -0.021174464 0.83052939
-0.043125737 -0.020260839 0.83088958
-0.043610759 -0.019360606 0.83131897
-0.044051848 -0.018479729 0.83182007
-0.044442188 -0.017625831 0.83239573
-0.044773087 -0.016808905 0.83304912
-0.045033474 -0.016042344 0.83378315
-0.045209315 -0.015344432 0.83459932
-0.045283183 -0.014740559 0.8354944
-0.045234878 -0.01426774 0.83645147
-0.045231462 -0.014256535 0.8364796
-0.036105972 -0.02100933 0.84650379
-0.036837064 -0.020153228 0.84626079
-0.03756455 -0.019339772 0.84595072
-0.038290806 -0.018563872 0.84557688
-0.039014358 -0.01782646 0.84514111
-0.039732751 -0.017130358 0.84464437
-0.040442895 -0.016479664 0.84408683
-0.041141 -0.015879745 0.84346807
-0.041822322 -0.015337449 0.84278744
-0.042480811 -0.014861481 0.842044
-0.043108542 -0.014462909 0.84123719
-0.043694925 -0.014155802 0.84036767
-0.044225559 -0.013957934 0.8394385
-0.044680558 -0.013891224 0.83845878
-0.045031209 -0.013980689 0.83745337
-0.045039397 -0.013985842 0.8374244
-0.034833208 -0.022835003 0.84657985
-0.034168635 -0.023747128 0.84656268
-0.033535469 -0.024656737 0.84647417
-0.03292986 -0.025566684 0.84631854
