# .PCD v0.7 - Point Cloud Data file format
VERSION 0.7
FIELDS x y z rgba
SIZE 4 4 4 4
TYPE F F F U
COUNT 1 1 1 1
WIDTH 1002
HEIGHT 1
VIEWPOINT 0 0 0 1 0 0 0
POINTS 1002
DATA ascii
-0.014477947 -0.0081159137 0.79202163 4278190080
-0.014387409 -0.0091539444 0.79293126 4278190080
-0.01544873 -0.013336099 0.79461896 4278190080
-0.01535842 -0.014371514 0.79552627 4278190080
-0.015268112 -0.015406931 0.79643357 4278190080
-0.015177802 -0.016442347 0.79734093 4278190080
-0.015087493 -0.017477762 0.79824823 4278190080
-0.014997183 -0.018513178 0.79915553 4278190080
-0.014906874 -0.019548595 0.80006284 4278190080
-0.014816565 -0.020584011 0.8009702 4278190080
-0.014726256 -0.021619426 0.8018775 4278190080
-0.014635947 -0.022654843 0.8027848 4278190080
-0.01588089 -0.024732206 0.80262804 4278190080
-0.015790809 -0.025765007 0.80353308 4278190080
-0.014365018 -0.02576109 0.80550677 4278190080
-0.01427471 -0.026796507 0.80641413 4278190080
-0.0141844 -0.027831923 0.80732143 4278190080
-0.014003782 -0.029902756 0.80913609 4278190080
-0.013913472 -0.030938171 0.81004339 4278190080
-0.012486126 -0.030952588 0.81203312 4278190080
-0.012395589 -0.031990618 0.81294274 4278190080
-0.012305052 -0.033028651 0.81385231 4278190080
-0.012214514 -0.034066681 0.81476194 4278190080
-0.012123977 -0.035104711 0.81567156 4278190080
-0.008323526 -0.037801169 0.82297719 4278190080
-0.0025069893 -0.039086372 0.83201182 4278190080
-0.013494081 0.0018963077 0.78842044 4278190080
-0.013403087 0.00085304753 0.7893346 4278190080
-0.013312094 -0.0001902112 0.79024881 4278190080
-0.014549594 -0.0023238363 0.79013836 4278190080
-0.016574455 -0.011752509 0.79444027 4278190080
-0.016484147 -0.012787925 0.79534757 4278190080
-0.016393837 -0.013823341 0.79625487 4278190080
-0.016303528 -0.014858757 0.79716223 4278190080
-0.016213218 -0.015894173 0.79806954 4278190080
-0.016122909 -0.016929589 0.79897684 4278190080
-0.016032601 -0.017965004 0.79988414 4278190080
-0.01594229 -0.01900042 0.8007915 4278190080
-0.015851982 -0.020035837 0.8016988 4278190080
-0.015761672 -0.021071253 0.80260611 4278190080
-0.015671363 -0.022106668 0.80351347 4278190080
-0.016913692 -0.024185415 0.80335486 4278190080
-0.01682361 -0.025218217 0.8042599 4278190080
-0.015400436 -0.025212917 0.80623543 4278190080
-0.015310126 -0.026248332 0.80714273 4278190080
-0.015219817 -0.027283749 0.80805004 4278190080
-0.015039198 -0.029354582 0.8098647 4278190080
-0.014948889 -0.030389996 0.810772 4278190080
-0.01485858 -0.031425413 0.81167936 4278190080
-0.014768271 -0.032460831 0.81258667 4278190080
-0.014677961 -0.033496246 0.81349397 4278190080
-0.0035620155 -0.038527817 0.83275425 4278190080
-0.014537341 0.002448634 0.78915459 4278190080
-0.014446347 0.0014053739 0.79006875 4278190080
-0.014355354 0.00036211521 0.79098296 4278190080
-0.015590239 -0.0017728942 0.79087067 4278190080
-0.016644545 -0.0059787668 0.79257298 4278190080
-0.017880799 -0.0080980882 0.79244691 4278190080
-0.017790489 -0.0091335028 0.79335421 4278190080
-0.01770018 -0.010168918 0.79426152 4278190080
-0.017609872 -0.011204335 0.79516888 4278190080
-0.017519562 -0.012239751 0.79607618 4278190080
-0.017429253 -0.013275167 0.79698348 4278190080
-0.017158326 -0.016381415 0.79970545 4278190080
-0.017068015 -0.017416831 0.80061281 4278190080
-0.016977707 -0.018452248 0.80152011 4278190080
-0.016887397 -0.019487664 0.80242741 4278190080
-0.016797088 -0.020523079 0.80333477 4278190080
-0.018036574 -0.022605825 0.80317658 4278190080
-0.017946493 -0.023638627 0.80408162 4278190080
-0.017856412 -0.024671428 0.80498666 4278190080
-0.019096769 -0.026743684 0.80481935 4278190080
-0.019006917 -0.027773872 0.80572212 4278190080
-0.017586168 -0.027769832 0.80770177 4278190080
-0.015803685 -0.031912655 0.81331527 4278190080
-0.015623068 -0.033983488 0.81512994 4278190080
-0.015532758 -0.035018902 0.81603724 4278190080
-0.011079591 -0.037195247 0.82389396 4278190080
-0.0046170414 -0.037969258 0.83349663 4278190080
-0.0045250212 -0.03902429 0.83442116 4278190080
-0.0030975454 -0.03909738 0.8364684 4278190080
-0.0016695732 -0.039175671 0.83852023 4278190080
-0.015489608 0.0019577008 0.7908029 4278190080
-0.015398614 0.00091444195 0.79171711 4278190080
-0.017773114 -0.004391178 0.7923938 4278190080
-0.017682577 -0.0054292087 0.79330343 4278190080
-0.018825905 -0.0085853292 0.79408282 4278190080
-0.018735597 -0.0096207447 0.79499018 4278190080
-0.019519782 -0.01689503 0.79937822 4278190080
-0.0194297 -0.017927831 0.80028325 4278190080
-0.019339619 -0.018960632 0.80118829 4278190080
-0.019249538 -0.019993434 0.80209333 4278190080
-0.019159457 -0.021026235 0.80299836 4278190080
-0.019069375 -0.022059036 0.8039034 4278190080
-0.018979294 -0.023091838 0.80480838 4278190080
-0.018889213 -0.024124639 0.80571342 4278190080
-0.020126957 -0.026198279 0.80554432 4278190080
-0.020037103 -0.027228465 0.80644703 4278190080
-0.018528888 -0.028255844 0.80933356 4278190080
-0.018438807 -0.029288646 0.8102386 4278190080
-0.015056995 -0.035532098 0.81968218 4278190080
-0.011366121 -0.037186678 0.82609773 4278190080
-0.0070044538 -0.038399253 0.83311909 4278190080
-0.0055800476 -0.038465731 0.83516359 4278190080
-0.01662386 0.0035532874 0.79062283 4278190080
-0.016532868 0.002510027 0.79153705 4278190080
-0.017762296 0.00036963646 0.79142338 4278190080
-0.017671529 -0.00067100965 0.79233527 4278190080
-0.018901682 -0.0028035895 0.79221463 4278190080
-0.018811144 -0.0038416202 0.79312426 4278190080
-0.019861322 -0.0080371555 0.79481149 4278190080
-0.020552583 -0.016348241 0.80010504 4278190080
-0.020462502 -0.017381042 0.80101007 4278190080
-0.020372421 -0.018413844 0.80191505 4278190080
-0.02160641 -0.020501941 0.80175555 4278190080
-0.021516556 -0.021532128 0.80265832 4278190080
-0.020102177 -0.021512246 0.80463016 4278190080
-0.021246996 -0.024622688 0.80536652 4278190080
-0.021157144 -0.025652874 0.80626923 4278190080
-0.02106729 -0.02668306 0.807172 4278190080
-0.020977437 -0.027713247 0.80807471 4278190080
-0.019471608 -0.028741855 0.81096536 4278190080
-0.0080568651 -0.03784208 0.83385968 4278190080
-0.006635074 -0.037907176 0.83590603 4278190080
-0.0065430547 -0.0389622 0.8368305 4278190080
-0.0051205796 -0.039035138 0.8388837 4278190080
-0.017758114 0.0051488741 0.79044282 4278190080
-0.018802941 0.00092057878 0.79215568 4278190080
-0.020030249 -0.0012160009 0.79203552 4278190080
-0.020987047 -0.0064535667 0.79463279 4278190080
-0.020896738 -0.0074889818 0.79554009 4278190080
-0.022125872 -0.0096046431 0.79540163 4278190080
-0.022035791 -0.010637444 0.79630667 4278190080
-0.022906154 -0.016865976 0.79977226 4278190080
-0.022816302 -0.017896162 0.80067503 4278190080
-0.022726448 -0.018926349 0.80157775 4278190080
-0.022546742 -0.020986723 0.80338323 4278190080
-0.02245689 -0.022016909 0.804286 4278190080
-0.022367036 -0.023047095 0.80518872 4278190080
-0.022277184 -0.024077283 0.80609143 4278190080
-0.02218733 -0.025107469 0.8069942 4278190080
-0.022097478 -0.026137656 0.80789691 4278190080
-0.020144084 -0.03232627 0.81531227 4278190080
-0.0076901 -0.037348621 0.8366484 4278190080
-0.0075980807 -0.038403645 0.83757293 4278190080
-0.0061782203 -0.038475197 0.83962798 4278190080
-0.0060859723 -0.03953284 0.84055477 4278190080
-0.0046653883 -0.039612211 0.84261674 4278190080
-0.019843586 0.001471521 0.79288799 4278190080
-0.020887205 -0.0027425042 0.79458517 4278190080
-0.022112772 -0.0048699761 0.7944541 4278190080
-0.022022463 -0.005905393 0.7953614 4278190080
-0.023158671 -0.0090578543 0.79612839 4278190080
-0.023846488 -0.017350757 0.80139995 4278190080
-0.023756636 -0.018380944 0.80230272 4278190080
-0.023666782 -0.01941113 0.80320543 4278190080
-0.023576928 -0.020441318 0.8041082 4278190080
-0.023487076 -0.021471504 0.80501091 4278190080
-0.023397222 -0.02250169 0.80591369 4278190080
-0.02330737 -0.023531877 0.8068164 4278190080
-0.023217516 -0.024562065 0.80771911 4278190080
-0.023127664 -0.025592251 0.80862188 4278190080
-0.02303781 -0.026622437 0.8095246 4278190080
-0.021266967 -0.03074668 0.81513405 4278190080
-0.021176886 -0.031779483 0.81603903 4278190080
-0.0087451264 -0.036790065 0.83739084 4278190080
-0.0086531071 -0.037845086 0.83831537 4278190080
-0.0085610868 -0.038900118 0.83923984 4278190080
-0.0071436134 -0.038972903 0.84129906 4278190080
-0.0057256441 -0.039050885 0.84336281 4278190080
-0.0043072575 -0.03913413 0.84543115 4278190080
-0.020974997 0.0030631081 0.79270834 4278190080
-0.022015773 -0.0011549155 0.79440606 4278190080
-0.023238497 -0.0032863859 0.7942754 4278190080
-0.02305788 -0.0053572194 0.79609001 4278190080
-0.025146235 -0.013714792 0.79941672 4278190080
-0.024966529 -0.015775165 0.80122215 4278190080
-0.024876675 -0.016805353 0.80212492 4278190080
-0.024786822 -0.017835539 0.80302763 4278190080
-0.024696968 -0.018865725 0.8039304 4278190080
-0.024517262 -0.020926099 0.80573589 4278190080
-0.02442741 -0.021956285 0.8066386 4278190080
-0.024337556 -0.022986472 0.80754131 4278190080
-0.024247704 -0.024016658 0.80844408 4278190080
-0.02415785 -0.025046846 0.8093468 4278190080
-0.022209687 -0.031232692 0.81676584 4278190080
-0.020709839 -0.032278035 0.81968039 4278190080
-0.011122308 -0.037222978 0.83700365 4278190080
-0.0097081335 -0.037286531 0.8390578 4278190080
-0.0082012536 -0.038412962 0.84204328 4278190080
-0.0067858994 -0.038489562 0.84410894 4278190080
-0.0053701275 -0.038571425 0.84617913 4278190080
-0.022015642 0.0036140503 0.79344064 4278190080
-0.021924878 0.0025734056 0.79435259 4278190080
-0.023144342 0.00043267309 0.79422688 4278190080
-0.023053804 -0.00060535758 0.79513651 4278190080
-0.026356127 -0.011109014 0.79833615 4278190080
-0.026266275 -0.0121392 0.79923892 4278190080
-0.026832657 -0.01370634 0.79961139 4278190080
-0.026653178 -0.015764099 0.80141461 4278190080
-0.025817009 -0.017290134 0.8037526 4278190080
-0.025637303 -0.019350506 0.80555809 4278190080
-0.025547449 -0.020380694 0.8064608 4278190080
-0.025457596 -0.021410881 0.80736357 4278190080
-0.025367742 -0.022441067 0.80826628 4278190080
-0.02527789 -0.023471253 0.80916899 4278190080
-0.025188036 -0.024501441 0.81007177 4278190080
-0.023242489 -0.030685904 0.8174926 4278190080
-0.010763159 -0.036727976 0.83980018 4278190080
-0.01067114 -0.037783004 0.84072471 4278190080
-0.0092588952 -0.037853021 0.84278756 4278190080
-0.0078461552 -0.037928239 0.84485501 4278190080
-0.006432998 -0.038008716 0.84692705 4278190080
-0.021460038 0.010003264 0.79206377 4278190080
-0.022022149 0.0084014414 0.79246515 4278190080
-0.021931155 0.0073581799 0.79337937 4278190080
-0.023056287 0.0041649924 0.79417294 4278190080
-0.022965522 0.0031243479 0.79508489 4278190080
-0.025219021 -0.0032254551 0.79663992 4278190080
-0.027476167 -0.0095334221 0.79815835 4278190080
-0.027386315 -0.010563608 0.79906112 4278190080
-0.027296461 -0.011593795 0.79996383 4278190080
-0.027861536 -0.013161628 0.80033541 4278190080
-0.027771797 -0.014190507 0.80123705 4278190080
-0.027682059 -0.015219387 0.80213863 4278190080
-0.027592318 -0.016248265 0.80304021 4278190080
-0.026847195 -0.016744729 0.80447751 4278190080
-0.026757343 -0.017774915 0.80538028 4278190080
-0.026667489 -0.018805102 0.806283 4278190080
-0.026577637 -0.019835288 0.80718577 4278190080
-0.026487783 -0.020865476 0.80808848 4278190080
-0.02639793 -0.021895662 0.80899125 4278190080
-0.026308076 -0.022925848 0.80989397 4278190080
-0.026874406 -0.0244793 0.81025296 4278190080
-0.025768958 -0.029106967 0.81531042 4278190080
-0.024185209 -0.031171914 0.81912446 4278190080
-0.022780672 -0.031181687 0.82113761 4278190080
-0.013227131 -0.036108635 0.83848482 4278190080
-0.011818185 -0.036169421 0.84054261 4278190080
-0.011726165 -0.037224449 0.84146714 4278190080
-0.010316536 -0.03729308 0.84353185 4278190080
-0.0088139344 -0.03842717 0.8465302 4278190080
-0.0060848305 -0.037530299 0.8497535 4278190080
-0.022974415 0.0079105068 0.79411352 4278190080
-0.026344746 -0.0016418649 0.79646122 4278190080
-0.026254436 -0.0026772814 0.79736859 4278190080
-0.027379958 -0.0058378954 0.79813051 4278190080
-0.027289877 -0.0068706963 0.79903555 4278190080
-0.027199795 -0.0079034977 0.79994059 4278190080
-0.028416501 -0.010018203 0.79978603 4278190080
-0.028326647 -0.01104839 0.8006888 4278190080
-0.028890416 -0.012616915 0.80105948 4278190080
-0.028800676 -0.013645794 0.80196106 4278190080
-0.028710937 -0.014674673 0.80286264 4278190080
-0.028621199 -0.015703553 0.80376422 4278190080
-0.02853146 -0.016732432 0.8046658 4278190080
-0.02844172 -0.017761311 0.80556744 4278190080
-0.028351981 -0.018790191 0.80646902 4278190080
-0.028262243 -0.01981907 0.8073706 4278190080
-0.028172502 -0.020847948 0.80827218 4278190080
-0.028082764 -0.021876829 0.80917382 4278190080
-0.027993025 -0.022905707 0.8100754 4278190080
-0.027903285 -0.023934588 0.81097698 4278190080
-0.027813546 -0.024963466 0.81187856 4278190080
-0.026799144 -0.028561562 0.81603533 4278190080
-0.025398172 -0.028559523 0.81804115 4278190080
-0.025308091 -0.029592324 0.81894618 4278190080
-0.023816086 -0.030633513 0.82186621 4278190080
-0.02082938 -0.032747298 0.82773381 4278190080
-0.014279542 -0.035551462 0.83922541 4278190080
-0.012873212 -0.035610866 0.84128505 4278190080
-0.012781192 -0.036665894 0.84220958 4278190080
-0.011374176 -0.036733143 0.84427607 4278190080
-0.011281929 -0.037790783 0.84520286 4278190080
-0.0098741902 -0.037865844 0.84727633 4278190080
-0.0071503152 -0.036966205 0.85050327 4278190080
-0.025046812 0.0042262324 0.7965495 4278190080
-0.026258433 0.0020813469 0.79641831 4278190080
-0.027470471 -5.8275858e-05 0.79628253 4278190080
-0.027380161 -0.0010936911 0.79718989 4278190080
-0.027289852 -0.0021291077 0.79809719 4278190080
-0.028412759 -0.0052911057 0.79885727 4278190080
-0.028322678 -0.0063239071 0.79976231 4278190080
-0.029536542 -0.0084426124 0.79960823 4278190080
-0.029446688 -0.0094727986 0.800511 4278190080
-0.029356834 -0.010502985 0.80141371 4278190080
-0.029919295 -0.012072201 0.8017835 4278190080
-0.029739818 -0.01412996 0.80358666 4278190080
-0.029650077 -0.01515884 0.80448824 4278190080
-0.029560339 -0.016187718 0.80538988 4278190080
-0.0294706 -0.017216599 0.80629146 4278190080
-0.02938086 -0.018245477 0.80719304 4278190080
-0.029291121 -0.019274358 0.80809462 4278190080
-0.029201383 -0.020303236 0.8089962 4278190080
-0.029111642 -0.021332115 0.80989784 4278190080
-0.029021904 -0.022360995 0.81079942 4278190080
-0.028932165 -0.023389874 0.811701 4278190080
-0.028842425 -0.024418753 0.81260258 4278190080
-0.028752686 -0.025447633 0.81350422 4278190080
-0.027919184 -0.026985971 0.81585753 4278190080
-0.026521055 -0.026979933 0.81786293 4278190080
-0.026430974 -0.028012734 0.81876796 4278190080
-0.026340893 -0.029045535 0.819673 4278190080
-0.024941811 -0.029049924 0.82168752 4278190080
-0.024851503 -0.03008534 0.82259488 4278190080
-0.02336124 -0.031135634 0.82552588 4278190080
-0.020377938 -0.033267569 0.83141541 4278190080
-0.013928237 -0.035052311 0.84202749 4278190080
-0.013836218 -0.036107339 0.84295195 4278190080
-0.012431817 -0.036173202 0.84502035 4278190080
-0.011026922 -0.036244262 0.84709334 4278190080
-0.0096216081 -0.036320589 0.84917086 4278190080
-0.0082157999 -0.036402114 0.85125303 4278190080
-0.026178224 0.0058178194 0.79636985 4278190080
-0.026087459 0.0047771749 0.7972818 4278190080
-0.027296465 0.002630905 0.79714876 4278190080
-0.028505888 0.00048989779 0.7970112 4278190080
-0.028415577 -0.00054551743 0.7979185 4278190080
-0.028325269 -0.001580934 0.7988258 4278190080
-0.029535642 -0.0037115153 0.79867905 4278190080
-0.029445561 -0.0047443165 0.79958409 4278190080
-0.029355479 -0.0057771178 0.80048913 4278190080
-0.030566728 -0.0078972066 0.8003332 4278190080
-0.030476874 -0.0089273928 0.80123591 4278190080
-0.030387022 -0.0099575799 0.80213869 4278190080
-0.030858435 -0.012556368 0.8034091 4278190080
-0.030768696 -0.013585247 0.80431068 4278190080
-0.030678958 -0.014614127 0.80521226 4278190080
-0.029937755 -0.015108513 0.80665237 4278190080
-0.029847903 -0.016138699 0.80755508 4278190080
-0.03040974 -0.017700765 0.80791706 4278190080
-0.03032 -0.018729644 0.80881864 4278190080
-0.030230261 -0.019758523 0.80972028 4278190080
-0.030140523 -0.020787403 0.81062186 4278190080
-0.030050782 -0.021816282 0.81152344 4278190080
-0.029871305 -0.023874041 0.8133266 4278190080
-0.029781565 -0.024902919 0.81422824 4278190080
-0.029691827 -0.0259318 0.81512982 4278190080
-0.028949371 -0.026440566 0.8165825 4278190080
-0.027553856 -0.026433142 0.81858969 4278190080
-0.027463775 -0.027465943 0.81949472 4278190080
-0.027373694 -0.028498745 0.82039976 4278190080
-0.025977228 -0.028501749 0.82241619 4278190080
-0.025886919 -0.029537166 0.82332349 4278190080
-0.024399271 -0.030586077 0.82625633 4278190080
-0.024308734 -0.031624109 0.82716596 4278190080
-0.022910671 -0.031645417 0.82919842 4278190080
-0.021512192 -0.031671982 0.83123541 4278190080
-0.021421198 -0.032715242 0.83214957 4278190080
-0.014983264 -0.034493752 0.84276992 4278190080
-0.014891244 -0.035548784 0.84369439 4278190080
-0.013489458 -0.035613261 0.84576464 4278190080
-0.01339721 -0.036670901 0.84669143 4278190080
-0.010684479 -0.035757881 0.84991884 4278190080
-0.026104195 0.0095674861 0.79631597 4278190080
-0.027309636 0.0074094078 0.79619026 4278190080
-0.027218869 0.0063687619 0.79710215 4278190080
-0.027128104 0.0053281169 0.7980141 4278190080
-0.029450994 2.6564305e-06 0.79864711 4278190080
-0.030568443 -0.0031647258 0.79940581 4278190080
-0.030478362 -0.0041975267 0.80031085 4278190080
-0.030388281 -0.0052303281 0.80121589 4278190080
-0.031596914 -0.0073518017 0.80105811 4278190080
-0.03150706 -0.0083819879 0.80196089 4278190080
-0.031417206 -0.0094121741 0.8028636 4278190080
-0.031977054 -0.010982775 0.80323154 4278190080
-0.031887315 -0.012011655 0.80413312 4278190080
-0.031797577 -0.013040534 0.8050347 4278190080
-0.031707834 -0.014069414 0.80593634 4278190080
-0.030967942 -0.014563108 0.80737734 4278190080
-0.030878089 -0.015593295 0.80828005 4278190080
-0.030788235 -0.016623482 0.80918276 4278190080
-0.030698383 -0.017653668 0.81008554 4278190080
-0.030608529 -0.018683854 0.81098825 4278190080
-0.031169401 -0.020242689 0.81134588 4278190080
-0.031079663 -0.02127157 0.81224746 4278190080
-0.030989923 -0.022300448 0.81314903 4278190080
-0.030900184 -0.023329327 0.81405067 4278190080
-0.030810446 -0.024358207 0.81495225 4278190080
-0.030069411 -0.024864975 0.8164047 4278190080
-0.028586658 -0.025886353 0.81931651 4278190080
-0.028496576 -0.026919154 0.82022148 4278190080
-0.027102953 -0.02691816 0.82223749 4278190080
-0.027012644 -0.027953576 0.82314479 4278190080
-0.025618376 -0.027960457 0.8251676 4278190080
-0.025527839 -0.028998489 0.82607716 4278190080
-0.025437301 -0.030036518 0.82698679 4278190080
-0.023951316 -0.031094473 0.82993072 4278190080
-0.022555452 -0.031119656 0.83196956 4278190080
-0.016038291 -0.033935197 0.8435123 4278190080
-0.015946271 -0.034990225 0.84443682 4278190080
-0.015854251 -0.03604525 0.84536135 4278190080
-0.014454851 -0.03611096 0.84743565 4278190080
-0.027238449 0.011163075 0.7961359 4278190080
-0.027147455 0.010119813 0.79705012 4278190080
-0.028168749 0.005879059 0.79874641 4278190080
-0.029372526 0.003730021 0.79860967 4278190080
-0.030576719 0.0015862451 0.79846841 4278190080
-0.03048641 0.00055082992 0.79937577 4278190080
-0.031691328 -0.0015851352 0.7992276 4278190080
-0.031601246 -0.0026179363 0.80013263 4278190080
-0.031511165 -0.0036507377 0.80103767 4278190080
-0.031421084 -0.0046835388 0.80194265 4278190080
-0.032627102 -0.0068063964 0.80178308 4278190080
-0.032537248 -0.0078365831 0.8026858 4278190080
-0.032447394 -0.0088667693 0.80358857 4278190080
-0.033005934 -0.010438062 0.80395555 4278190080
-0.032826453 -0.012495821 0.80575871 4278190080
-0.031998128 -0.014017703 0.80810225 4278190080
-0.031908274 -0.015047889 0.80900502 4278190080
-0.031818423 -0.016078075 0.80990773 4278190080
-0.031728569 -0.017108263 0.81081045 4278190080
-0.031638715 -0.01813845 0.81171322 4278190080
-0.03219828 -0.019697975 0.81206989 4278190080
-0.032108542 -0.020726856 0.81297147 4278190080
-0.032018803 -0.021755734 0.81387305 4278190080
-0.031929065 -0.022784615 0.81477469 4278190080
-0.031839326 -0.023813494 0.81567627 4278190080
-0.031099597 -0.024319569 0.81712961 4278190080
-0.02970954 -0.024306763 0.81913823 4278190080
-0.029619459 -0.025339564 0.82004327 4278190080
-0.028228678 -0.025334572 0.8220588 4278190080
-0.028138369 -0.026369987 0.8229661 4278190080
-0.028048061 -0.027405402 0.8238734 4278190080
-0.02795775 -0.028440818 0.8247807 4278190080
-0.027867442 -0.029476235 0.82568806 4278190080
-0.026475333 -0.02948696 0.82771724 4278190080
-0.023507718 -0.031610589 0.83361787 4278190080
-0.021279605 -0.033230755 0.83806741 4278190080
-0.017093316 -0.033376642 0.84425473 4278190080
-0.017001295 -0.03443167 0.84517926 4278190080
-0.015512493 -0.035551023 0.84817994 4278190080
-0.029300161 0.0074706459 0.79856682 4278190080
-0.029209394 0.0064300015 0.79947871 4278190080
-0.030410556 0.004279579 0.79934013 4278190080
-0.031612135 0.0021344193 0.79919708 4278190080
-0.031521827 0.0010990039 0.80010438 4278190080
-0.032724127 -0.0010383459 0.79995435 4278190080
-0.032543965 -0.0031039482 0.80176443 4278190080
-0.032453883 -0.0041367495 0.80266947 4278190080
-0.033567436 -0.0072911778 0.80341077 4278190080
-0.033477582 -0.0083213644 0.80431348 4278190080
-0.033387728 -0.0093515515 0.80521625 4278190080
-0.033297874 -0.010381738 0.80611897 4278190080
-0.03320802 -0.011411924 0.80702174 4278190080
-0.03311817 -0.012442111 0.80792445 4278190080
-0.032938462 -0.014502484 0.80972993 4278190080
-0.032848608 -0.015532671 0.81063265 4278190080
-0.032758757 -0.016562857 0.81153542 4278190080
-0.032579049 -0.018623231 0.8133409 4278190080
-0.033137422 -0.020182142 0.81369549 4278190080
-0.033047684 -0.021211023 0.81459713 4278190080
-0.032957945 -0.022239901 0.81549871 4278190080
-0.032868203 -0.023268782 0.81640029 4278190080
-0.032129783 -0.023774164 0.81785458 4278190080
-0.030742342 -0.023759974 0.81986505 4278190080
-0.03065226 -0.024792774 0.82077003 4278190080
-0.029264094 -0.024786398 0.8227874 4278190080
-0.029173786 -0.025821812 0.82369471 4278190080
-0.029083477 -0.026857229 0.82460201 4278190080
-0.028993167 -0.027892645 0.82550937 4278190080
-0.027513362 -0.028937403 0.82844776 4278190080
-0.027422825 -0.029975433 0.82935733 4278190080
-0.024550978 -0.031058263 0.83435202 4278190080
-0.02093444 -0.032718379 0.840864 4278190080
-0.019541599 -0.032765605 0.84292829 4278190080
-0.018148342 -0.032818086 0.84499717 4278190080
-0.018056322 -0.033873115 0.8459217 4278190080
-0.016570132 -0.034991082 0.84892422 4278190080
-0.029233975 0.011224466 0.79851836 4278190080
-0.030431572 0.0090622352 0.79838717 4278190080
-0.030340806 0.0080215884 0.79929912 4278190080
-0.030250041 0.006980944 0.80021101 4278190080
-0.031448588 0.0048291367 0.80007058 4278190080
-0.031358048 0.0037911062 0.80098021 4278190080
-0.032557242 0.0016471773 0.80083299 4278190080
-0.033666845 -0.0015243577 0.80158621 4278190080
-0.033576768 -0.0025571589 0.80249119 4278190080
-0.033486687 -0.00358996 0.80339622 4278190080
-0.033396605 -0.0046227612 0.80430126 4278190080
-0.03459762 -0.0067457724 0.80413574 4278190080
-0.034507766 -0.0077759591 0.80503845 4278190080
-0.034417916 -0.0088061457 0.80594116 4278190080
-0.034328062 -0.0098363329 0.80684394 4278190080
-0.033878796 -0.014987266 0.81135762 4278190080
-0.033788942 -0.016017452 0.81226033 4278190080
-0.034166299 -0.01963743 0.81441951 4278190080
-0.03407656 -0.020666309 0.81532115 4278190080
-0.033339676 -0.021168385 0.81677407 4278190080
-0.033249825 -0.022198573 0.81767678 4278190080
-0.033159971 -0.023228759 0.81857955 4278190080
-0.031775143 -0.023213184 0.82059181 4278190080
-0.031685062 -0.024245985 0.82149684 4278190080
-0.030299511 -0.024238225 0.82351601 4278190080
-0.0302092 -0.02527364 0.82442331 4278190080
-0.030118892 -0.026309054 0.82533067 4278190080
-0.028732467 -0.026311783 0.82735896 4278190080
-0.02864193 -0.027349815 0.82826859 4278190080
-0.028551394 -0.028387845 0.82917821 4278190080
-0.028460857 -0.029425874 0.83008778 4278190080
-0.025594238 -0.030505937 0.83508617 4278190080
-0.024763282 -0.032086574 0.83748424 4278190080
-0.023373969 -0.032121949 0.8395412 4278190080
-0.021984238 -0.032162592 0.84160274 4278190080
-0.020594012 -0.032208432 0.84366888 4278190080
-0.019203369 -0.032259531 0.8457396 4278190080
-0.019111348 -0.03331456 0.84666407 4278190080
-0.017720021 -0.033373501 0.84874165 4278190080
-0.016328199 -0.033437643 0.85082388 4278190080
-0.028622583 0.016602829 0.79806703 4278190080
-0.030368229 0.012820054 0.79833835 4278190080
-0.030277235 0.011776793 0.79925251 4278190080
-0.030186241 0.010733533 0.80016673 4278190080
-0.030095248 0.0096902726 0.80108094 4278190080
-0.031290688 0.0075318865 0.80094332 4278190080
-0.032486618 0.0053786947 0.8008011 4278190080
-0.032396082 0.004340664 0.80171067 4278190080
-0.033592656 0.0021953513 0.80156159 4278190080
-0.033502348 0.0011599347 0.80246896 4278190080
-0.034699649 -0.00097756833 0.80231297 4278190080
-0.034609567 -0.0020103694 0.80321801 4278190080
-0.034519486 -0.0030431708 0.80412304 4278190080
-0.034429405 -0.0040759719 0.80502808 4278190080
-0.034549568 -0.018562607 0.8156935 4278190080
-0.034459718 -0.019592794 0.81659627 4278190080
-0.034369864 -0.02062298 0.81749898 4278190080
-0.03428001 -0.021653166 0.81840175 4278190080
-0.034190156 -0.022683354 0.81930447 4278190080
-0.032807942 -0.022666395 0.82131857 4278190080
-0.032717861 -0.023699196 0.8222236 4278190080
-0.031334925 -0.02369005 0.82424462 4278190080
-0.031244617 -0.024725465 0.82515198 4278190080
-0.031154308 -0.025760882 0.82605928 4278190080
-0.029679962 -0.026800256 0.82899904 4278190080
-0.029589424 -0.027838286 0.82990867 4278190080
-0.029498886 -0.028876318 0.8308183 4278190080
-0.028023133 -0.029931348 0.83377182 4278190080
-0.026637498 -0.02995361 0.83582032 4278190080
-0.025898958 -0.030488987 0.83730394 4278190080
-0.02442115 -0.031567547 0.84027809 4278190080
-0.021738214 -0.030598851 0.84348726 4278190080
-0.020350413 -0.030645952 0.84555751 4278190080
-0.020258395 -0.031700976 0.84648204 4278190080
-0.01886991 -0.031755917 0.84855914 4278190080
-0.01748093 -0.031816062 0.85064089 4278190080
-0.017388456 -0.032876316 0.85156995 4278190080
-0.026098443 0.023718942 0.79915017 4278190080
-0.027288415 0.021526488 0.79903936 4278190080
-0.031411488 0.01337238 0.79907244 4278190080
-0.031320494 0.012329119 0.79998666 4278190080
-0.031229502 0.011285859 0.80090088 4278190080
-0.03113851 0.010242599 0.80181503 4278190080
-0.032331333 0.0080828285 0.80167562 4278190080
-0.033524647 0.0059282524 0.80153155 4278190080
-0.033434112 0.0048902216 0.80244112 4278190080
-0.033343572 0.0038521911 0.80335075 4278190080
-0.034537766 0.0017081087 0.80319756 4278190080
-0.034447458 0.00067269208 0.80410486 4278190080
-0.034357145 -0.00036272316 0.80501223 4278190080
-0.035552286 -0.0024963813 0.8048498 4278190080
-0.035759464 -0.015956828 0.81461298 4278190080
-0.03566961 -0.016987016 0.8155157 4278190080
-0.035489902 -0.019047389 0.81732118 4278190080
-0.035400048 -0.020077575 0.81822395 4278190080
-0.035310198 -0.021107761 0.81912667 4278190080
-0.033930827 -0.021086805 0.82114035 4278190080
-0.033840746 -0.022119606 0.82204539 4278190080
-0.033750664 -0.023152407 0.82295042 4278190080
-0.032370344 -0.023141876 0.82497329 4278190080
-0.032280035 -0.024177292 0.82588059 4278190080
-0.032189727 -0.025212707 0.82678789 4278190080
-0.029063778 -0.029380407 0.83450413 4278190080
-0.027680758 -0.029401284 0.83655447 4278190080
-0.026943525 -0.029935967 0.83803898 4278190080
-0.022790626 -0.030041678 0.84422785 4278190080
-0.02140544 -0.030087395 0.84629995 4278190080
-0.020019798 -0.03013834 0.84837663 4278190080
-0.01992755 -0.031195978 0.84930342 4278190080
-0.018541185 -0.031254739 0.85138696 4278190080
-0.018448709 -0.032314993 0.85231608 4278190080
-0.025966568 0.026476564 0.80000067 4278190080
-0.02715347 0.024277497 0.7998926 4278190080
-0.028340826 0.022083659 0.79977995 4278190080
-0.029528677 0.019895013 0.79966271 4278190080
-0.031905711 0.015533451 0.79941446 4278190080
-0.031814605 0.014488884 0.8003298 4278190080
-0.03227276 0.011838185 0.80163503 4278190080
-0.032181766 0.010794925 0.80254918 4278190080
-0.033371974 0.00863377 0.80240792 4278190080
-0.033281211 0.0075931242 0.80331981 4278190080
-0.034472141 0.0054397802 0.80317163 4278190080
-0.034381606 0.0044017495 0.8040812 4278190080
-0.035573181 0.0022562819 0.80392617 4278190080
-0.035482872 0.0012208654 0.80483353 4278190080
-0.035392564 0.00018545013 0.80574083 4278190080
-0.035302252 -0.00084996509 0.80664814 4278190080
-0.036699794 -0.01644161 0.81624067 4278190080
-0.035053708 -0.019507213 0.82096207 4278190080
-0.034963626 -0.020540014 0.82186711 4278190080
-0.034873545 -0.021572815 0.82277215 4278190080
-0.034783464 -0.022605617 0.82367718 4278190080
-0.033405758 -0.022593703 0.82570189 4278190080
-0.03331545 -0.023629118 0.82660919 4278190080
-0.031846561 -0.024663109 0.82955039 4278190080
-0.031756021 -0.025701139 0.83045995 4278190080
-0.030104423 -0.028829465 0.83523643 4278190080
-0.028724018 -0.028848957 0.83728862 4278190080
-0.027988093 -0.02938295 0.83877409 4278190080
-0.027896985 -0.030427516 0.83968937 4278190080
-0.026515516 -0.030458741 0.84175193 4278190080
-0.023843037 -0.029484507 0.84496844 4278190080
-0.022460466 -0.02952884 0.84704238 4278190080
-0.021077439 -0.029578401 0.84912086 4278190080
-0.020985192 -0.030636039 0.85004765 4278190080
-0.019601442 -0.030693414 0.8521331 4278190080
-0.019508967 -0.03175367 0.85306215 4278190080
-0.030578474 0.020450801 0.80040145 4278190080
-0.03048691 0.019401003 0.80132133 4278190080
-0.031672794 0.017218852 0.80119538 4278190080
-0.032859173 0.015041903 0.80106485 4278190080
-0.033407018 0.013433772 0.80145496 4278190080
-0.033316024 0.012390512 0.80236918 4278190080
-0.03322503 0.011347252 0.80328333 4278190080
-0.033134036 0.010303993 0.80419755 4278190080
-0.034321856 0.0081440667 0.80405211 4278190080
-0.034231093 0.0071034217 0.80496401 4278190080
-0.035419635 0.0049513076 0.80481172 4278190080
-0.035329096 0.0039132768 0.80572128 4278190080
-0.036427978 0.0007336234 0.80646944 4278190080
-0.03633767 -0.00030179179 0.80737674 4278190080
-0.036247358 -0.0013372084 0.8082841 4278190080
-0.037819836 -0.014866019 0.81606287 4278190080
-0.036356755 -0.01586202 0.81897378 4278190080
-0.036266673 -0.016894821 0.81987882 4278190080
-0.036086511 -0.018960424 0.82168889 4278190080
-0.034712102 -0.018939281 0.82370853 4278190080
-0.034621794 -0.019974697 0.8246159 4278190080
-0.034531482 -0.021010114 0.8255232 4278190080
-0.034441173 -0.02204553 0.8264305 4278190080
-0.034350865 -0.023080945 0.8273378 4278190080
-0.032975126 -0.023075521 0.82937121 4278190080
-0.03288459 -0.024113551 0.83028084 4278190080
-0.032794055 -0.025151582 0.83119047 4278190080
-0.031417366 -0.025156587 0.833233 4278190080
-0.029858273 -0.027253369 0.83710855 4278190080
-0.029767279 -0.028296631 0.83802271 4278190080
-0.029032659 -0.02882993 0.83950913 4278190080
-0.027654033 -0.028857157 0.84157115 4278190080
-0.027562696 -0.029904338 0.84248883 4278190080
-0.02489545 -0.028927336 0.84570903 4278190080
-0.023515493 -0.028970284 0.84778476 4278190080
-0.022135079 -0.029018462 0.84986514 4278190080
-0.020754173 -0.029071832 0.85195011 4278190080
-0.020661699 -0.030132091 0.85287917 4278190080
-0.020569222 -0.031192344 0.85380828 4278190080
-0.029263521 0.025394609 0.80137748 4278190080
-0.0291715 0.024339581 0.80230194 4278190080
-0.03153671 0.01995679 0.80206007 4278190080
-0.034359284 0.012942838 0.80310327 4278190080
-0.03426829 0.011899578 0.80401748 4278190080
-0.034177296 0.01085632 0.8049317 4278190080
-0.035362501 0.0086950092 0.80478442 4278190080
-0.035271738 0.0076543647 0.80569631 4278190080
-0.035180971 0.0066137183 0.8066082 4278190080
-0.03636713 0.0044628349 0.80645174 4278190080
-0.03627659 0.003424804 0.80736136 4278190080
-0.036186054 0.0023867735 0.80827099 4278190080
-0.037479635 -0.01428243 0.81879556 4278190080
-0.037389554 -0.015315231 0.8197006 4278190080
-0.037299473 -0.016348032 0.82060558 4278190080
-0.035928138 -0.016320275 0.82262254 4278190080
-0.035657208 -0.019426523 0.8253445 4278190080
-0.0355669 -0.020461939 0.8262518 4278190080
-0.035476591 -0.021497356 0.82715911 4278190080
-0.034103695 -0.021487933 0.82919204 4278190080
-0.03401316 -0.022525962 0.83010167 4278190080
-0.032639541 -0.022524353 0.83214152 4278190080
-0.032548778 -0.023564998 0.83305341 4278190080
-0.032458011 -0.024605645 0.8339653 4278190080
-0.032367244 -0.025646288 0.83487725 4278190080
-0.030168334 -0.027232343 0.83932883 4278190080
-0.028792549 -0.027255574 0.84139043 4278190080
-0.028701214 -0.028302755 0.8423081 4278190080
-0.027324786 -0.02833386 0.8443765 4278190080
-0.025947861 -0.028370164 0.84644961 4278190080
-0.023284968 -0.027400877 0.84968257 4278190080
-0.02319272 -0.028458521 0.85060942 4278190080
-0.021814428 -0.028510509 0.85269618 4278190080
-0.021721952 -0.029570766 0.8536253 4278190080
-0.021629477 -0.030631021 0.85455436 4278190080
-0.030226527 0.024898136 0.80304438 4278190080
-0.034857199 0.015103373 0.80345029 4278190080
-0.03540254 0.013495165 0.80383742 4278190080
-0.035311546 0.012451905 0.80475163 4278190080
-0.034583878 0.011969668 0.80619633 4278190080
-0.035129562 0.010365384 0.80658001 4278190080
-0.035038568 0.0093221236 0.80749422 4278190080
-0.036221616 0.0071646604 0.8073405 4278190080
-0.036130849 0.0061240159 0.80825245 4278190080
-0.038422354 -0.014768441 0.82042736 4278190080
-0.038332272 -0.015801243 0.8213324 4278190080
-0.036873244 -0.016807517 0.82425845 4278190080
-0.036692627 -0.018878348 0.82607311 4278190080
-0.036602315 -0.019913765 0.82698041 4278190080
-0.035232265 -0.019900342 0.82901293 4278190080
-0.035141725 -0.020938374 0.82992256 4278190080
-0.035051189 -0.021976404 0.83083212 4278190080
-0.033680186 -0.021973411 0.83287382 4278190080
-0.032308765 -0.021975677 0.83492005 4278190080
-0.032217771 -0.023018938 0.83583426 4278190080
-0.032126777 -0.024062198 0.83674842 4278190080
-0.032035787 -0.025105458 0.83766264 4278190080
-0.031304009 -0.025634758 0.83914858 4278190080
-0.029839732 -0.026701171 0.84212738 4278190080
-0.028466145 -0.026728278 0.84419537 4278190080
-0.027092064 -0.02676058 0.84626794 4278190080
-0.025717564 -0.026798144 0.8483451 4278190080
-0.02434261 -0.026840938 0.85042685 4278190080
-0.02296716 -0.026888933 0.85251319 4278190080
-0.022874683 -0.027949184 0.85344231 4278190080
-0.021498589 -0.028005052 0.85553551 4278190080
-0.033544738 0.02001857 0.80445749 4278190080
-0.034723006 0.017834881 0.80432373 4278190080
-0.035810657 0.014611823 0.80510074 4278190080
-0.035719551 0.013567255 0.80601603 4278190080
-0.035628442 0.012522686 0.80693138 4278190080
-0.035537336 0.01147812 0.80784672 4278190080
-0.03544623 0.010433552 0.80876207 4278190080
-0.035990834 0.0088311899 0.80914253 4278190080
-0.03589984 0.0077879317 0.81005675 4278190080
-0.035808846 0.0067446716 0.81097096 4278190080
-0.037998967 -0.015223928 0.82407975 4278190080
-0.037908658 -0.016259342 0.82498711 4278190080
-0.036270294 -0.019350784 0.82974339 4278190080
-0.036089219 -0.021426847 0.83156258 4278190080
-0.034720834 -0.021422468 0.83360612 4278190080
-0.033352025 -0.021423351 0.8356542 4278190080
-0.033261031 -0.022466611 0.83656842 4278190080
-0.033170041 -0.023509871 0.83748257 4278190080
-0.032439683 -0.024037171 0.83896828 4278190080
-0.032348577 -0.025081739 0.83988363 4278190080
-0.030978249 -0.025099585 0.8419466 4278190080
-0.030886915 -0.026146768 0.84286427 4278190080
-0.029515943 -0.026172489 0.84493411 4278190080
-0.028144475 -0.026203409 0.84700853 4278190080
-0.02677259 -0.026239587 0.84908754 4278190080
-0.025400251 -0.026280997 0.85117114 4278190080
-0.024027415 -0.026327608 0.85325933 4278190080
-0.02393494 -0.027387861 0.85418838 4278190080
-0.022561459 -0.027442344 0.85628343 4278190080
-0.0334193 0.022764692 0.8053273 4278190080
-0.034594532 0.020574355 0.80519623 4278190080
-0.034502972 0.019524561 0.80611616 4278190080
-0.035678852 0.017342104 0.8059783 4278190080
-0.035404846 0.014200556 0.8087312 4278190080
-0.036581904 0.012031138 0.80858177 4278190080
-0.036490794 0.010986571 0.80949712 4278190080
-0.036399689 0.0099420035 0.81041247 4278190080
-0.036308579 0.0088974368 0.81132782 4278190080
-0.036761113 0.0062537366 0.81261927 4278190080
-0.038853768 -0.016746586 0.82662302 4278190080
-0.037489399 -0.016725166 0.82865465 4278190080
-0.035852242 -0.019830881 0.83342654 4278190080
-0.034486279 -0.019827764 0.83547413 4278190080
-0.034395285 -0.020871023 0.83638835 4278190080
-0.034304291 -0.021914283 0.83730251 4278190080
-0.034213301 -0.022957543 0.83821672 4278190080
-0.03348425 -0.023484152 0.83970338 4278190080
-0.033393145 -0.024528719 0.84061867 4278190080
-0.032025434 -0.024545182 0.84268355 4278190080
-0.030657301 -0.024566904 0.84475291 4278190080
-0.029288679 -0.024593825 0.84682691 4278190080
-0.027919635 -0.024626009 0.84890544 4278190080
-0.026550138 -0.024663417 0.85098857 4278190080
-0.025180146 -0.024706028 0.85307634 4278190080
-0.025087669 -0.025766285 0.85400546 4278190080
-0.023717033 -0.025816767 0.85610002 4278190080
-0.032127917 0.027720924 0.80631983 4278190080
-0.034563504 0.024374276 0.80514568 4278190080
-0.034471713 0.023321865 0.80606788 4278190080
-0.037808686 0.014673293 0.80748618 4278190080
-0.036452025 0.014754959 0.80946809 4278190080
-0.038617969 -0.015137577 0.82847548 4278190080
-0.038527429 -0.016175607 0.8293851 4278190080
-0.038436893 -0.017213639 0.83029467 4278190080
-0.036892887 -0.019279938 0.83415884 4278190080
-0.035529539 -0.019275438 0.83620828 4278190080
-0.034802139 -0.019797431 0.83769238 4278190080
-0.034711033 -0.020841999 0.83860773 4278190080
-0.034619924 -0.021886567 0.83952308 4278190080
-0.034528818 -0.022931132 0.84043843 4278190080
-0.03316395 -0.022943597 0.84250283 4278190080
-0.031798664 -0.02296132 0.84457171 4278190080
-0.030432882 -0.02298424 0.8466453 4278190080
-0.030341091 -0.024036653 0.8475675 4278190080
-0.028974663 -0.024067452 0.84964788 4278190080
-0.027607778 -0.024103478 0.85173285 4278190080
-0.026240401 -0.024144704 0.85382247 4278190080
-0.024872605 -0.024191188 0.85591656 4278190080
-0.034262594 0.025022307 0.80786306 4278190080
-0.035432331 0.022826623 0.80773067 4278190080
-0.036602564 0.020636136 0.80759364 4278190080
-0.037773214 0.018450908 0.80745208 4278190080
-0.037499208 0.015309363 0.81020498 4278190080
-0.037407875 0.014262181 0.8111226 4278190080
-0.037316538 0.013214998 0.81204027 4278190080
-0.038488824 0.011048041 0.81188262 4278190080
-0.038397718 0.010003475 0.81279796 4278190080
-0.038306609 0.0089589069 0.81371331 4278190080
-0.038205829 -0.015607061 0.83215541 4278190080
-0.038115066 -0.016647706 0.8330673 4278190080
-0.03584671 -0.019244412 0.83842748 4278190080
-0.035755601 -0.02028898 0.83934283 4278190080
-0.035664495 -0.021333547 0.84025812 4278190080
-0.034302469 -0.021342011 0.84232205 4278190080
-0.032940023 -0.021355735 0.84439057 4278190080
-0.031577084 -0.02137466 0.84646368 4278190080
-0.031485293 -0.022427071 0.84738588 4278190080
-0.030121708 -0.022453867 0.84946579 4278190080
-0.028757669 -0.022485893 0.85155034 4278190080
-0.02866542 -0.023543537 0.85247713 4278190080
-0.02602818 -0.022565609 0.85573316 4278190080
-0.025935477 -0.023628479 0.85666454 4278190080
-0.024569802 -0.023678778 0.85876513 4278190080
-0.032892227 0.028930468 0.80978936 4278190080
-0.034058701 0.026725521 0.80966198 4278190080
-0.036484744 0.023383794 0.80847126 4278190080
-0.03639295 0.022331383 0.80939347 4278190080
-0.037560798 0.020142123 0.80925232 4278190080
-0.03872906 0.017958129 0.80910665 4278190080
-0.038637727 0.016910948 0.81002426 4278190080
-0.038546391 0.015863765 0.81094187 4278190080
-0.038455054 0.014816583 0.81185949 4278190080
-0.038363721 0.013769401 0.81277716 4278190080
-0.039533392 0.01160106 0.81261766 4278190080
-0.039442282 0.010556493 0.81353301 4278190080
-0.039351176 0.0095119253 0.81444836 4278190080
-0.039260071 0.0084673585 0.81536371 4278190080
-0.039799903 0.0068674576 0.81573588 4278190080
-0.03915571 -0.016096763 0.8337996 4278190080
-0.037798047 -0.016084263 0.83584815 4278190080
-0.037707053 -0.017127525 0.83676237 4278190080
-0.035440985 -0.019740427 0.84214133 4278190080
-0.034081385 -0.019750154 0.84420937 4278190080
-0.032721289 -0.019765075 0.84628201 4278190080
-0.032629497 -0.020817488 0.84720421 4278190080
-0.031268753 -0.020840287 0.8492837 4278190080
-0.029907556 -0.020868316 0.85136777 4278190080
-0.029815309 -0.021925954 0.85229456 4278190080
-0.028453389 -0.021961797 0.85438555 4278190080
-0.025821151 -0.020983715 0.85764754 4278190080
-0.025728218 -0.0220492 0.85858124 4278190080
-0.036280625 0.025084395 0.81027246 4278190080
-0.037445363 0.022888554 0.81013405 4278190080
-0.039593574 0.016418168 0.81167877 4278190080
-0.039502237 0.015370986 0.81259644 4278190080
-0.039410904 0.014323805 0.81351405 4278190080
-0.039319567 0.013276622 0.81443167 4278190080
-0.040486854 0.011109512 0.81426805 4278190080
-0.040395744 0.010064945 0.8151834 4278190080
-0.040304638 0.0090203779 0.81609875 4278190080
-0.040843163 0.0074197841 0.81647003 4278190080
-0.040752169 0.006376524 0.81738424 4278190080
-0.041920897 0.0042264424 0.81720579 4278190080
-0.04183013 0.0031857961 0.81811768 4278190080
-0.041739367 0.0021451507 0.81902957 4278190080
-0.0416486 0.0011045057 0.81994146 4278190080
-0.041557834 6.3860265e-05 0.82085341 4278190080
-0.038209166 -0.015004673 0.83715159 4278190080
-0.038118061 -0.01604924 0.83806694 4278190080
-0.038026951 -0.017093807 0.83898222 4278190080
-0.036488168 -0.019186025 0.84287828 4278190080
-0.035131179 -0.019194366 0.84494811 4278190080
-0.033773698 -0.019207904 0.84702259 4278190080
-0.0324158 -0.019226706 0.84910166 4278190080
-0.031057443 -0.019250734 0.85118526 4278190080
-0.030965196 -0.020308377 0.85211205 4278190080
-0.029606121 -0.020340219 0.85420257 4278190080
-0.028246624 -0.020377321 0.85629767 4278190080
-0.026886635 -0.020419624 0.85839736 4278190080
-0.026793702 -0.021485109 0.85933101 4278190080
-0.03492026 0.02899286 0.81221068 4278190080
-0.039477266 0.019154105 0.81256968 4278190080
-0.039385702 0.018104309 0.81348956 4278190080
-0.039294139 0.017054511 0.81440949 4278190080
-0.040458083 0.014878207 0.81425095 4278190080
-0.040366746 0.013831024 0.81516856 4278190080
-0.040275414 0.012783841 0.81608623 4278190080
-0.041440312 0.010617964 0.81591845 4278190080
-0.041349206 0.0095733963 0.81683379 4278190080
-0.041258097 0.0085288296 0.81774914 4278190080
-0.041795429 0.0069288514 0.81811839 4278190080
-0.041704435 0.0058855913 0.81903261 4278190080
-0.041613445 0.0048423307 0.81994677 4278190080
-0.042780012 0.0026960934 0.81976187 4278190080
-0.042689245 0.0016554483 0.82067376 4278190080
-0.042598482 0.00061480294 0.82158571 4278190080
-0.039162625 -0.015496221 0.83880198 4278190080
-0.03771802 -0.016537257 0.84177989 4278190080
-0.037626684 -0.017584439 0.8426975 4278190080
-0.033654865 -0.016558098 0.84799504 4278190080
-0.033562846 -0.017613124 0.84891957 4278190080
-0.032207336 -0.017633153 0.85100275 4278190080
-0.032115087 -0.018690793 0.85192955 4278190080
-0.03075885 -0.018718638 0.85401958 4278190080
-0.029402196 -0.018751746 0.85611421 4278190080
-0.028045051 -0.018790046 0.85821342 4278190080
-0.02795212 -0.019855531 0.85914713 4278190080
-0.039183021 0.019793253 0.8153041 4278190080
-0.039091229 0.01874084 0.8162263 4278190080
-0.040252369 0.016560502 0.81606817 4278190080
-0.041413929 0.014385426 0.81590551 4278190080
-0.041322593 0.013338244 0.81682312 4278190080
-0.04123126 0.012291063 0.81774074 4278190080
-0.04239377 0.010126415 0.8175689 4278190080
-0.042302664 0.009081848 0.81848419 4278190080
-0.042211559 0.0080372803 0.81939954 4278190080
-0.042120449 0.0069927122 0.82031488 4278190080
-0.042029344 0.0059481449 0.82123023 4278190080
-0.042565707 0.0043513956 0.82159513 4278190080
-0.042474713 0.003308136 0.82250929 4278190080
-0.042383719 0.0022648755 0.8234235 4278190080
-0.042292725 0.0012216157 0.82433772 4278190080
-0.042201735 0.00017835575 0.82525188 4278190080
-0.038856536 -0.014935671 0.84159917 4278190080
-0.038765199 -0.015982855 0.84251678 4278190080
-0.034709893 -0.015999541 0.84873748 4278190080
-0.033357218 -0.016015574 0.85082018 4278190080
-0.033264972 -0.017073214 0.85174698 4278190080
-0.031911582 -0.017097058 0.8538366 4278190080
-0.030557776 -0.017126162 0.85593081 4278190080
-0.029203469 -0.017160466 0.85802954 4278190080
-0.029110536 -0.018225951 0.85896325 4278190080
-0.029017605 -0.019291436 0.8598969 4278190080
-0.041210603 0.016066492 0.81772685 4278190080
-0.041119039 0.015016696 0.81864673 4278190080
-0.042278443 0.012845467 0.81847763 4278190080
-0.042187106 0.011798285 0.8193953 4278190080
-0.042095773 0.010751102 0.82031292 4278190080
-0.042004436 0.0097039202 0.82123053 4278190080
-0.043165017 0.0075457306 0.82104999 4278190080
-0.043073907 0.0065011634 0.82196528 4278190080
-0.042982802 0.0054565961 0.82288063 4278190080
-0.042891696 0.0044120289 0.82379597 4278190080
-0.042800587 0.003367461 0.82471132 4278190080
-0.042709481 0.0023228941 0.82562667 4278190080
-0.043244995 0.0007306831 0.82598603 4278190080
-0.034414861 -0.015455633 0.85156447 4278190080
-0.033064313 -0.015475479 0.85365361 4278190080
-0.031713348 -0.015500584 0.85574734 4278190080
-0.030361885 -0.015530889 0.85784566 4278190080
-0.030268954 -0.016596373 0.85877937 4278190080
-0.039856594 0.019933434 0.81971365 4278190080
-0.040920679 0.016697949 0.82047409 4278190080
-0.042077273 0.014522686 0.82030541 4278190080
-0.041985709 0.01347289 0.82122535 4278190080
-0.041894145 0.012423093 0.82214528 4278190080
-0.043051619 0.010258324 0.82196748 4278190080
-0.042960286 0.0092111416 0.8228851 4278190080
-0.042868949 0.0081639607 0.82380271 4278190080
-0.042777613 0.0071167783 0.82472032 4278190080
-0.04268628 0.0060695959 0.825638 4278190080
-0.042594943 0.0050224136 0.82655561 4278190080
-0.043754045 0.0028759125 0.82636172 4278190080
-0.043662939 0.0018313451 0.82727706 4278190080
-0.043571834 0.00078677776 0.82819241 4278190080
-0.043480724 -0.00025778965 0.82910776 4278190080
-0.043389618 -0.0013023571 0.83002311 4278190080
-0.032868922 -0.013875005 0.85556394 4278190080
-0.031520303 -0.01390131 0.85766178 4278190080
-0.031427372 -0.014966795 0.85859549 4278190080
-0.041789506 0.015150298 0.82305914 4278190080
-0.041697714 0.014097886 0.82398134 4278190080
-0.042852379 0.011929085 0.8238039 4278190080
-0.042760815 0.010879288 0.82472384 4278190080
-0.042669252 0.0098294904 0.82564378 4278190080
-0.042577691 0.0087796943 0.82656372 4278190080
-0.043733455 0.0066239969 0.82637489 4278190080
-0.043642122 0.005576815 0.8272925 4278190080
-0.043550786 0.0045296326 0.82821012 4278190080
-0.043459449 0.0034824503 0.82912779 4278190080
-0.043368116 0.0024352681 0.8300454 4278190080
-0.043276779 0.0013880861 0.83096302 4278190080
-0.044434186 -0.00074933848 0.83075815 4278190080
-0.044343077 -0.0017939059 0.8316735 4278190080
-0.044251971 -0.0028384733 0.83258885 4278190080
-0.032771651 -0.011206249 0.85654426 4278190080
-0.03267872 -0.012271734 0.8574779 4278190080
-0.032585789 -0.013337217 0.85841155 4278190080
-0.04159857 0.016830441 0.82489651 4278190080
-0.041506547 0.015775414 0.82582104 4278190080
-0.042658333 0.013602645 0.82564414 4278190080
-0.042566542 0.012550235 0.82656634 4278190080
-0.04247475 0.011497823 0.82748854 4278190080
-0.042382959 0.010445411 0.82841074 4278190080
-0.042291164 0.009393 0.82933295 4278190080
-0.043444358 0.0072358865 0.82914227 4278190080
-0.043352794 0.0061860899 0.83006221 4278190080
-0.04326123 0.0051362934 0.83098215 4278190080
-0.044415299 0.0029896721 0.83078229 4278190080
-0.044323962 0.0019424901 0.83169997 4278190080
-0.044232629 0.00089530798 0.83261758 4278190080
