# .PCD v0.7 - Point Cloud Data file format
VERSION 0.7
FIELDS x y z
SIZE 4 4 4
TYPE F F F
COUNT 1 1 1
WIDTH 1379
HEIGHT 1
VIEWPOINT 0 0 0 1 0 0 0
POINTS 1379
DATA ascii
0.048118692 0.019927248 0.82658106
0.048130888 0.020179119 0.82685065
0.048142437 0.020434849 0.82711965
0.048152946 0.020695174 0.8273865
0.048161857 0.02096127 0.827649
0.04816835 0.021234939 0.82790405
0.048171151 0.021518914 0.82814664
0.048168194 0.021817431 0.8283686
0.048155848 0.02213724 0.82855499
0.048127223 0.022489075 0.82867581
0.048069682 0.02288649 0.82867116
0.047971781 0.02332403 0.82847255
0.047844123 0.023777034 0.8281197
0.047625333 0.024504162 0.82747549
0.047652204 0.024415249 0.82755494
0.047941998 0.016870713 0.82314938
0.04793863 0.016808325 0.82308066
0.047934499 0.016731791 0.82299638
0.047929518 0.016639439 0.82289469
0.047923654 0.016530786 0.82277507
0.047916938 0.016406341 0.82263798
0.047909431 0.016267259 0.82248485
0.047901213 0.016115012 0.82231718
0.047892366 0.015951138 0.8221367
0.047882967 0.015777124 0.82194501
0.04787308 0.015594317 0.82174361
0.047862764 0.015403921 0.82153368
0.047852054 0.015207008 0.82131636
0.047840975 0.015004553 0.82109261
0.047829531 0.014797476 0.82086301
0.0478177 0.014586698 0.82062835
0.047805425 0.014373203 0.82038903
0.047791094 0.014133094 0.82011694
0.047775969 0.013893922 0.81984115
0.047759719 0.013657332 0.81956106
0.047741853 0.013425607 0.81927592
0.047721647 0.013202068 0.81898415
0.04769798 0.012991843 0.81868362
0.047669057 0.012803451 0.81837112
0.04763177 0.012652354 0.81804162
0.04758044 0.012569221 0.81768775
0.04750517 0.01261459 0.81730253
0.047398604 0.012855443 0.81689823
0.047270242 0.013250076 0.81649476
0.047054682 0.013960234 0.81585509
0.04708112 0.013872756 0.81593329
0.046531241 0.021538796 0.8189795
0.046527874 0.021476407 0.81891078
0.046523746 0.021399874 0.8188265
0.046518762 0.021307521 0.81872481
0.046512898 0.021198867 0.81860518
0.046506181 0.021074422 0.81846809
0.046498679 0.020935336 0.81831497
0.046490461 0.02078308 0.8181473
0.046481621 0.020619186 0.81796682
0.046472237 0.02044512 0.81777519
0.046462387 0.020262197 0.8175739
0.046452142 0.020071562 0.81736422
0.046441574 0.019874187 0.81714731
0.046430752 0.019670876 0.81692427
0.046419766 0.019462284 0.81669605
0.046408713 0.019248929 0.81646371
0.046397716 0.019031208 0.81622815
0.046385717 0.018783383 0.81596291
0.046374355 0.01853176 0.81569827
0.046364013 0.018275619 0.81543571
0.046355244 0.018013798 0.81517738
0.046348855 0.017744526 0.81492645
0.046346098 0.017465113 0.81468779
0.046349008 0.01717139 0.81446934
0.046361156 0.016856723 0.81428593
0.046389323 0.016510539 0.81416708
0.046445936 0.016119508 0.81417167
0.046542268 0.015688997 0.81436706
0.046667874 0.01524327 0.81471425
0.046883147 0.014527824 0.81534809
0.046856709 0.014615308 0.81526995
0.046560474 0.022080485 0.81957603
0.046563841 0.022142874 0.81964469
0.046567969 0.022219406 0.81972897
0.046572953 0.02231176 0.81983072
0.046578817 0.022420414 0.81995034
0.046585534 0.022544859 0.82008737
0.04659304 0.022683939 0.82024056
0.046601258 0.022836188 0.82040823
0.046610106 0.02300006 0.82058871
0.046619505 0.023174075 0.8207804
0.046629392 0.023356883 0.8209818
0.046639707 0.023547279 0.82119173
0.046650417 0.023744192 0.82140899
0.046661492 0.023946647 0.8216328
0.04667294 0.024153722 0.82186234
0.046684772 0.024364501 0.82209706
0.046697047 0.024577996 0.82233638
0.046711378 0.024818106 0.82260847
0.046726502 0.025057277 0.82288426
0.046742752 0.025293866 0.82316428
0.046760615 0.02552559 0.82344949
0.046780825 0.02574913 0.82374126
0.046804491 0.025959356 0.82404178
0.046833415 0.026147747 0.82435429
0.046870701 0.026298843 0.82468379
0.046922032 0.026381979 0.82503766
0.046997301 0.026336608 0.82542288
0.047103867 0.026095755 0.82582718
0.047232229 0.025701122 0.82623065
0.047447789 0.024990965 0.82687026
0.047421351 0.025078444 0.82679212
0.04797123 0.017412404 0.82374591
0.047974598 0.017474793 0.82381463
0.047978725 0.017551325 0.82389885
0.04798371 0.017643679 0.8240006
0.047989573 0.017752333 0.82412022
0.04799629 0.017876778 0.82425725
0.048003793 0.018015862 0.82441044
0.048012007 0.01816812 0.82457811
0.048020851 0.018332014 0.82475853
0.048030235 0.01850608 0.82495016
0.048040085 0.018689003 0.8251515
0.048050329 0.018879637 0.82536119
0.048060898 0.019077012 0.82557809
0.048071716 0.019280324 0.82580113
0.048082706 0.019488916 0.8260293
0.048093759 0.019702269 0.8262617
0.048104756 0.019919991 0.82649726
0.048116755 0.020167815 0.82676244
0.048128117 0.020419437 0.82702714
0.048138458 0.020675581 0.8272897
0.048147228 0.020937402 0.82754803
0.048153613 0.021206673 0.82779896
0.048156369 0.021486085 0.82803762
0.048153464 0.021779807 0.82825607
0.048141316 0.022094477 0.82843941
0.048113149 0.022440661 0.82855833
0.048056532 0.022831691 0.82855374
0.047960203 0.023262201 0.82835829
0.047834598 0.023707928 0.8280111
0.047619324 0.024423374 0.82737732
0.047645763 0.024335889 0.82745546
0.047930703 0.0169133 0.82312018
0.047927391 0.016851932 0.82305259
0.04792333 0.016776649 0.82296968
0.047918428 0.016685806 0.82286966
0.047912661 0.016578929 0.82275194
0.047906052 0.016456518 0.82261717
0.047898669 0.016319711 0.82246649
0.047890589 0.016169952 0.82230157
0.047881883 0.016008759 0.82212406
0.047872636 0.015837589 0.82193547
0.047862913 0.015657771 0.82173735
0.047852766 0.015470487 0.82153088
0.047842231 0.015276793 0.82131714
0.047831334 0.015077649 0.82109702
0.047820076 0.014873957 0.82087117
0.047808439 0.014666625 0.82064033
0.047796365 0.01445662 0.82040495
0.047782268 0.014220437 0.82013726
0.04776739 0.013985174 0.819866
0.047751404 0.013752453 0.81959057
0.047733832 0.013524516 0.81931001
0.047713958 0.013304632 0.81902301
0.047690678 0.013097843 0.81872743
0.047662225 0.012912532 0.81842005
0.047625549 0.012763905 0.81809592
0.047575057 0.01268213 0.81774783
0.047501016 0.012726759 0.81736887
0.047396194 0.012963673 0.81697118
0.047269929 0.013351855 0.81657434
0.047057893 0.014050403 0.81594515
0.047083899 0.013964354 0.81602204
0.046543013 0.021505065 0.81901848
0.046539702 0.021443697 0.81895089
0.046535637 0.021368414 0.81886798
0.046530735 0.021277571 0.81876791
0.046524968 0.021170693 0.81865025
0.046518363 0.021048283 0.81851542
0.04651098 0.020911472 0.8183648
0.046502899 0.020761704 0.81819987
0.046494205 0.02060049 0.81802237
0.046484973 0.020429268 0.81783384
0.046475284 0.020249337 0.81763583
0.046465207 0.020061819 0.81742954
0.04645481 0.019867672 0.81721622
0.046444166 0.019667683 0.81699681
0.046433359 0.019462502 0.81677234
0.046422485 0.019252636 0.81654376
0.046411667 0.019038472 0.81631207
0.046399865 0.018794701 0.81605119
0.046388689 0.018547192 0.81579083
0.046378519 0.018295236 0.81553257
0.046369892 0.018037695 0.81527847
0.046363611 0.017772827 0.81503171
0.046360899 0.017497983 0.81479686
0.046363756 0.01720906 0.81458205
0.046375707 0.016899537 0.81440163
0.046403412 0.016559012 0.81428468
0.046459101 0.016174374 0.81428921
0.046553858 0.015750904 0.81448144
0.046677411 0.015312463 0.81482297
0.046889167 0.014608714 0.81544644
0.046863161 0.014694768 0.81536955
0.046571765 0.022037899 0.81960523
0.046575077 0.022099268 0.81967282
0.046579141 0.022174548 0.81975567
0.046584044 0.022265393 0.81985575
0.04658981 0.02237227 0.81997341
0.046596419 0.022494679 0.82010823
0.046603799 0.022631487 0.82025892
0.046611883 0.022781247 0.82042384
0.046620585 0.022942441 0.82060134
0.046629831 0.02311361 0.82078987
0.046639558 0.023293428 0.820988
0.046649706 0.023480712 0.82119453
0.046660237 0.023674406 0.82140827
0.046671137 0.023873551 0.82162839
0.046682395 0.024077242 0.82185417
0.046694033 0.024284573 0.82208502
0.046706107 0.024494579 0.82232046
0.046720203 0.024730762 0.82258809
0.046735082 0.024966026 0.82285941
0.046751063 0.025198746 0.82313484
0.046768636 0.025426682 0.8234154
0.046788514 0.025646567 0.82370239
0.046811793 0.025853356 0.82399797
0.046840247 0.026038667 0.82430536
0.046876922 0.026187293 0.82462949
0.046927415 0.026269069 0.82497758
0.047001455 0.02622444 0.82535648
0.047106277 0.025987525 0.82575417
0.047232538 0.025599344 0.82615107
0.047444575 0.024900796 0.82678026
0.047418572 0.024986845 0.82670337
0.047959458 0.017446134 0.82370692
0.04796277 0.017507503 0.82377452
0.047966834 0.017582783 0.82385743
0.047971737 0.017673628 0.82395744
0.047977503 0.017780505 0.82407516
0.047984108 0.017902916 0.82420993
0.047991492 0.018039726 0.82436061
0.047999572 0.018189495 0.82452554
0.048008267 0.018350709 0.82470304
0.048017498 0.018521931 0.82489151
0.048027188 0.018701863 0.82508957
0.048037264 0.018889379 0.82529581
0.048047662 0.019083528 0.82550919
0.048058305 0.019283516 0.8257286
0.048069112 0.019488698 0.82595301
0.048079986 0.019698564 0.82618159
0.048090801 0.019912727 0.82641333
0.048102606 0.020156499 0.82667416
0.048113782 0.020404007 0.82693452
0.048123952 0.020655962 0.82719278
0.04813258 0.020913502 0.82744688
0.048138861 0.021178372 0.8276937
0.048141573 0.021453217 0.82792848
0.048138712 0.021742137 0.82814336
0.048126761 0.022051662 0.82832372
0.04809906 0.022392185 0.82844073
0.048043367 0.022776823 0.8284362
0.047948614 0.023200296 0.82824397
0.047825061 0.023638736 0.82790244
0.047613304 0.024342485 0.82727897
0.04763931 0.024256431 0.8273558
0.047919396 0.016955942 0.82309091
0.04791614 0.016895594 0.82302445
0.047912143 0.016821565 0.82294297
0.047907323 0.016732235 0.82284456
0.047901653 0.016627135 0.82272881
0.047895156 0.016506763 0.82259625
0.047887895 0.016372232 0.82244813
0.047879945 0.016224965 0.82228595
0.047871388 0.016066454 0.82211137
0.047862295 0.015898133 0.82192594
0.047852736 0.015721306 0.82173115
0.047842756 0.01553714 0.82152808
0.047832396 0.015346671 0.82131791
0.047821682 0.015150839 0.82110143
0.04781061 0.014950538 0.8208794
0.047799166 0.014746657 0.82065237
0.047787294 0.014540146 0.82042086
0.047773428 0.014307894 0.82015771
0.047758799 0.014076547 0.81989092
0.047743082 0.013847698 0.81962001
0.0477258 0.013623555 0.81934416
0.047706254 0.013407329 0.81906193
0.047683362 0.013203982 0.8187713
0.047655385 0.013021755 0.81846899
0.04761932 0.012875602 0.81815028
0.047569666 0.012795188 0.81780797
0.047496859 0.012839073 0.81743532
0.047393784 0.013072046 0.81704432
0.04726962 0.013453767 0.81665403
0.047061112 0.01414069 0.81603533
0.047086686 0.014056074 0.81611091
0.0465548 0.02147129 0.81905746
0.04655154 0.021410942 0.81899101
0.046547547 0.021336915 0.81890947
0.046542726 0.021247583 0.81881112
0.046537057 0.021142483 0.81869537
0.04653056 0.021022109 0.81856281
0.046523299 0.020887576 0.81841469
0.046515353 0.0207403 0.8182525
0.046506803 0.020581769 0.81807792
0.046497725 0.020413397 0.81789261
0.046488196 0.02023646 0.81769782
0.046478286 0.020052064 0.81749499
0.046468064 0.019861145 0.81728524
0.046457596 0.019664487 0.81706947
0.046446972 0.01946272 0.81684875
0.046436276 0.019256346 0.81662399
0.046425641 0.019045748 0.81639612
0.046414033 0.018806031 0.81613958
0.046403043 0.018562643 0.81588358
0.046393041 0.018314879 0.8156296
0.046384558 0.018061627 0.81537974
0.046378382 0.017801166 0.81513703
0.046375714 0.017530894 0.81490618
0.046378527 0.017246781 0.81469488
0.04639028 0.016942408 0.8145175
0.046417523 0.016607551 0.81440246
0.046472285 0.016229315 0.81440693
0.046565462 0.015812891 0.81459594
0.046686959 0.015381747 0.81493181
0.046895191 0.014689709 0.8155449
0.046869617 0.014774331 0.81546932
0.046583075 0.021995258 0.8196345
0.046586331 0.022055604 0.8197009
0.046590324 0.022129633 0.81978244
0.046595149 0.022218965 0.81988084
0.046600819 0.022324063 0.81999654
0.046607316 0.022444436 0.8201291
0.046614576 0.022578966 0.82027727
0.046622522 0.022726234 0.82043946
0.046631083 0.022884745 0.82061404
0.046640173 0.023053065 0.82079941
0.046649735 0.023229891 0.82099426
0.046659715 0.023414059 0.82119727
0.046670076 0.023604529 0.8214075
0.046680789 0.02380036 0.82162398
0.046691861 0.024000661 0.82184601
0.046703305 0.024204543 0.82207304
0.046715178 0.024411052 0.82230449
0.046729039 0.024643306 0.8225677
0.046743669 0.024874652 0.82283449
0.046759389 0.0251035 0.82310534
0.046776667 0.025327643 0.82338119
0.046796214 0.025543869 0.82366341
0.046819106 0.025747217 0.82395411
0.046847086 0.025929444 0.82425636
0.046883151 0.026075596 0.82457513
0.046932802 0.02615601 0.82491744
0.047005609 0.026112126 0.82529002
0.047108687 0.025879154 0.82568109
0.047232851 0.025497433 0.82607138
0.04744136 0.02481051 0.82669008
0.047415785 0.024895126 0.8266145
0.047947671 0.01747991 0.82366794
0.047950927 0.017540256 0.8237344
0.047954924 0.017614285 0.82381588
0.047959745 0.017703617 0.82391429
0.047965415 0.017808715 0.82402998
0.047971912 0.017929088 0.82416254
0.047979172 0.018063623 0.82431072
0.047987118 0.018210899 0.8244729
0.047995668 0.018369431 0.82464743
0.048004746 0.018537801 0.8248328
0.048014276 0.018714739 0.82502753
0.048024185 0.018899135 0.82523036
0.048034407 0.019090053 0.82544017
0.048044872 0.019286713 0.82565594
0.0480555 0.01948848 0.82587665
0.048066191 0.019694854 0.82610142
0.048076831 0.019905452 0.82632923
0.048088439 0.020145167 0.82658577
0.048099428 0.020388557 0.82684183
0.048109431 0.020636318 0.82709581
0.048117913 0.020889573 0.82734561
0.04812409 0.021150034 0.82758832
0.048126757 0.021420306 0.82781923
0.048123945 0.021704417 0.82803053
0.048112191 0.022008792 0.82820791
0.048084948 0.022343649 0.82832289
0.048030186 0.022721885 0.82831848
0.047937006 0.023138309 0.82812941
0.047815513 0.023569452 0.8277936
0.04760728 0.02426149 0.8271805
0.047632851 0.024176868 0.82725608
0.047908071 0.016998641 0.82306165
0.047904871 0.016939316 0.82299632
0.047900945 0.016866542 0.82291615
0.047896206 0.016778724 0.82281947
0.04789063 0.016675407 0.82270569
0.047884244 0.016557075 0.82257539
0.047877107 0.016424824 0.82242972
0.047869291 0.016280051 0.82227027
0.047860879 0.016124228 0.82209867
0.047851942 0.01595876 0.8219164
0.04784254 0.01578493 0.82172489
0.047832731 0.015603884 0.82152528
0.047822546 0.015416642 0.82131863
0.047812015 0.01522413 0.82110584
0.04780113 0.015027222 0.82088757
0.047789879 0.014826796 0.82066441
0.047778208 0.014623785 0.82043684
0.047764581 0.014395468 0.82017809
0.047750197 0.014168042 0.81991583
0.047734749 0.013943071 0.81964958
0.047717761 0.013722727 0.81937838
0.047698546 0.013510166 0.81910092
0.047676042 0.013310265 0.81881517
0.047648538 0.013131126 0.81851804
0.047613084 0.012987449 0.8182047
0.047564272 0.012908398 0.81786823
0.047492698 0.01295154 0.8175019
0.047391366 0.013180564 0.81711745
0.047269307 0.013555816 0.81673384
0.047064334 0.014231098 0.81612557
0.047089472 0.014147916 0.8161999
0.046566602 0.02143747 0.81909651
0.046563398 0.021378146 0.81903118
0.046559472 0.021305371 0.81895107
0.046554733 0.021217553 0.81885433
0.046549156 0.021114236 0.81874061
0.046542771 0.020995902 0.81861025
0.046535637 0.020863649 0.81846464
0.046527825 0.020718869 0.81830519
0.046519417 0.020563023 0.81813359
0.046510495 0.020397505 0.81795138
0.046501126 0.020223565 0.81775993
0.046491385 0.020042295 0.81756055
0.046481334 0.019854613 0.81735432
0.046471048 0.019661285 0.81714225
0.046460599 0.019462937 0.81692523
0.04645009 0.019260062 0.81670427
0.046439633 0.019053033 0.81648028
0.046428222 0.018817378 0.81622809
0.046417419 0.018578114 0.81597644
0.046407584 0.018334551 0.81572676
0.046399247 0.018085588 0.81548113
0.046393175 0.017829541 0.81524253
0.046390552 0.01756385 0.81501555
0.046393316 0.017284552 0.81480789
0.046404868 0.016985336 0.81463349
0.046431649 0.016656155 0.81452042
0.046485487 0.016284328 0.81452483
0.046577085 0.01587496 0.81471062
0.046696521 0.015451123 0.81504077
0.046901226 0.014770813 0.81564349
0.046876084 0.014854002 0.81556916
0.046594396 0.021952558 0.81966376
0.0465976 0.022011882 0.81972909
0.046601526 0.022084657 0.8198092
0.046606265 0.022172473 0.81990594
0.046611842 0.022275792 0.82001972
0.046618227 0.022394124 0.82015002
0.046625365 0.022526376 0.82029563
0.04663318 0.022671146 0.82045507
0.046641592 0.022826971 0.82062674
0.046650529 0.02299244 0.82080895
0.046659932 0.023166269 0.82100052
0.04666974 0.023347314 0.82120013
0.046679921 0.023534557 0.82140672
0.046690457 0.023727069 0.82161957
0.046701338 0.023923976 0.82183784
0.046712592 0.024124403 0.822061
0.046724264 0.024327414 0.82228857
0.046737891 0.02455573 0.82254726
0.04675227 0.024783157 0.82280952
0.046767723 0.025008127 0.82307583
0.04678471 0.025228472 0.82334703
0.046803925 0.025441034 0.82362443
0.04682643 0.025640935 0.82391018
0.046853933 0.025820073 0.82420737
0.046889387 0.02596375 0.82452065
0.0469382 0.0260428 0.82485718
0.047009774 0.02599966 0.82522351
0.047111105 0.025770634 0.8256079
0.047233161 0.025395382 0.82599157
0.047438137 0.024720101 0.82659978
0.047412995 0.024803283 0.82652551
0.04793587 0.01751373 0.82362884
0.04793907 0.017573053 0.82369417
0.047943 0.017645828 0.82377434
0.047947738 0.017733645 0.82387102
0.047953311 0.017836964 0.8239848
0.0479597 0.017955298 0.8241151
0.047966834 0.018087551 0.82426077
0.047974646 0.018232331 0.82442015
0.047983054 0.018388176 0.82459176
0.047991976 0.018553693 0.82477403
0.048001345 0.018727632 0.82496542
0.048011087 0.018908905 0.82516485
0.048021134 0.019096587 0.82537109
0.048031423 0.019289913 0.82558316
0.048041869 0.01948826 0.82580012
0.048052382 0.019691138 0.82602113
0.048062839 0.019898167 0.82624507
0.048074249 0.020133821 0.82649726
0.048085053 0.020373086 0.82674897
0.048094887 0.020616649 0.82699865
0.048103224 0.020865612 0.82724422
0.048109297 0.021121658 0.82748282
0.048111919 0.02138735 0.82770979
0.048109155 0.021666646 0.82791752
0.048097603 0.021965861 0.82809192
0.048070822 0.022295045 0.82820493
0.048016984 0.022666872 0.82820058
0.047925387 0.023076238 0.82801473
0.04780595 0.023500076 0.82768458
0.047601245 0.024180386 0.82708192
0.047626384 0.024097197 0.82715625
0.047896735 0.0170414 0.82303232
0.047893587 0.016983101 0.82296813
0.047889728 0.016911583 0.82288933
0.047885071 0.016825281 0.82279432
0.047879592 0.016723746 0.8226825
0.047873314 0.016607456 0.82255441
0.047866303 0.016477488 0.8224113
0.047858622 0.016335215 0.82225466
0.047850356 0.016182082 0.82208598
0.047841571 0.016019469 0.82190686
0.047832333 0.01584864 0.82171863
0.047822692 0.01567072 0.82152247
0.047812685 0.015486711 0.8213194
0.047802333 0.015297522 0.82111025
0.047791637 0.015104013 0.82089579
0.047780581 0.014907047 0.82067645
0.047769111 0.014707541 0.82045281
0.047755718 0.014483166 0.82019854
0.047741584 0.014259665 0.81994081
0.0477264 0.014038579 0.81967914
0.047709707 0.013822038 0.81941265
0.047690824 0.013613146 0.81913996
0.047668707 0.013416695 0.81885916
0.047641676 0.013240649 0.81856716
0.047606837 0.013099453 0.81825924
0.047558866 0.013021766 0.81792855
0.047488529 0.013064164 0.81756854
0.047388949 0.013289234 0.81719077
0.047268998 0.013658009 0.81681371
0.04706756 0.014321633 0.81621599
0.047092266 0.014239887 0.81628901
0.046578418 0.021403603 0.81913567
0.046575274 0.021345302 0.81907147
0.046571415 0.021273784 0.81899267
0.046566758 0.021187482 0.81889766
0.046561278 0.021085948 0.81878585
0.046555001 0.020969657 0.81865782
0.04654799 0.020839687 0.81851465
0.046540312 0.020697406 0.818358
0.04653205 0.020544251 0.81818938
0.04652328 0.02038159 0.81801027
0.046514075 0.020210654 0.81782216
0.046504501 0.020032512 0.81762618
0.046494626 0.019848069 0.81742352
0.046484515 0.019658079 0.81721509
0.046474248 0.019463157 0.81700188
0.046463918 0.019263782 0.81678468
0.046453644 0.019060327 0.81656456
0.04644243 0.01882874 0.81631672
0.046431813 0.018593607 0.81606942
0.04642215 0.018354248 0.81582403
0.046413954 0.018109584 0.81558269
0.046407986 0.017857956 0.81534821
0.046405409 0.017596852 0.81512517
0.046408128 0.017322376 0.81492102
0.046419479 0.017028326 0.81474966
0.046445798 0.016704826 0.81463856
0.046498705 0.016339418 0.81464285
0.046588723 0.015937118 0.81482548
0.046706099 0.015520597 0.8151499
0.046907268 0.014852031 0.81574219
0.046882562 0.014933784 0.81566918
0.046605736 0.021909798 0.81969309
0.046608884 0.021968098 0.81975728
0.046612743 0.022039616 0.81983602
0.0466174 0.022125918 0.81993109
0.04662288 0.022227453 0.82004291
0.046629153 0.022343742 0.82017094
0.046636168 0.02247371 0.82031405
0.046643849 0.022615982 0.82047075
0.046652116 0.022769118 0.82063943
0.0466609 0.022931729 0.82081854
0.046670139 0.023102557 0.82100677
0.04667978 0.023280479 0.82120293
0.046689786 0.023464488 0.82140595
0.046700139 0.023653677 0.8216151
0.046710834 0.023847185 0.82182962
0.046721891 0.024044152 0.8220489
0.046733361 0.024243658 0.82227254
0.046746753 0.024468033 0.82252681
0.046760887 0.024691533 0.82278454
0.046776071 0.02491262 0.82304627
0.046792764 0.02512916 0.82331276
0.046811648 0.025338052 0.82358539
0.046833765 0.025534503 0.82386619
0.046860792 0.025710549 0.82415825
0.046895634 0.025851745 0.82446617
0.046943605 0.025929432 0.82479686
0.047013942 0.025887035 0.82515687
0.047113523 0.025661964 0.82553464
0.047233474 0.02529319 0.82591164
0.047434911 0.024629567 0.82650942
0.047410205 0.024711313 0.82643634
0.047924049 0.017547596 0.82358974
0.047927197 0.017605897 0.82365394
0.047931056 0.017677415 0.82373267
0.047935713 0.017763717 0.82382774
0.047941193 0.017865252 0.82393956
0.04794747 0.017981542 0.82406759
0.047954481 0.018111512 0.8242107
0.047962159 0.018253794 0.8243674
0.047970422 0.018406948 0.82453603
0.047979191 0.018569609 0.82471514
0.047988396 0.018740544 0.82490325
0.04799797 0.018918687 0.82509917
0.048007846 0.01910313 0.82530189
0.048017956 0.019293118 0.82551032
0.048028223 0.019488042 0.82572353
0.048038553 0.019687416 0.82594067
0.048048828 0.019890873 0.82616079
0.048060041 0.020122457 0.82640862
0.048070658 0.020357592 0.82665598
0.048080321 0.020596951 0.82690132
0.048088517 0.020841615 0.82714272
0.048094485 0.021093242 0.8273772
0.048097063 0.021354347 0.82760024
0.048094343 0.021628823 0.82780433
0.048082992 0.021922873 0.82797575
0.048056673 0.022246372 0.82808685
0.048003767 0.02261178 0.82808256
0.047913749 0.023014082 0.82789993
0.047796372 0.023430603 0.82757545
0.047595203 0.024099167 0.82698321
0.047619909 0.024017416 0.82705623
0.047885377 0.017084222 0.82300293
0.047882289 0.017026948 0.82293987
0.047878496 0.016956689 0.82286251
0.047873922 0.016871905 0.82276911
0.047868539 0.016772157 0.82265925
0.047862373 0.016657913 0.82253349
0.047855482 0.016530231 0.82239288
0.047847938 0.016390461 0.82223892
0.047839817 0.016240021 0.82207328
0.047831185 0.01608027 0.82189727
0.04782211 0.015912445 0.82171237
0.047812641 0.015737655 0.82151967
0.04780281 0.015556882 0.82132018
0.04779264 0.015371022 0.82111472
0.047782131 0.015180918 0.82090396
0.047771268 0.014987417 0.82068855
0.047759999 0.01479142 0.82046884
0.047746845 0.014570992 0.82021904
0.04773296 0.014351423 0.81996584
0.047718041 0.014134226 0.81970876
0.047701642 0.013921495 0.81944692
0.04768309 0.013716278 0.81917906
0.047661364 0.013523283 0.81890321
0.04763481 0.013350333 0.81861633
0.047600582 0.013211621 0.81831384
0.047553457 0.013135302 0.81798893
0.047484357 0.013176952 0.8176353
0.047386523 0.013398063 0.81726414
0.047268685 0.013760351 0.81689376
0.04707079 0.014412301 0.81630653
0.047095064 0.014331993 0.8163783
0.046590257 0.021369684 0.81917483
0.046587165 0.02131241 0.81911176
0.046583373 0.021242151 0.8190344
0.046578798 0.021157367 0.818941
0.046573415 0.021057619 0.81883121
0.04656725 0.020943373 0.81870538
0.046560362 0.020815689 0.81856477
0.046552818 0.020675912 0.81841087
0.046544701 0.020525452 0.81824517
0.046536088 0.020365652 0.81806928
0.046527043 0.020197723 0.81788445
0.04651764 0.020022715 0.81769192
0.046507936 0.019841516 0.81749278
0.046498004 0.01965487 0.81728804
0.046487916 0.019463375 0.81707859
0.046477769 0.019267509 0.81686521
0.046467673 0.019067632 0.81664902
0.046456657 0.018840121 0.81640553
0.046446227 0.018609123 0.81616253
0.046436734 0.018373976 0.81592149
0.046428684 0.018133614 0.81568438
0.046422821 0.017886413 0.81545401
0.046420287 0.017629903 0.8152349
0.046422958 0.017360255 0.81503439
0.046434112 0.017071377 0.81486601
0.046459969 0.016753569 0.81475687
0.046511944 0.016394589 0.81476104
0.046600379 0.015999366 0.81494045
0.046715688 0.015590173 0.81525922
0.046913318 0.014933368 0.81584108
0.046889048 0.015013682 0.81576931
0.046617091 0.021866975 0.81972247
0.046620183 0.021924252 0.81978554
0.046623975 0.021994511 0.8198629
0.04662855 0.022079295 0.81995624
0.046633933 0.022179043 0.82006609
0.046640098 0.022293286 0.82019192
0.04664699 0.022420967 0.82033253
0.046654534 0.022560738 0.82048643
0.046662655 0.022711178 0.82065213
0.046671286 0.02287093 0.82082808
0.046680361 0.023038752 0.82101303
0.046689831 0.023213543 0.82120574
0.046699662 0.023394316 0.82140523
0.046709832 0.023580177 0.82161069
0.046720337 0.02377028 0.82182139
0.046731204 0.023963783 0.82203686
0.046742469 0.024159778 0.82225657
0.046755627 0.024380207 0.82250637
0.046769511 0.024599776 0.82275957
0.046784431 0.024816973 0.82301664
0.046800829 0.025029704 0.82327843
0.046819381 0.025234921 0.82354629
0.046841107 0.025427915 0.8238222
0.046867661 0.025600865 0.82410908
0.046901889 0.025739577 0.82441157
0.046949014 0.025815897 0.82473642
0.047018114 0.025774246 0.82509011
0.047115944 0.025553135 0.82546127
0.047233786 0.025190849 0.82583165
0.047431678 0.024538899 0.82641888
0.047407407 0.024619207 0.82634711
0.047912214 0.017581513 0.82355058
0.047915306 0.017638788 0.82361364
0.047919098 0.017709048 0.82369101
0.047923673 0.017793832 0.82378435
0.047929056 0.017893581 0.8238942
0.047935221 0.018007824 0.82402003
0.047942109 0.018135509 0.82416064
0.047949653 0.018275287 0.82431453
0.047957767 0.018425748 0.82448024
0.047966383 0.018585546 0.82465613
0.047975428 0.018753476 0.82484096
0.047984831 0.018928485 0.82503349
0.047994535 0.019109681 0.82523257
0.048004467 0.019296329 0.82543731
0.048014555 0.019487824 0.82564682
0.048024703 0.019683691 0.82586014
0.048034798 0.019883567 0.82607639
0.048045814 0.020111078 0.82631987
0.048056245 0.020342076 0.82656282
0.048065737 0.020577224 0.82680392
0.048073787 0.020817585 0.82704103
0.048079651 0.021064786 0.8272714
0.04808218 0.021321297 0.82749051
0.048079513 0.021590944 0.82769102
0.048068359 0.02187982 0.8278594
0.048042502 0.02219763 0.82796854
0.047990527 0.02255661 0.82796431
0.047902092 0.022951832 0.8277849
0.047786783 0.023361025 0.82746619
0.047589153 0.024017831 0.82688433
0.047613423 0.023937516 0.82695603
0.047874007 0.01712711 0.82297349
0.047870971 0.017070862 0.82291156
0.047867246 0.017001862 0.82283556
0.047862753 0.0169186 0.82274389
0.047857467 0.016820639 0.82263601
0.047851413 0.016708445 0.82251245
0.047844645 0.016583053 0.8223744
0.047837235 0.016445789 0.82222325
0.047829259 0.016298048 0.82206053
0.047820784 0.016141161 0.82188767
0.047811873 0.015976347 0.82170612
0.047802571 0.015804691 0.82151687
0.047792915 0.015627161 0.82132095
0.047782928 0.015444634 0.82111919
0.047772612 0.015257939 0.82091224
0.047761943 0.015067907 0.82070065
0.047750875 0.014875426 0.82048488
0.047737956 0.014658951 0.82023954
0.047724321 0.01444332 0.81999087
0.04770967 0.014230018 0.81973845
0.047693562 0.014021101 0.81948131
0.047675345 0.013819565 0.81921822
0.047654007 0.013630032 0.81894732
0.04762793 0.013460184 0.81866556
0.047594316 0.013323959 0.81836849
0.047548037 0.013249008 0.81804949
0.047480173 0.013289912 0.81770211
0.047384098 0.013507058 0.81733763
0.047268372 0.013862847 0.81697392
0.047074027 0.014503106 0.81639719
0.047097862 0.014424237 0.81646764
0.046602111 0.021335717 0.81921405
0.046599075 0.021279469 0.81915212
0.04659535 0.021210469 0.81907612
0.046590857 0.021127207 0.81898445
0.046585571 0.021029247 0.81887656
0.046579517 0.020917051 0.818753
0.046572749 0.020791657 0.81861496
0.046565343 0.020654386 0.8184638
0.046557374 0.020506624 0.81830108
0.046548914 0.020349691 0.81812829
0.046540033 0.020184772 0.81794679
0.046530794 0.020012902 0.81775779
0.046521265 0.019834954 0.81756222
0.046511512 0.019651655 0.81736112
0.046501607 0.019463595 0.81715542
0.046491642 0.01927124 0.81694591
0.046481725 0.019074949 0.81673354
0.046470907 0.018851517 0.81649441
0.046460662 0.018624661 0.81625581
0.046451341 0.018393731 0.81601906
0.046443436 0.018157681 0.81578618
0.046437677 0.017914914 0.81555998
0.046435192 0.017663004 0.81534475
0.046437811 0.017398192 0.81514788
0.046448767 0.017114496 0.81498253
0.046474159 0.016802385 0.8148753
0.046525203 0.016449844 0.81487948
0.04661205 0.016061708 0.81505567
0.046725292 0.015659854 0.81536865
0.046919379 0.015014828 0.81594008
0.046895541 0.015093702 0.81586963
0.046628464 0.02182409 0.81975186
0.0466315 0.021880336 0.81981379
0.046635225 0.021949336 0.81988978
0.046639718 0.0220326 0.81998152
0.046645004 0.022130558 0.82008934
0.046651058 0.022242755 0.8202129
0.046657827 0.022368146 0.820351
0.046665233 0.02250541 0.82050216
0.046673212 0.022653151 0.82066488
0.046681684 0.022810038 0.82083768
0.046690598 0.022974852 0.82101929
0.0466999 0.023146508 0.82120854
0.046709552 0.023324039 0.82140446
0.046719544 0.023506565 0.82160622
0.046729859 0.02369326 0.82181317
0.046740528 0.023883292 0.82202476
0.046751596 0.024075773 0.82224053
0.046764515 0.024292247 0.82248586
0.04677815 0.024507878 0.82273448
0.046792801 0.024721181 0.82298696
0.046808906 0.024930097 0.82324409
0.046827126 0.025131634 0.82350713
0.046848465 0.025321167 0.82377809
0.046874542 0.025491016 0.82405978
0.046908155 0.025627241 0.82435691
0.046954434 0.025702192 0.82467592
0.047022298 0.025661286 0.82502323
0.047118373 0.025444141 0.82538772
0.047234099 0.025088351 0.82575148
0.047428444 0.024448093 0.82632816
0.047404606 0.024526961 0.82625771
0.04790036 0.017615482 0.8235113
0.047903396 0.01767173 0.82357329
0.047907121 0.01774073 0.82364923
0.047911614 0.017823992 0.82374096
0.0479169 0.017921953 0.82384878
0.047922954 0.018034147 0.82397234
0.047929719 0.018159542 0.82411045
0.047937125 0.018296814 0.82426161
0.047945097 0.018444575 0.82442433
0.047953557 0.018601509 0.82459706
0.047962438 0.018766426 0.82477856
0.047971677 0.018938296 0.82496762
0.047981203 0.019116245 0.82516319
0.047990959 0.019299544 0.82536423
0.048000865 0.019487604 0.82556999
0.04801083 0.019679958 0.8257795
0.048020747 0.019876251 0.82599187
0.048031565 0.020099681 0.82623094
0.048041806 0.020326536 0.8264696
0.04805113 0.020557467 0.82670629
0.048059035 0.020793518 0.82693923
0.048064794 0.021036284 0.82716542
0.048067279 0.021288196 0.8273806
0.048064657 0.021553008 0.82757753
0.048053704 0.021836704 0.82774287
0.048028313 0.022148814 0.8278501
0.047977269 0.022501355 0.82784593
0.047890421 0.022889491 0.82766974
0.04777718 0.023291346 0.8273567
0.047583092 0.02393637 0.82678527
0.047606926 0.023857497 0.82685572
0.047862615 0.017170064 0.82294405
0.047859635 0.017114846 0.82288325
0.047855981 0.017047107 0.82280868
0.04785157 0.016965367 0.82271862
0.047846381 0.0168692 0.82261276
0.047840435 0.016759057 0.82249147
0.047833793 0.016635958 0.82235587
0.047826517 0.016501205 0.82220751
0.047818687 0.016356166 0.82204777
0.047810368 0.01620215 0.82187808
0.047801618 0.016040349 0.8216998
0.047792487 0.015871834 0.82151401
0.04778301 0.01569755 0.82132173
0.047773205 0.015518361 0.8211236
0.047763076 0.015335081 0.82092047
0.0477526 0.015148525 0.82071275
0.047741737 0.014959564 0.82050091
0.047729053 0.014747049 0.82026011
0.047715668 0.014535362 0.82001597
0.047701284 0.014325961 0.81976813
0.047685474 0.014120866 0.81951571
0.047667589 0.013923015 0.8192575
0.047646642 0.013736949 0.81899148
0.047621042 0.013570207 0.81871492
0.047588039 0.013436474 0.81842327
0.047542606 0.013362894 0.81811005
0.047475986 0.013403051 0.81776911
0.047381669 0.013616224 0.81741124
0.047268059 0.013965506 0.81705415
0.047077268 0.014594054 0.81648803
0.047100667 0.014516628 0.81655723
0.046613984 0.021301694 0.81925339
0.046611004 0.021246476 0.81919259
0.046607345 0.021178739 0.81911796
0.046602935 0.021096999 0.81902796
0.046597745 0.02100083 0.81892204
0.046591803 0.020890687 0.81880075
0.046585161 0.020767586 0.81866521
0.046577889 0.020632826 0.81851679
0.046570063 0.020487767 0.81835711
0.046561759 0.020333704 0.81818748
0.046553038 0.020171802 0.81800932
0.046543971 0.020003075 0.81782371
0.046534617 0.019828381 0.81763172
0.046525043 0.019648435 0.81743431
0.046515316 0.019463815 0.81723237
0.046505533 0.019274978 0.81702667
0.046495799 0.019082276 0.81681818
0.046485178 0.018862933 0.81658345
0.046475124 0.018640226 0.81634921
0.046465971 0.018413519 0.81611681
0.046458211 0.018181786 0.81588817
0.046452556 0.017943459 0.81566608
0.046450116 0.017696155 0.81545484
0.04645269 0.017436188 0.81526154
0.046463445 0.017157679 0.81509918
0.046488371 0.01685128 0.81499398
0.04653848 0.016505186 0.81499803
0.04662374 0.01612415 0.815171
0.04673491 0.015729645 0.81547832
0.046925448 0.015096417 0.81603926
0.046902049 0.015173848 0.81597012
0.046639856 0.021781135 0.81978136
0.046642836 0.021836353 0.81984216
0.046646491 0.021904092 0.81991673
0.046650901 0.021985831 0.82000673
0.046656091 0.022081999 0.82011265
0.046662036 0.022192143 0.82023394
0.046668679 0.02231524 0.82036948
0.046675954 0.022449993 0.8205179
0.046683785 0.022595033 0.82067764
0.046692103 0.02274905 0.82084727
0.046700854 0.02291085 0.82102555
0.046709985 0.023079365 0.82121134
0.046719462 0.023253649 0.82140368
0.046729267 0.023432838 0.82160175
0.046739396 0.023616118 0.82180494
0.046749871 0.023802673 0.82201266
0.046760734 0.023991635 0.8222245
0.046773419 0.02420415 0.8224653
0.046786804 0.024415838 0.82270938
0.046801187 0.024625238 0.82295728
0.046816997 0.024830332 0.8232097
0.046834882 0.025028184 0.82346791
0.04685583 0.025214249 0.82373387
0.04688143 0.025380991 0.82401049
0.046914428 0.025514724 0.82430214
0.046959862 0.025588306 0.8246153
0.047026485 0.025548149 0.8249563
0.047120802 0.025334975 0.8253141
0.047234412 0.024985693 0.8256712
0.047425203 0.024357146 0.82623738
0.047401801 0.02443457 0.82616818
0.047888488 0.017649503 0.82347202
0.047891468 0.017704723 0.82353282
0.047895122 0.01777246 0.82360744
0.047899533 0.017854201 0.82369745
0.047904722 0.017950369 0.82380337
0.047910668 0.018060513 0.82392466
0.04791731 0.018183613 0.8240602
0.047924582 0.018318374 0.82420856
0.047932405 0.018463433 0.8243683
0.047940712 0.018617496 0.82453793
0.04794943 0.018779397 0.82471609
0.047958497 0.018948125 0.8249017
0.047967855 0.019122817 0.82509369
0.047977429 0.019302765 0.8252911
0.047987152 0.019487385 0.82549304
0.047996938 0.019676222 0.82569873
0.048006669 0.019868921 0.82590717
0.048017289 0.020088267 0.82614195
0.048027348 0.020310974 0.8263762
0.048036501 0.02053768 0.8266086
0.048044261 0.020769412 0.82683718
0.048049916 0.021007739 0.82705927
0.048052356 0.021255042 0.82727057
0.048049781 0.021515012 0.82746387
0.048039027 0.021793518 0.82762617
0.048014101 0.02209992 0.82773143
0.047963988 0.022446012 0.82772738
0.047878731 0.02282705 0.8275544
0.047767557 0.023221554 0.82724708
0.047577024 0.023854781 0.82668608
0.047600422 0.023777351 0.82675529
0.047851205 0.017213089 0.82291454
0.047848281 0.017158901 0.82285488
0.047844693 0.017092427 0.82278168
0.047840364 0.017012212 0.82269335
0.047835272 0.01691784 0.8225894
0.047829438 0.016809752 0.82247037
0.047822919 0.01668895 0.82233733
0.047815781 0.016556714 0.82219172
0.0478081 0.01641438 0.82203496
0.047799934 0.016263237 0.82186848
0.047791347 0.016104458 0.82169354
0.047782388 0.015939087 0.82151121
0.047773086 0.015768055 0.82132244
0.047763463 0.01559221 0.82112807
0.047753524 0.01541235 0.82092869
0.047743246 0.015229276 0.82072484
0.047732584 0.015043842 0.820517
0.047720138 0.014835292 0.82028067
0.047706999 0.014627555 0.82004112
0.047692887 0.014422062 0.81979787
0.047677368 0.014220795 0.81955016
0.047659818 0.014026636 0.81929678
0.047639262 0.013844042 0.81903577
0.047614139 0.013680412 0.81876433
0.047581755 0.013549175 0.81847811
0.04753717 0.013476968 0.81817079
0.047471792 0.013516374 0.81783617
0.047379233 0.01372557 0.81748503
0.047267742 0.014068334 0.81713456
0.047080517 0.014685152 0.81657898
0.04710348 0.014609171 0.81664687
0.046625875 0.021267617 0.81929272
0.046622951 0.021213429 0.81923306
0.046619363 0.021146955 0.81915987
0.046615034 0.02106674 0.81907153
0.046609942 0.020972367 0.81896758
0.046604108 0.020864278 0.81884855
0.046597589 0.020743474 0.81871551
0.046590455 0.020611228 0.8185699
0.046582777 0.020468878 0.8184132
0.046574626 0.020317689 0.81824672
0.046566069 0.020158809 0.81807184
0.046557169 0.019993231 0.81788975
0.04654799 0.019821798 0.81770134
0.046538595 0.019645208 0.81750762
0.046529051 0.019464035 0.81730944
0.046519451 0.019278722 0.81710762
0.046509899 0.019089617 0.816903
0.046499476 0.018874366 0.81667268
0.046489608 0.018655816 0.81644279
0.046480626 0.01843334 0.81621468
0.046473008 0.018205931 0.81599033
0.046467461 0.017972052 0.81577241
0.046465065 0.017729364 0.81556511
0.046467591 0.017474247 0.81537539
0.046478145 0.017200937 0.81521606
0.046502609 0.016900254 0.81511283
0.046551783 0.01656062 0.81511682
0.046635453 0.016186694 0.81528658
0.046744548 0.01579955 0.81558812
0.046931528 0.01517814 0.81613863
0.046908565 0.015254126 0.81607074
0.046651267 0.02173811 0.81981087
0.046654191 0.021792298 0.81987053
0.046657775 0.021858772 0.81994373
0.046662103 0.021938987 0.82003206
0.0466672 0.02203336 0.82013595
0.04667303 0.022141447 0.82025498
0.046679549 0.022262247 0.82038802
0.046686687 0.022394486 0.82053369
0.046694372 0.022536818 0.82069045
0.046702538 0.02268796 0.82085693
0.046711124 0.022846742 0.82103187
0.046720084 0.023012113 0.8212142
0.046729386 0.023183145 0.82140291
0.046739008 0.02335899 0.82159734
0.046748947 0.023538848 0.82179672
0.046759225 0.023721922 0.8220005
0.046769887 0.023907358 0.8222084
0.046782333 0.024115907 0.82244474
0.046795473 0.024323644 0.82268429
0.046809584 0.024529137 0.82292747
0.0468251 0.024730405 0.82317519
0.046842653 0.024924563 0.82342863
0.046863209 0.025107156 0.82368964
0.046888333 0.025270786 0.82396108
0.046920717 0.025402024 0.82424724
0.046965301 0.025474232 0.82455462
0.047030676 0.025434824 0.82488924
0.047123235 0.025225628 0.82524037
0.047234729 0.024882864 0.82559079
0.047421955 0.024266047 0.82614636
0.047398992 0.024342028 0.82607853
0.047876596 0.017683582 0.82343268
0.047879521 0.01773777 0.82349235
0.047883108 0.017804245 0.82356554
0.047887437 0.017884459 0.82365388
0.04789253 0.017978832 0.82375777
0.047898363 0.01808692 0.8238768
0.047904879 0.018207723 0.82400984
0.047912017 0.018339969 0.82415545
0.047919694 0.018482322 0.82431221
0.047927845 0.018633509 0.82447869
0.047936402 0.018792389 0.82465351
0.047945298 0.018957967 0.82483566
0.047954481 0.019129401 0.82502401
0.047963876 0.019305989 0.82521778
0.04797342 0.019487165 0.82541597
0.047983021 0.019672478 0.82561779
0.047992572 0.019861583 0.82582235
0.048002996 0.020076834 0.82605273
0.048012864 0.020295383 0.82628262
0.048021846 0.02051786 0.82651067
0.04802946 0.020745268 0.82673502
0.048035011 0.020979147 0.82695299
0.048037402 0.021221835 0.8271603
0.048034877 0.021476952 0.82735002
0.048024327 0.021750262 0.82750928
0.047999863 0.022050945 0.82761258
0.047950689 0.02239058 0.82760859
0.047867019 0.022764506 0.82743883
0.047757924 0.023151647 0.82713729
0.047570944 0.023773059 0.82658678
0.047593907 0.023697073 0.82665461
0.047839776 0.017256189 0.82288498
0.047836907 0.017203033 0.82282645
0.047833391 0.017137825 0.82275462
0.047829144 0.017059138 0.82266802
0.047824148 0.016966563 0.82256603
0.047818426 0.016860534 0.82244927
0.04781203 0.016742034 0.82231879
0.04780503 0.016612316 0.82217592
0.04779749 0.016472694 0.82202214
0.047789481 0.016324431 0.82185882
0.047781058 0.016168674 0.82168722
0.04777227 0.016006453 0.82150841
0.047763143 0.015838681 0.82132322
0.047753707 0.015666185 0.82113254
0.047743954 0.015489752 0.82093698
0.047733873 0.015310165 0.820737
0.047723416 0.015128263 0.8205331
0.047711205 0.014923686 0.82030129
0.047698319 0.014719906 0.82006627
0.047684472 0.014518328 0.81982768
0.047669251 0.014320894 0.81958473
0.047652036 0.014130435 0.81933612
0.047631871 0.013951319 0.81908005
0.047607224 0.013790806 0.8188138
0.047575459 0.013662069 0.81853306
0.047531724 0.013591236 0.81823158
0.047467593 0.013629893 0.81790334
0.047376797 0.013835104 0.81755888
0.04726743 0.014171339 0.81721514
0.047083769 0.014776407 0.81667012
0.047106292 0.014701873 0.8167367
0.046637788 0.02123348 0.81933218
0.04663492 0.021180324 0.81927365
0.0466314 0.021115117 0.81920183
0.046627153 0.021036429 0.81911516
0.046622157 0.020943854 0.81901324
0.046616435 0.020837825 0.81889647
0.046610042 0.020719323 0.81876594
0.046603043 0.020589596 0.81862313
0.04659551 0.020449957 0.81846935
0.046587516 0.020301647 0.81830609
0.046579123 0.020145794 0.81813455
0.04657039 0.019983372 0.81795591
0.046561386 0.019815203 0.81777108
0.04655217 0.019641979 0.81758106
0.046542808 0.019464254 0.81738663
0.046533391 0.019282473 0.81718862
0.046524018 0.019096969 0.81698799
0.046513796 0.018885819 0.81676197
0.046504114 0.018671433 0.81653649
0.046495304 0.018453194 0.81631279
0.046487834 0.018230118 0.81609267
0.046482392 0.018000692 0.81587893
0.046480045 0.017762627 0.81567556
0.046482522 0.017512372 0.81548941
0.046492871 0.017244268 0.81533319
0.046516869 0.016949313 0.81523186
0.046565108 0.016616147 0.81523579
0.04664718 0.016249344 0.81540227
0.0467542 0.015869576 0.81569815
0.046937618 0.015260004 0.81623816
0.046915092 0.015334542 0.81617159
0.046662692 0.02169501 0.81984043
0.046665564 0.021748167 0.81989896
0.046669081 0.021813374 0.81997073
0.046673328 0.021892061 0.82005739
0.046678323 0.021984635 0.82015938
0.046684045 0.022090664 0.82027608
0.046690442 0.022209164 0.82040662
0.046697441 0.022338884 0.82054949
0.046704981 0.022478504 0.82070321
0.046712991 0.022626769 0.82086653
0.046721414 0.022782523 0.82103819
0.046730202 0.022944745 0.821217
0.046739325 0.023112519 0.82140213
0.046748765 0.023285015 0.82159287
0.046758518 0.023461446 0.82178843
0.046768598 0.023641033 0.82198834
0.046779055 0.023822935 0.82219225
0.046791267 0.024027513 0.82242411
0.046804152 0.024231292 0.82265908
0.046817999 0.024432871 0.82289767
0.046833217 0.024630304 0.82314068
0.046850435 0.024820764 0.82338929
0.0468706 0.024999879 0.82364529
0.046895243 0.025160393 0.82391155
0.046927013 0.025289129 0.82419235
0.046970747 0.025359962 0.82449383
0.047034878 0.025321307 0.82482207
0.047125675 0.025116095 0.82516652
0.047235042 0.02477986 0.82551026
0.047418702 0.024174793 0.82605529
0.047396179 0.024249326 0.82598865
0.047864683 0.017717719 0.82339323
0.047867551 0.017770875 0.82345176
0.047871072 0.017836083 0.82352358
0.047875319 0.017914768 0.82361025
0.047880314 0.018007344 0.82371217
0.047886036 0.018113373 0.82382894
0.047892429 0.018231876 0.82395941
0.047899429 0.018361602 0.82410228
0.047906961 0.018501243 0.824256
0.047914956 0.01864955 0.82441932
0.047923349 0.018805403 0.82459086
0.047932077 0.018967828 0.8247695
0.047941085 0.019135995 0.82495427
0.047950301 0.019309221 0.82514435
0.047959663 0.019486945 0.82533872
0.047969081 0.019668726 0.82553673
0.04797845 0.019854229 0.82573742
0.047988676 0.02006538 0.82596338
0.047998354 0.020279767 0.82618892
0.048007164 0.020498006 0.82641262
0.048014637 0.020721082 0.82663268
0.04802008 0.020950506 0.82684648
0.048022427 0.02118857 0.82704985
0.048019949 0.021438828 0.82723594
0.0480096 0.021706931 0.82739222
0.047985602 0.022001887 0.82749349
0.047937363 0.022335052 0.82748961
0.047855288 0.022701854 0.82732308
0.047748271 0.023081621 0.82702726
0.047564853 0.023691196 0.82648724
0.04758738 0.023616657 0.82655382
0.047828328 0.017299365 0.82285535
0.047825515 0.017247243 0.82279795
0.047822066 0.017183304 0.82272756
0.047817901 0.017106147 0.82264262
0.047813002 0.017015373 0.82254261
0.047807392 0.016911408 0.82242817
0.047801122 0.016795212 0.8223002
0.047794256 0.016668018 0.82216012
0.047786865 0.016531112 0.82200933
0.047779009 0.016385732 0.82184917
0.04777075 0.016233008 0.8216809
0.047762133 0.016073942 0.82150555
0.047753185 0.015909433 0.82132399
0.047743931 0.015740294 0.82113701
0.047734369 0.015567292 0.82094526
0.047724482 0.015391199 0.82074916
0.04771423 0.015212836 0.82054925
0.047702257 0.015012238 0.82032192
0.04768962 0.014812424 0.82009149
0.047676045 0.014614766 0.81985754
0.047661118 0.014421174 0.8196193
0.047644239 0.014234419 0.81937551
0.047624465 0.014058787 0.81912446
0.047600299 0.013901398 0.81886339
0.047569152 0.013775165 0.81858814
0.047526266 0.013705711 0.8182925
0.047463384 0.013743615 0.81797063
0.047374353 0.013944834 0.81763285
0.047267113 0.014274527 0.81729579
0.047087025 0.014867825 0.81676143
0.047109112 0.014794741 0.8168267
0.046649721 0.021199282 0.81937164
0.046646908 0.02114716 0.81931424
0.046643458 0.021083221 0.81924385
0.046639293 0.021006066 0.81915891
0.046634395 0.020915292 0.81905895
0.046628784 0.020811325 0.81894445
0.046622515 0.020695128 0.81881648
0.046615653 0.020567926 0.81867641
0.046608265 0.020431001 0.81852567
0.046600427 0.020285578 0.81836557
0.046592198 0.020132756 0.81819737
0.046583638 0.019973492 0.81802219
0.046574809 0.019808596 0.81784099
0.046565767 0.019638741 0.81765461
0.046556588 0.019464476 0.81746399
0.046547353 0.01928623 0.81726986
0.046538167 0.019104335 0.81707305
0.046528142 0.018897291 0.8168515
0.04651865 0.018687077 0.81663036
0.046510011 0.018473083 0.81641102
0.046502683 0.018254347 0.81619519
0.046497349 0.018029386 0.81598556
0.046495046 0.017795952 0.81578618
0.046497475 0.017550563 0.81560367
0.046507627 0.017287675 0.81545049
0.046531156 0.016998459 0.81535113
0.046578456 0.016671775 0.815355
0.046658933 0.016312107 0.81551826
0.046763867 0.015939727 0.8158083
0.04694372 0.015342014 0.81633782
0.046921633 0.015415102 0.81627256
0.046674144 0.021651834 0.81987
0.046676956 0.021703957 0.81992739
0.046680406 0.021767896 0.81999785
0.046684571 0.02184505 0.82008278
0.046689469 0.021935824 0.82018274
0.04669508 0.022039792 0.82029724
0.046701349 0.022155985 0.82042521
0.046708215 0.022283182 0.82056528
0.046715606 0.022420086 0.82071608
0.046723459 0.022565465 0.82087618
0.046731718 0.022718191 0.8210445
0.046740338 0.022877257 0.82121986
0.046749286 0.023041766 0.82140142
0.04675854 0.023210905 0.82158834
0.046768103 0.023383906 0.82178015
0.046777986 0.023560001 0.82197618
0.046788242 0.023738364 0.82217616
0.046800215 0.023938959 0.82240349
0.046812851 0.024138775 0.82263386
0.046826426 0.024336433 0.82286781
0.046841349 0.024530025 0.82310611
0.046858232 0.02471678 0.82334983
0.046878006 0.02489241 0.82360089
0.046902169 0.025049802 0.82386196
0.046933319 0.025176033 0.82413727
0.046976205 0.025245488 0.82443291
0.047039088 0.025207585 0.82475477
0.047128119 0.025006365 0.82509249
0.047235355 0.024676671 0.82542956
0.047415446 0.024083374 0.82596397
0.047393359 0.024156459 0.82589871
0.047852751 0.017751917 0.82335371
0.047855563 0.017804038 0.82341111
0.047859013 0.017867977 0.82348156
0.047863178 0.017945133 0.8235665
0.047868073 0.018035907 0.82366645
0.047873687 0.018139875 0.82378095
0.047879957 0.018256072 0.82390893
0.047886819 0.018383274 0.824049
0.047894206 0.018520199 0.82419974
0.047902044 0.018665621 0.82435983
0.047910273 0.018818442 0.82452804
0.047918834 0.018977705 0.82470322
0.047927663 0.019142602 0.82488441
0.0479367 0.019312458 0.82507074
0.047945879 0.019486723 0.82526141
0.047955118 0.019664969 0.82545555
0.047964305 0.019846864 0.8256523
0.047974329 0.020053906 0.82587391
0.047983821 0.020264123 0.82609499
0.04799246 0.020478116 0.82631439
0.047999784 0.020696852 0.82653016
0.048005123 0.020921813 0.82673979
0.048007425 0.021155247 0.82693923
0.048004996 0.021400636 0.82712168
0.047994845 0.021663524 0.82727492
0.047971316 0.021952741 0.82737422
0.047924016 0.022279425 0.82737041
0.047843538 0.02263909 0.82720715
0.047738601 0.02301147 0.82691705
0.047558751 0.023609186 0.82638752
0.047580838 0.023536097 0.82645285
