# .PCD v0.7 - Point Cloud Data file format
VERSION 0.7
FIELDS x y z rgba
SIZE 4 4 4 4
TYPE F F F U
COUNT 1 1 1 1
WIDTH 1020
HEIGHT 1
VIEWPOINT 0 0 0 1 0 0 0
POINTS 1020
DATA ascii
0.018884154 0.00069941307 0.80300003 4294433742
0.020282978 0.00069941307 0.80300003 4294565582
0.021681806 0.00069941307 0.80300003 4294499789
0.02308063 0.00069941307 0.80300003 4293774533
0.024479458 0.00069941307 0.80300003 4293708740
0.025942737 0.00070115511 0.80500007 4294493604
0.027345048 0.00070115511 0.80500007 4294958267
0.028747357 0.00070115511 0.80500007 4294964451
0.030149668 0.00070115511 0.80500007 4294963937
0.031551979 0.00070115511 0.80500007 4294964185
0.032954291 0.00070115511 0.80500007 4294963156
0.034356602 0.00070115511 0.80500007 4294961376
0.035758913 0.00070115511 0.80500007 4294962404
0.03716122 0.00070115511 0.80500007 4294965747
0.038563531 0.00070115511 0.80500007 4294967295
0.039965838 0.00070115511 0.80500007 4294967295
0.041368149 0.00070115511 0.80500007 4294967295
0.04277046 0.00070115511 0.80500007 4294967295
0.044172771 0.00070115511 0.80500007 4294967039
0.045575082 0.00070115511 0.80500007 4294947980
0.046977393 0.00070115511 0.80500007 4284024576
0.048499897 0.00070289709 0.80700004 4285071360
-0.03178715 0.0021191433 0.81100005 4291018945
-0.030374385 0.0021191433 0.81100005 4288096860
-0.028961625 0.0021191433 0.81100005 4284088352
-0.027548863 0.0021191433 0.81100005 4286644224
-0.0261361 0.0021191433 0.81100005 4289929504
-0.024723338 0.0021191433 0.81100005 4290010920
-0.023253089 0.0021139171 0.80900002 4291392572
-0.021843811 0.0021139171 0.80900002 4290673285
-0.020434532 0.0021139171 0.80900002 4291462802
-0.019025255 0.0021139171 0.80900002 4290544541
-0.017615976 0.0021139171 0.80900002 4289623695
-0.016206698 0.0021139171 0.80900002 4289166202
-0.01479742 0.0021139171 0.80900002 4289890182
-0.013388142 0.0021139171 0.80900002 4290806668
-0.011978864 0.0021139171 0.80900002 4289030257
-0.010569585 0.0021139171 0.80900002 4290332194
-0.0091603082 0.0021139171 0.80900002 4286055680
-0.0077510295 0.0021139171 0.80900002 4288544768
-0.0063260738 0.002108691 0.80700004 4288610304
-0.0049202796 0.002108691 0.80700004 4288741376
-0.0035144854 0.002108691 0.80700004 4288741376
-0.002108691 0.002108691 0.80700004 4288282624
-0.00070289709 0.002108691 0.80700004 4288020480
0.00070289709 0.002108691 0.80700004 4288086016
0.002108691 0.002108691 0.80700004 4288086016
0.0035144854 0.002108691 0.80700004 4288086016
0.0049202796 0.002108691 0.80700004 4288282624
0.0063260738 0.002108691 0.80700004 4290261770
0.0077318684 0.002108691 0.80700004 4292367402
0.0091150161 0.0021034654 0.80500007 4293033055
0.010517326 0.0021034654 0.80500007 4294945935
0.011919637 0.0021034654 0.80500007 4294951569
0.013321946 0.0021034654 0.80500007 4294951827
0.014687675 0.0020982393 0.80300003 4294951855
0.0160865 0.0020982393 0.80300003 4294953654
0.017441778 0.0020930131 0.80100006 4294962367
0.018837119 0.0020930131 0.80100006 4294964679
0.020282978 0.0020982393 0.80300003 4294964977
0.021681806 0.0020982393 0.80300003 4294967292
0.02308063 0.0020982393 0.80300003 4294965733
0.024479458 0.0020982393 0.80300003 4294964961
0.025878282 0.0020982393 0.80300003 4294960552
0.02727711 0.0020982393 0.80300003 4294955412
0.028675934 0.0020982393 0.80300003 4294960293
0.030074764 0.0020982393 0.80300003 4294959008
0.031551979 0.0021034654 0.80500007 4294959002
0.032954291 0.0021034654 0.80500007 4294961828
0.034356602 0.0021034654 0.80500007 4294961374
0.035758913 0.0021034654 0.80500007 4293972680
0.037068892 0.0020982393 0.80300003 4294302413
0.038467716 0.0020982393 0.80300003 4294170826
0.039866548 0.0020982393 0.80300003 4293778397
0.041265372 0.0020982393 0.80300003 4294965755
0.042664196 0.0020982393 0.80300003 4294967295
0.044063024 0.0020982393 0.80300003 4293317075
0.045461852 0.0020982393 0.80300003 4294613760
0.046860676 0.0020982393 0.80300003 4285139712
0.048379704 0.0021034654 0.80500007 4284481536
-0.03178715 0.0035319056 0.81100005 4291084740
-0.030374385 0.0035319056 0.81100005 4288886113
-0.028961625 0.0035319056 0.81100005 4284612640
-0.027548863 0.0035319056 0.81100005 4286971904
-0.0261361 0.0035319056 0.81100005 4292363581
-0.024723338 0.0035319056 0.81100005 4289490047
-0.023310576 0.0035319056 0.81100005 4290279307
-0.021897813 0.0035319056 0.81100005 4289887881
-0.020485051 0.0035319056 0.81100005 4290611604
-0.019072289 0.0035319056 0.81100005 4289236122
-0.017659528 0.0035319056 0.81100005 4288446863
-0.016206698 0.0035231954 0.80900002 4286477182
-0.01479742 0.0035231954 0.80900002 4287727249
-0.013388142 0.0035231954 0.80900002 4289563290
-0.011978864 0.0035231954 0.80900002 4289629083
-0.010569585 0.0035231954 0.80900002 4289355379
-0.0091603082 0.0035231954 0.80900002 4284091682
-0.0077510295 0.0035231954 0.80900002 4287692800
-0.0063260738 0.0035144854 0.80700004 4287823872
-0.0049202796 0.0035144854 0.80700004 4287496192
-0.0035144854 0.0035144854 0.80700004 4287365120
-0.002108691 0.0035144854 0.80700004 4287037440
-0.00070289709 0.0035144854 0.80700004 4286971904
0.00070289709 0.0035144854 0.80700004 4286840832
0.002108691 0.0035144854 0.80700004 4286840832
0.0035144854 0.0035144854 0.80700004 4288086016
0.0049202796 0.0035144854 0.80700004 4288348160
0.0063103959 0.0035057757 0.80500007 4289265664
0.007712706 0.0035057757 0.80500007 4289462272
0.0091150161 0.0035057757 0.80500007 4290510848
0.010491196 0.0034970655 0.80300003 4290969600
0.011890023 0.0034970655 0.80300003 4293605411
0.013288849 0.0034970655 0.80300003 4294931807
0.014651093 0.0034883553 0.80100006 4294945190
0.016046437 0.0034883553 0.80100006 4294947246
0.017441778 0.0034883553 0.80100006 4294951361
0.018837119 0.0034883553 0.80100006 4294952389
0.020232461 0.0034883553 0.80100006 4294954697
0.021627804 0.0034883553 0.80100006 4294957011
0.023023147 0.0034883553 0.80100006 4294961633
0.024418488 0.0034883553 0.80100006 4294963175
0.025813831 0.0034883553 0.80100006 4294967018
0.02727711 0.0034970655 0.80300003 4294964962
0.028675934 0.0034970655 0.80300003 4294963404
0.030074764 0.0034970655 0.80300003 4294959806
0.031473588 0.0034970655 0.80300003 4292985753
0.032872412 0.0034970655 0.80300003 4294236076
0.03427124 0.0034970655 0.80300003 4294963941
0.035670068 0.0034970655 0.80300003 4294963427
0.036976568 0.0034883553 0.80100006 4294963931
0.038371909 0.0034883553 0.80100006 4294435275
0.03976725 0.0034883553 0.80100006 4293975260
0.041162595 0.0034883553 0.80100006 4294966267
0.042557936 0.0034883553 0.80100006 4294967295
0.043953281 0.0034883553 0.80100006 4289567141
0.045348618 0.0034883553 0.80100006 4292224768
0.046743963 0.0034883553 0.80100006 4287954944
0.0482595 0.0034970655 0.80300003 4286251013
-0.031865541 0.0049568615 0.81300002 4291216583
-0.03044929 0.0049568615 0.81300002 4287840128
-0.029033044 0.0049568615 0.81300002 4282777651
-0.027616799 0.0049568615 0.81300002 4285468770
-0.026200553 0.0049568615 0.81300002 4292245192
-0.024784306 0.0049568615 0.81300002 4289954455
-0.023310576 0.0049446677 0.81100005 4289230732
-0.021897813 0.0049446677 0.81100005 4288572035
-0.02053557 0.0049568615 0.81300002 4288506241
-0.019072289 0.0049446677 0.81100005 4289102715
-0.017659528 0.0049446677 0.81100005 4289300093
-0.016246766 0.0049446677 0.81100005 4287196559
-0.014834002 0.0049446677 0.81100005 4286801801
-0.013421241 0.0049446677 0.81100005 4289233521
-0.012008478 0.0049446677 0.81100005 4290088830
-0.010569585 0.0049324734 0.80900002 4289947516
-0.0091603082 0.0049324734 0.80900002 4284618027
-0.0077510295 0.0049324734 0.80900002 4287954946
-0.0063260738 0.0049202796 0.80700004 4288808463
-0.0049202796 0.0049202796 0.80700004 4288415488
-0.0035144854 0.0049202796 0.80700004 4288612864
-0.002108691 0.0049202796 0.80700004 4288092179
-0.00070289709 0.0049202796 0.80700004 4288618780
0.00070289709 0.0049202796 0.80700004 4287569951
0.002108691 0.0049202796 0.80700004 4287043607
0.0035144854 0.0049202796 0.80700004 4288289333
0.0049202796 0.0049202796 0.80700004 4290197331
0.0063103959 0.0049080853 0.80500007 4289210426
0.007712706 0.0049080853 0.80500007 4287828773
0.0091150161 0.0049080853 0.80500007 4288872448
0.010491196 0.0048958915 0.80300003 4288675840
0.011890023 0.0048958915 0.80300003 4288544768
0.013288849 0.0048958915 0.80300003 4288610304
0.014651093 0.0048836977 0.80100006 4288544768
0.016046437 0.0048836977 0.80100006 4288479232
0.017441778 0.0048836977 0.80100006 4287954944
0.018837119 0.0048836977 0.80100006 4287823872
0.020232461 0.0048836977 0.80100006 4287758336
0.021627804 0.0048836977 0.80100006 4287954944
0.023023147 0.0048836977 0.80100006 4289396804
0.024418488 0.0048836977 0.80100006 4294787734
0.025813831 0.0048836977 0.80100006 4294215276
0.027209172 0.0048836977 0.80100006 4294946708
0.028604515 0.0048836977 0.80100006 4294952078
0.029999856 0.0048836977 0.80100006 4294952593
0.031395197 0.0048836977 0.80100006 4294952387
0.032790542 0.0048836977 0.80100006 4294951103
0.034185886 0.0048836977 0.80100006 4294961061
0.035581224 0.0048836977 0.80100006 4294962088
0.036976568 0.0048836977 0.80100006 4294966223
0.038371909 0.0048836977 0.80100006 4294967267
0.03976725 0.0048836977 0.80100006 4294967295
0.041162595 0.0048836977 0.80100006 4294967295
0.042557936 0.0048836977 0.80100006 4294967295
0.043953281 0.0048836977 0.80100006 4289044390
0.045348618 0.0048836977 0.80100006 4289593344
0.046743963 0.0048836977 0.80100006 4288872448
0.048139308 0.0048836977 0.80100006 4289419384
-0.030524198 0.0063887858 0.81500006 4289160062
-0.029104467 0.0063887858 0.81500006 4282449944
-0.027684739 0.0063887858 0.81500006 4287450128
-0.026329461 0.0064044637 0.81700003 4291134536
-0.024845278 0.0063887858 0.81500006 4289167265
-0.023425549 0.0063887858 0.81500006 4288443542
-0.022005817 0.0063887858 0.81500006 4288178292
-0.020586088 0.0063887858 0.81500006 4288310134
-0.019119322 0.0063731079 0.81300002 4288904320
-0.017703077 0.0063731079 0.81300002 4289101442
-0.016286831 0.0063731079 0.81300002 4287062657
-0.014870584 0.0063731079 0.81300002 4287589257
-0.013421241 0.0063574295 0.81100005 4289231745
-0.012008478 0.0063574295 0.81100005 4289363588
-0.010595717 0.0063574295 0.81100005 4289291369
-0.0091603082 0.0063417517 0.80900002 4285606961
-0.0077510295 0.0063417517 0.80900002 4288086812
-0.0063417517 0.0063417517 0.80900002 4288481570
-0.0049324734 0.0063417517 0.80900002 4288350220
-0.0035231954 0.0063417517 0.80900002 4288613649
-0.002108691 0.0063260738 0.80700004 4287371552
-0.00070289709 0.0063260738 0.80700004 4287305759
0.00070289709 0.0063260738 0.80700004 4286848540
0.002108691 0.0063260738 0.80700004 4286190610
0.0035144854 0.0063260738 0.80700004 4286384157
0.0049202796 0.0063260738 0.80700004 4288555070
0.0063260738 0.0063260738 0.80700004 4287775297
0.0077318684 0.0063260738 0.80700004 4286985782
0.0091150161 0.0063103959 0.80500007 4287507238
0.010517326 0.0063103959 0.80500007 4285796363
0.011890023 0.0062947175 0.80300003 4287234048
0.013288849 0.0062947175 0.80300003 4287168512
0.014687675 0.0062947175 0.80300003 4286709760
0.0160865 0.0062947175 0.80300003 4286709760
0.017441778 0.0062790401 0.80100006 4286644224
0.018837119 0.0062790401 0.80100006 4286578688
0.020232461 0.0062790401 0.80100006 4287168512
0.021627804 0.0062790401 0.80100006 4287430656
0.023023147 0.0062790401 0.80100006 4289003520
0.024418488 0.0062790401 0.80100006 4289396736
0.025813831 0.0062790401 0.80100006 4290707456
0.027209172 0.0062790401 0.80100006 4291166208
0.028604515 0.0062790401 0.80100006 4293277213
0.029999856 0.0062790401 0.80100006 4294930776
0.031395197 0.0062790401 0.80100006 4294944686
0.032790542 0.0062790401 0.80100006 4294946742
0.034185886 0.0062790401 0.80100006 4294950840
0.035581224 0.0062790401 0.80100006 4294948784
0.036976568 0.0062790401 0.80100006 4294948254
0.038371909 0.0062790401 0.80100006 4294964445
0.03976725 0.0062790401 0.80100006 4294967295
0.041162595 0.0062790401 0.80100006 4294967295
0.042557936 0.0062790401 0.80100006 4294967295
0.04384353 0.0062633613 0.79900002 4287663504
0.045235388 0.0062633613 0.79900002 4290641920
0.046627246 0.0062633613 0.79900002 4293137684
0.048139308 0.0062790401 0.80100006 4291723938
0.049534649 0.0062790401 0.80100006 4294961151
-0.030599104 0.0078276778 0.81700003 4290211204
-0.029104467 0.0078085158 0.81500006 4282449933
-0.027684739 0.0078085158 0.81500006 4285336135
-0.026361689 0.0078372583 0.81800002 4292375986
-0.024906248 0.0078276778 0.81700003 4289954732
-0.023425549 0.0078085158 0.81500006 4288967837
-0.022005817 0.0078085158 0.81500006 4289364337
-0.020586088 0.0078085158 0.81500006 4289759095
-0.019166358 0.0078085158 0.81500006 4289495698
-0.017746627 0.0078085158 0.81500006 4289495698
-0.016286831 0.0077893534 0.81300002 4289495185
-0.014870584 0.0077893534 0.81300002 4289429392
-0.013454339 0.0077893534 0.81300002 4288177292
-0.012038092 0.0077893534 0.81300002 4285545572
-0.010595717 0.0077701919 0.81100005 4286981909
-0.0091829542 0.0077701919 0.81100005 4287376667
-0.0077510295 0.0077510295 0.80900002 4287958322
-0.0063417517 0.0077510295 0.80900002 4287563820
-0.0049324734 0.0077510295 0.80900002 4288021269
-0.0035231954 0.0077510295 0.80900002 4288218904
-0.0021139171 0.0077510295 0.80900002 4287632164
-0.00070463907 0.0077510295 0.80900002 4287500322
0.00070463907 0.0077510295 0.80900002 4286713872
0.002108691 0.0077318684 0.80700004 4286779665
0.0035144854 0.0077318684 0.80700004 4286582313
0.0049202796 0.0077318684 0.80700004 4286121762
0.0063260738 0.0077318684 0.80700004 4286319368
0.0077318684 0.0077318684 0.80700004 4286385161
0.0091150161 0.007712706 0.80500007 4287172656
0.010517326 0.007712706 0.80500007 4288488516
0.011890023 0.0076935436 0.80300003 4288555031
0.013288849 0.0076935436 0.80300003 4290726200
0.014687675 0.0076935436 0.80300003 4289744493
0.0160865 0.0076935436 0.80300003 4289678699
0.017441778 0.0076743821 0.80100006 4289415498
0.018837119 0.0076743821 0.80100006 4287639087
0.020232461 0.0076743821 0.80100006 4288815943
0.021627804 0.0076743821 0.80100006 4289079371
0.023023147 0.0076743821 0.80100006 4289071149
0.024418488 0.0076743821 0.80100006 4287889435
0.025813831 0.0076743821 0.80100006 4288741376
0.027209172 0.0076743821 0.80100006 4288479232
0.028604515 0.0076743821 0.80100006 4288217088
0.029999856 0.0076743821 0.80100006 4288086016
0.031395197 0.0076743821 0.80100006 4287758336
0.032790542 0.0076743821 0.80100006 4287692800
0.034185886 0.0076743821 0.80100006 4287299584
0.035581224 0.0076743821 0.80100006 4287102976
0.036884241 0.0076552201 0.79900002 4287299584
0.038276099 0.0076552201 0.79900002 4287627264
0.039667957 0.0076552201 0.79900002 4290136064
0.041059814 0.0076552201 0.79900002 4293952047
0.042451672 0.0076552201 0.79900002 4292764318
0.04384353 0.0076552201 0.79900002 4287961429
0.045178775 0.0076456391 0.79800004 4290515997
0.046568893 0.0076456391 0.79800004 4294928754
0.048019104 0.0076552201 0.79900002 4292187319
0.049410962 0.0076552201 0.79900002 4294960895
-0.030636556 0.0092622144 0.81800002 4290473551
-0.029211601 0.0092622144 0.81800002 4283170816
-0.027786644 0.0092622144 0.81800002 4286054400
-0.026361689 0.0092622144 0.81800002 4292696147
-0.024936732 0.0092622144 0.81800002 4289756295
-0.023483032 0.0092508914 0.81700003 4289427330
-0.022059821 0.0092508914 0.81700003 4289627537
-0.020636605 0.0092508914 0.81700003 4289495950
-0.01921339 0.0092508914 0.81700003 4289428879
-0.017746627 0.0092282463 0.81500006 4289823637
-0.016326897 0.0092282463 0.81500006 4290481047
-0.014907167 0.0092282463 0.81500006 4289559945
-0.013487437 0.0092282463 0.81500006 4287126376
-0.012038092 0.0092056002 0.81300002 4284692035
-0.010621847 0.0092056002 0.81300002 4285530624
-0.0091829542 0.0091829542 0.81100005 4288096277
-0.0077701919 0.0091829542 0.81100005 4288293421
-0.0063574295 0.0091829542 0.81100005 4286845975
-0.0049446677 0.0091829542 0.81100005 4288217871
-0.0035231954 0.0091603082 0.80900002 4288283664
-0.0021139171 0.0091603082 0.80900002 4287760402
-0.00070463907 0.0091603082 0.80900002 4287694353
0.00070463907 0.0091603082 0.80900002 4286578944
0.0021139171 0.0091603082 0.80900002 4287039491
0.0035144854 0.0091376621 0.80700004 4286582563
0.0049202796 0.0091376621 0.80700004 4286188061
0.0063260738 0.0091376621 0.80700004 4286515464
0.0077318684 0.0091376621 0.80700004 4286383878
0.0091150161 0.0091150161 0.80500007 4287301130
0.010517326 0.0091150161 0.80500007 4288945955
0.011919637 0.0091150161 0.80500007 4288490021
0.013321946 0.0091150161 0.80500007 4289542710
0.014687675 0.00909237 0.80300003 4288561488
0.0160865 0.00909237 0.80300003 4289284955
0.017485326 0.00909237 0.80300003 4288959839
0.018884154 0.00909237 0.80300003 4288499288
0.020282978 0.00909237 0.80300003 4289156437
0.021627804 0.0090697249 0.80100006 4288432715
0.023023147 0.0090697249 0.80100006 4288429635
0.024418488 0.0090697249 0.80100006 4288034877
0.025813831 0.0090697249 0.80100006 4287899706
0.027209172 0.0090697249 0.80100006 4287768120
0.028604515 0.0090697249 0.80100006 4288296513
0.029999856 0.0090697249 0.80100006 4284743691
0.031395197 0.0090697249 0.80100006 4286578688
0.032790542 0.0090697249 0.80100006 4286513152
0.034185886 0.0090697249 0.80100006 4286316544
0.035581224 0.0090697249 0.80100006 4286382080
0.036884241 0.009047078 0.79900002 4286185472
0.038276099 0.009047078 0.79900002 4286316544
0.039667957 0.009047078 0.79900002 4288544768
0.041059814 0.009047078 0.79900002 4289331200
0.042451672 0.009047078 0.79900002 4290183218
0.04384353 0.009047078 0.79900002 4289921070
0.045178775 0.0090357549 0.79800004 4289935135
0.046568893 0.0090357549 0.79800004 4294935660
0.047959007 0.0090357549 0.79800004 4292976568
0.049349122 0.0090357549 0.79800004 4294962175
-0.030711465 0.010713302 0.82000005 4290731264
-0.029283024 0.010713302 0.82000005 4284612608
-0.027854582 0.010713302 0.82000005 4286119936
-0.026426144 0.010713302 0.82000005 4289011737
-0.024997704 0.010713302 0.82000005 4288498212
-0.023511777 0.010687171 0.81800002 4289945658
-0.022059821 0.010674106 0.81700003 4289427836
-0.020636605 0.010674106 0.81700003 4288835443
-0.01921339 0.010674106 0.81700003 4287845247
-0.017790178 0.010674106 0.81700003 4287779454
-0.016366962 0.010674106 0.81700003 4288307293
-0.014907167 0.010647976 0.81500006 4288899173
-0.013487437 0.010647976 0.81500006 4288109900
-0.012067707 0.010647976 0.81500006 4286728247
-0.010621847 0.010621847 0.81300002 4287643696
-0.0092056002 0.010621847 0.81300002 4288104247
-0.0077893534 0.010621847 0.81300002 4288495930
-0.0063731079 0.010621847 0.81300002 4289087810
-0.0049446677 0.010595717 0.81100005 4289021256
-0.0035319056 0.010595717 0.81100005 4288494911
-0.0021191433 0.010595717 0.81100005 4288291632
-0.00070638111 0.010595717 0.81100005 4287831081
0.00070638111 0.010595717 0.81100005 4287366689
0.0021139171 0.010569585 0.80900002 4287366689
0.0035231954 0.010569585 0.80900002 4286843677
0.0049324734 0.010569585 0.80900002 4286514712
0.0063417517 0.010569585 0.80900002 4286711825
0.0077318684 0.010543456 0.80700004 4286646032
0.0091376621 0.010543456 0.80700004 4287234068
0.010543456 0.010543456 0.80700004 4287496728
0.011919637 0.010517326 0.80500007 4287954959
0.013321946 0.010517326 0.80500007 4287561737
0.014724256 0.010517326 0.80500007 4287561728
0.016126567 0.010517326 0.80500007 4287561728
0.017528879 0.010517326 0.80500007 4287759889
0.018884154 0.010491196 0.80300003 4287562253
0.020282978 0.010491196 0.80300003 4288292134
0.021681806 0.010491196 0.80300003 4289937216
0.02308063 0.010491196 0.80300003 4288429887
0.024479458 0.010491196 0.80300003 4288627009
0.025878282 0.010491196 0.80300003 4288693869
0.027209172 0.010465067 0.80100006 4288430441
0.028604515 0.010465067 0.80100006 4289089877
0.029999856 0.010465067 0.80100006 4289089877
0.031395197 0.010465067 0.80100006 4289417304
0.032790542 0.010465067 0.80100006 4290470248
0.034185886 0.010465067 0.80100006 4289416793
0.035581224 0.010465067 0.80100006 4287969347
0.036884241 0.010438936 0.79900002 4288689472
0.038276099 0.010438936 0.79900002 4288887107
0.039667957 0.010438936 0.79900002 4289012491
0.041059814 0.010438936 0.79900002 4288157184
0.042451672 0.010438936 0.79900002 4288806912
0.04384353 0.010438936 0.79900002 4287823872
0.045178775 0.010425871 0.79800004 4288421120
0.046568893 0.010425871 0.79800004 4294936152
0.047959007 0.010425871 0.79800004 4292847798
0.049410962 0.010438936 0.79900002 4294964223
-0.030786369 0.012171356 0.82200003 4291320832
-0.029354444 0.012171356 0.82200003 4286057728
-0.027922522 0.012171356 0.82200003 4287234816
-0.026490597 0.012171356 0.82200003 4289932309
-0.025058672 0.012171356 0.82200003 4289284662
-0.023569264 0.012141741 0.82000005 4290469192
-0.022140823 0.012141741 0.82000005 4289949828
-0.020661863 0.012112127 0.81800002 4289160312
-0.019236907 0.012112127 0.81800002 4288041302
-0.017811952 0.012112127 0.81800002 4286857028
-0.016366962 0.012097321 0.81700003 4287315235
-0.01494375 0.012097321 0.81700003 4288762681
-0.013520534 0.012097321 0.81700003 4288699718
-0.012097321 0.012097321 0.81700003 4287318065
-0.010647976 0.012067707 0.81500006 4287841077
-0.0092282463 0.012067707 0.81500006 4288301628
-0.0078085158 0.012067707 0.81500006 4288170294
-0.0063887858 0.012067707 0.81500006 4288696638
-0.0049568615 0.012038092 0.81300002 4288827723
-0.0035406153 0.012038092 0.81300002 4287840827
-0.0021191433 0.012008478 0.81100005 4289152533
-0.00070638111 0.012008478 0.81100005 4289284119
0.00070638111 0.012008478 0.81100005 4288819527
0.0021191433 0.012008478 0.81100005 4288753734
0.0035319056 0.012008478 0.81100005 4288294998
0.0049324734 0.011978864 0.80900002 4287308103
0.0063417517 0.011978864 0.80900002 4287701532
0.0077510295 0.011978864 0.80900002 4287570203
0.0091603082 0.011978864 0.80900002 4287894832
0.010543456 0.01194925 0.80700004 4287368231
0.01194925 0.01194925 0.80700004 4288086033
0.013355045 0.01194925 0.80700004 4288086033
0.014760839 0.01194925 0.80700004 4288086027
0.016166633 0.01194925 0.80700004 4288283151
0.017528879 0.011919637 0.80500007 4288152344
0.018931188 0.011919637 0.80500007 4288020758
0.020333497 0.011919637 0.80500007 4287892240
0.021735808 0.011919637 0.80500007 4288418584
0.023138119 0.011919637 0.80500007 4287565083
0.02454043 0.011919637 0.80500007 4289473080
0.025942737 0.011919637 0.80500007 4288362838
0.02727711 0.011890023 0.80300003 4288297044
0.028604515 0.011860408 0.80100006 4288429383
0.029999856 0.011860408 0.80100006 4288692554
0.031395197 0.011860408 0.80100006 4288890440
0.032790542 0.011860408 0.80100006 4289613906
0.034185886 0.011860408 0.80100006 4289089377
0.035581224 0.011860408 0.80100006 4288825948
0.036976568 0.011860408 0.80100006 4289219409
0.038371909 0.011860408 0.80100006 4288364357
0.03976725 0.011860408 0.80100006 4288095262
0.041162595 0.011860408 0.80100006 4288490019
0.042451672 0.011830794 0.79900002 4288422176
0.04384353 0.011830794 0.79900002 4285726720
0.045178775 0.011815988 0.79800004 4286775808
0.046568893 0.011815988 0.79800004 4294937977
0.047959007 0.011815988 0.79800004 4292916674
0.049349122 0.011815988 0.79800004 4294966271
-0.029354444 0.013603278 0.82200003 4287439104
-0.027922522 0.013603278 0.82200003 4288097864
-0.026490597 0.013603278 0.82200003 4291124599
-0.025119644 0.013636378 0.82400006 4290211183
-0.023626748 0.013603278 0.82200003 4290869370
-0.022194823 0.013603278 0.82200003 4290346104
-0.020712381 0.013570182 0.82000005 4288964451
-0.019283943 0.013570182 0.82000005 4288171337
-0.017855503 0.013570182 0.82000005 4282974208
-0.016386995 0.013537084 0.81800002 4285988864
-0.014962039 0.013537084 0.81800002 4289866807
-0.013520534 0.013520534 0.81700003 4287576832
-0.012097321 0.013520534 0.81700003 4284879360
-0.010674106 0.013520534 0.81700003 4286916397
-0.0092508914 0.013520534 0.81700003 4288824394
-0.0078276778 0.013520534 0.81700003 4288302384
-0.0063887858 0.013487437 0.81500006 4288433971
-0.0049690558 0.013487437 0.81500006 4288236602
-0.0035493255 0.013487437 0.81500006 4284420865
-0.0021243691 0.013454339 0.81300002 4286580768
-0.00070812309 0.013454339 0.81300002 4292501882
0.00070812309 0.013454339 0.81300002 4290870403
0.0021243691 0.013454339 0.81300002 4290870403
0.0035319056 0.013421241 0.81100005 4289752183
0.0049446677 0.013421241 0.81100005 4287449428
0.0063574295 0.013421241 0.81100005 4287377491
0.0077701919 0.013421241 0.81100005 4289679990
0.0091603082 0.013388142 0.80900002 4289420659
0.010569585 0.013388142 0.80900002 4288960108
0.011978864 0.013388142 0.80900002 4288826704
0.013388142 0.013388142 0.80900002 4288497740
0.014760839 0.013355045 0.80700004 4288629076
0.016166633 0.013355045 0.80700004 4288694869
0.017572427 0.013355045 0.80700004 4288693840
0.018978221 0.013355045 0.80700004 4288364875
0.020384016 0.013355045 0.80700004 4288627531
0.02178981 0.013355045 0.80700004 4288627531
0.023195602 0.013355045 0.80700004 4288233037
0.02454043 0.013321946 0.80500007 4287904072
0.025942737 0.013321946 0.80500007 4288296765
0.02727711 0.013288849 0.80300003 4286586147
0.028675934 0.013288849 0.80300003 4287696420
0.030074764 0.013288849 0.80300003 4287235869
0.031473588 0.013288849 0.80300003 4287827978
0.032872412 0.013288849 0.80300003 4288880410
0.034185886 0.013255751 0.80100006 4288490301
0.035581224 0.013255751 0.80100006 4288687423
0.036976568 0.013255751 0.80100006 4288557372
0.038371909 0.013255751 0.80100006 4288359994
0.03976725 0.013255751 0.80100006 4288491594
0.041162595 0.013255751 0.80100006 4289610074
0.042557936 0.013255751 0.80100006 4288622666
0.04384353 0.013222652 0.79900002 4285333528
0.045235388 0.013222652 0.79900002 4287172906
0.046568893 0.013206104 0.79800004 4294940849
0.047959007 0.013206104 0.79800004 4293246670
0.049349122 0.013206104 0.79800004 4294967295
-0.027990459 0.015071786 0.82400006 4288890649
-0.026555052 0.015071786 0.82400006 4290864182
-0.025119644 0.015071786 0.82400006 4290014326
-0.023684235 0.015071786 0.82400006 4290935428
-0.022248827 0.015071786 0.82400006 4290347139
-0.0207629 0.015035204 0.82200003 4290017918
-0.019330975 0.015035204 0.82200003 4288433743
-0.017899051 0.015035204 0.82200003 4283499269
-0.016427062 0.014998622 0.82000005 4286578688
-0.014998622 0.014998622 0.82000005 4289403160
-0.013537084 0.014962039 0.81800002 4287178266
-0.012112127 0.014962039 0.81800002 4284875520
-0.010687171 0.014962039 0.81800002 4287046912
-0.0092622144 0.014962039 0.81800002 4290139178
-0.0078372583 0.014962039 0.81800002 4288633423
-0.0064123026 0.014962039 0.81800002 4288699216
-0.0049873465 0.014962039 0.81800002 4288433743
-0.0035580352 0.01494375 0.81700003 4283105280
-0.0021348214 0.01494375 0.81700003 4285071360
-0.00071160705 0.01494375 0.81700003 4292172377
0.00070986507 0.014907167 0.81500006 4290809235
0.0021295953 0.014907167 0.81500006 4290677649
0.0035406153 0.014870584 0.81300002 4289031302
0.0049568615 0.014870584 0.81300002 4283570739
0.0063731079 0.014870584 0.81300002 4286516736
0.0077893534 0.014870584 0.81300002 4291056434
0.0092056002 0.014870584 0.81300002 4290411397
0.010595717 0.014834002 0.81100005 4290148224
0.012008478 0.014834002 0.81100005 4289098364
0.013388142 0.01479742 0.80900002 4289098364
0.01479742 0.01479742 0.80900002 4289096582
0.016206698 0.01479742 0.80900002 4287517550
0.017615976 0.01479742 0.80900002 4288039226
0.019025255 0.01479742 0.80900002 4288433984
0.020434532 0.01479742 0.80900002 4288499786
0.021843811 0.01479742 0.80900002 4288499786
0.023253089 0.01479742 0.80900002 4288432728
0.024662366 0.01479742 0.80900002 4287643212
0.026071645 0.01479742 0.80900002 4288757832
0.027412986 0.014760839 0.80700004 4287770937
0.028818781 0.014760839 0.80700004 4288816445
0.030149668 0.014724256 0.80500007 4288487480
0.031551979 0.014724256 0.80500007 4288223266
0.032954291 0.014724256 0.80500007 4288683817
0.03427124 0.014687675 0.80300003 4288554811
0.035670068 0.014687675 0.80300003 4288817726
0.037068892 0.014687675 0.80300003 4288753219
0.038467716 0.014687675 0.80300003 4288621632
0.039866548 0.014687675 0.80300003 4288492611
0.041265372 0.014687675 0.80300003 4289479506
0.042557936 0.014651093 0.80100006 4289084998
0.04384353 0.014614511 0.79900002 4285137418
0.045235388 0.014614511 0.79900002 4287630638
0.046568893 0.01459622 0.79800004 4294941628
0.047959007 0.01459622 0.79800004 4293641941
-0.026619505 0.016547261 0.82600003 4291712872
-0.025180614 0.016547261 0.82600003 4290276729
-0.02374172 0.016547261 0.82600003 4291592588
-0.022302829 0.016547261 0.82600003 4290806920
-0.020813419 0.016507195 0.82400006 4290741127
-0.01937801 0.016507195 0.82400006 4289552978
-0.017942604 0.016507195 0.82400006 4283302656
-0.016467128 0.016467128 0.82200003 4286382080
-0.015035204 0.016467128 0.82200003 4288943904
-0.013603278 0.016467128 0.82200003 4287441947
-0.012141741 0.016427062 0.82000005 4284678656
-0.010713302 0.016427062 0.82000005 4286185770
-0.0092848614 0.016427062 0.82000005 4290396522
-0.0078564212 0.016427062 0.82000005 4288567117
-0.006427981 0.016427062 0.82000005 4289948770
-0.0049995407 0.016427062 0.82000005 4288369502
-0.0035623903 0.016386995 0.81800002 4282449923
-0.0021374342 0.016386995 0.81800002 4284153856
-0.00071247807 0.016386995 0.81800002 4291123286
0.00071160705 0.016366962 0.81700003 4290808206
0.0021348214 0.016366962 0.81700003 4291334550
0.0035493255 0.016326897 0.81500006 4289689218
0.0049690558 0.016326897 0.81500006 4281597960
0.0063887858 0.016326897 0.81500006 4284612608
0.0077893534 0.016286831 0.81300002 4290660936
0.0092056002 0.016286831 0.81300002 4290215010
0.010621847 0.016286831 0.81300002 4291530614
0.012038092 0.016286831 0.81300002 4290875014
0.013454339 0.016286831 0.81300002 4291138186
0.014834002 0.016246766 0.81100005 4290282650
0.016246766 0.016246766 0.81100005 4287256429
0.017659528 0.016246766 0.81100005 4287252554
0.019072289 0.016246766 0.81100005 4288700000
0.020485051 0.016246766 0.81100005 4288569415
0.021843811 0.016206698 0.80900002 4289490517
0.023253089 0.016206698 0.80900002 4288307291
0.024662366 0.016206698 0.80900002 4285478192
0.026071645 0.016206698 0.80900002 4286982704
0.027480923 0.016206698 0.80900002 4287903806
0.028818781 0.016166633 0.80700004 4288427862
0.030224573 0.016166633 0.80700004 4290006895
0.031630371 0.016166633 0.80700004 4289549117
0.033036161 0.016166633 0.80700004 4288364843
0.034356602 0.016126567 0.80500007 4288951878
0.035758913 0.016126567 0.80500007 4289083465
0.03716122 0.016126567 0.80500007 4289084496
0.038563531 0.016126567 0.80500007 4289150545
0.039965838 0.016126567 0.80500007 4289219398
0.041368149 0.016126567 0.80500007 4290074707
0.042664196 0.0160865 0.80300003 4288888139
0.043953281 0.016046437 0.80100006 4284940302
0.045348618 0.016046437 0.80100006 4287239725
0.046627246 0.016006369 0.79900002 4294944702
-0.023799207 0.018029701 0.82800007 4290738813
-0.022356832 0.018029701 0.82800007 4290544250
-0.020863935 0.017986152 0.82600003 4290807422
-0.019425044 0.017986152 0.82600003 4289620078
-0.017986152 0.017986152 0.82600003 4283040777
-0.016507195 0.017942604 0.82400006 4286185472
-0.015071786 0.017942604 0.82400006 4290128937
-0.013603278 0.017899051 0.82200003 4288101437
-0.012171356 0.017899051 0.82200003 4284351236
-0.010739431 0.017899051 0.82200003 4286316544
-0.0093075074 0.017899051 0.82200003 4290460459
-0.0078755822 0.017899051 0.82200003 4287842122
-0.0064436588 0.017899051 0.82200003 4290079084
-0.0050117346 0.017899051 0.82200003 4288500581
-0.0035711005 0.017855503 0.82000005 4282712078
-0.0021426601 0.017855503 0.82000005 4284809216
-0.00071422011 0.017855503 0.82000005 4290989387
0.00071160705 0.017790178 0.81700003 4290806920
0.0021348214 0.017790178 0.81700003 4291662229
0.0035580352 0.017790178 0.81700003 4290281355
0.0049812496 0.017790178 0.81700003 4282057487
0.0064044637 0.017790178 0.81700003 4284809216
0.0078276778 0.017790178 0.81700003 4290199872
0.0092282463 0.017746627 0.81500006 4289290335
0.010647976 0.017746627 0.81500006 4290277231
0.012067707 0.017746627 0.81500006 4289428084
0.013487437 0.017746627 0.81500006 4290151807
0.014870584 0.017703077 0.81300002 4289888396
0.016286831 0.017703077 0.81300002 4285217093
0.017703077 0.017703077 0.81300002 4286589479
0.019119322 0.017703077 0.81300002 4289879129
0.020485051 0.017659528 0.81100005 4288243809
0.021897813 0.017659528 0.81100005 4289888635
0.023310576 0.017659528 0.81100005 4289038731
0.024723338 0.017659528 0.81100005 4286999405
0.026071645 0.017615976 0.80900002 4285739344
0.027480923 0.017615976 0.80900002 4285213000
0.0288902 0.017615976 0.80900002 4287376640
0.030299481 0.017615976 0.80900002 4290337311
0.031630371 0.017572427 0.80700004 4289748334
0.033036161 0.017572427 0.80700004 4288893281
0.034441959 0.017572427 0.80700004 4289019237
0.035758913 0.017528879 0.80500007 4288821601
0.03716122 0.017528879 0.80500007 4289018703
0.038659338 0.017572427 0.80700004 4289281875
0.040065132 0.017572427 0.80700004 4289153103
0.041368149 0.017528879 0.80500007 4289087310
0.04277046 0.017528879 0.80500007 4288753720
0.044172771 0.017528879 0.80500007 4285661450
0.045575082 0.017528879 0.80500007 4287372851
-0.026812866 0.019566147 0.83200002 4291112750
-0.025302552 0.019519113 0.83000004 4288823598
-0.023856692 0.019519113 0.83000004 4287507738
-0.022410832 0.019519113 0.83000004 4287837745
-0.020964973 0.019519113 0.83000004 4289877585
-0.019425044 0.019425044 0.82600003 4289353748
-0.017986152 0.019425044 0.82600003 4284024320
-0.016547261 0.019425044 0.82600003 4285726720
-0.015071786 0.01937801 0.82400006 4289867307
-0.013636378 0.01937801 0.82400006 4287708950
-0.01220097 0.01937801 0.82400006 4283826944
-0.010765561 0.01937801 0.82400006 4285988864
-0.0093301535 0.01937801 0.82400006 4292565086
-0.0078947451 0.01937801 0.82400006 4290081916
-0.0064436588 0.019330975 0.82200003 4291134604
-0.0050117346 0.019330975 0.82200003 4289620082
-0.0035885205 0.01937801 0.82400006 4282712073
-0.0021478862 0.019330975 0.82200003 4285267968
-0.00071596209 0.019330975 0.82200003 4291119175
0.00071422011 0.019283943 0.82000005 4290872432
0.0021426601 0.019283943 0.82000005 4292056962
0.0035623903 0.019236907 0.81800002 4290807422
0.0049873465 0.019236907 0.81800002 4283438606
0.0064123026 0.019236907 0.81800002 4285267968
0.0078276778 0.01921339 0.81700003 4290395451
0.0092508914 0.01921339 0.81700003 4288171078
0.010674106 0.01921339 0.81700003 4286591789
0.012097321 0.01921339 0.81700003 4287844382
0.013487437 0.019166358 0.81500006 4288633897
0.014907167 0.019166358 0.81500006 4287252804
0.016326897 0.019166358 0.81500006 4282122240
0.017746627 0.019166358 0.81500006 4286458936
0.019119322 0.019119322 0.81300002 4292709527
0.02053557 0.019119322 0.81300002 4291008676
0.021951815 0.019119322 0.81300002 4290745504
0.023368061 0.019119322 0.81300002 4290681240
0.024784306 0.019119322 0.81300002 4290484118
0.0261361 0.019072289 0.81100005 4289034886
0.027548863 0.019072289 0.81100005 4281731864
0.028961625 0.019072289 0.81100005 4284940288
0.030299481 0.019025255 0.80900002 4290923079
0.031708755 0.019025255 0.80900002 4289949313
0.033118036 0.019025255 0.80900002 4290804621
0.034527313 0.019025255 0.80900002 4290540666
0.03584775 0.018978221 0.80700004 4288369754
0.037253547 0.018978221 0.80700004 4289152590
0.038659338 0.018978221 0.80700004 4288626246
0.040065132 0.018978221 0.80700004 4288953412
0.041470926 0.018978221 0.80700004 4288821825
0.04287672 0.018978221 0.80700004 4288620324
0.044282518 0.018978221 0.80700004 4285923328
0.045688309 0.018978221 0.80700004 4287769152
0.047094107 0.018978221 0.80700004 4294948041
-0.028330149 0.021066008 0.83400005 4287168512
-0.026877321 0.021066008 0.83400005 4291572271
-0.025363522 0.021015489 0.83200002 4289020740
-0.023914179 0.021015489 0.83200002 4287309866
-0.022464834 0.021015489 0.83200002 4286251008
-0.021015489 0.021015489 0.83200002 4288553232
-0.019519113 0.020964973 0.83000004 4287770405
-0.018073253 0.020964973 0.83000004 4284481536
-0.016587328 0.020914454 0.82800007 4285792256
-0.01514495 0.020914454 0.82800007 4289735207
-0.013702574 0.020914454 0.82800007 4287512410
-0.012260198 0.020914454 0.82800007 4283301914
-0.010817821 0.020914454 0.82800007 4285988864
-0.0093527995 0.020863935 0.82600003 4292366158
-0.0079139071 0.020863935 0.82600003 4289555561
-0.0064593367 0.020813419 0.82400006 4289621354
-0.0050239288 0.020813419 0.82400006 4289357162
-0.0035885205 0.020813419 0.82400006 4282843655
-0.0021531123 0.020813419 0.82400006 4285530112
-0.00071770413 0.020813419 0.82400006 4291183939
0.00071596209 0.0207629 0.82200003 4289686375
0.0021478862 0.0207629 0.82200003 4291265663
0.0035711005 0.020712381 0.82000005 4290742145
0.0049995407 0.020712381 0.82000005 4284426017
0.006427981 0.020712381 0.82000005 4285333504
0.0078372583 0.020661863 0.81800002 4289342248
0.0092622144 0.020661863 0.81800002 4288499786
0.010674106 0.020636605 0.81700003 4288763215
0.012097321 0.020636605 0.81700003 4288043855
0.013537084 0.020661863 0.81800002 4288240977
0.01494375 0.020636605 0.81700003 4287513171
0.016366962 0.020636605 0.81700003 4283170832
0.017790178 0.020636605 0.81700003 4287374848
0.019166358 0.020586088 0.81500006 4293888080
0.020586088 0.020586088 0.81500006 4290616217
0.022005817 0.020586088 0.81500006 4290353045
0.023368061 0.02053557 0.81300002 4290550176
0.024784306 0.02053557 0.81300002 4290550176
0.026200553 0.02053557 0.81300002 4290218143
0.027616799 0.02053557 0.81300002 4282322983
0.028961625 0.020485051 0.81100005 4284284928
0.030374385 0.020485051 0.81100005 4290333257
0.03178715 0.020485051 0.81100005 4289359492
0.03319991 0.020485051 0.81100005 4290280594
0.034612674 0.020485051 0.81100005 4290346136
0.035936594 0.020434532 0.80900002 4288964483
0.037345868 0.020434532 0.80900002 4288891993
0.038755149 0.020434532 0.80900002 4288168527
0.040164426 0.020434532 0.80900002 4288554281
0.041573707 0.020434532 0.80900002 4287501337
0.042982981 0.020434532 0.80900002 4287758336
0.044282518 0.020384016 0.80700004 4287365120
0.045688309 0.020384016 0.80700004 4288428360
0.047094107 0.020384016 0.80700004 4294950348
-0.028398085 0.022572838 0.83600003 4286840832
-0.026941774 0.022572838 0.83600003 4290060061
-0.025424493 0.022518838 0.83400005 4288953401
-0.023914179 0.022464834 0.83200002 4288887607
-0.022464834 0.022464834 0.83200002 4288294455
-0.021015489 0.022464834 0.83200002 4288162613
-0.019566147 0.022464834 0.83200002 4288360750
-0.018116802 0.022464834 0.83200002 4288623666
-0.016667457 0.022464834 0.83200002 4288230708
-0.015181531 0.022410832 0.83000004 4289086017
-0.013735672 0.022410832 0.83000004 4288694662
-0.012289811 0.022410832 0.83000004 4287641974
-0.010843951 0.022410832 0.83000004 4287771652
-0.0093980916 0.022410832 0.83000004 4288363532
-0.007933069 0.022356832 0.82800007 4288100374
-0.0064750146 0.022302829 0.82600003 4287639823
-0.0050361222 0.022302829 0.82600003 4287840033
-0.0035972304 0.022302829 0.82600003 4287116309
-0.0021583382 0.022302829 0.82600003 4287178266
-0.00071770413 0.022248827 0.82400006 4286783764
0.00071770413 0.022248827 0.82400006 4287638784
0.0021478862 0.022194823 0.82200003 4288099331
0.0035798103 0.022194823 0.82200003 4287640884
0.0050117346 0.022194823 0.82200003 4286061852
0.0064436588 0.022194823 0.82200003 4286382080
0.0078564212 0.022140823 0.82000005 4286776064
0.0092848614 0.022140823 0.82000005 4287508283
0.010713302 0.022140823 0.82000005 4290468711
0.012141741 0.022140823 0.82000005 4289161062
0.013570182 0.022140823 0.82000005 4289621613
0.014962039 0.02208682 0.81800002 4288175986
0.016386995 0.02208682 0.81800002 4281991188
0.017790178 0.022059821 0.81700003 4286127872
0.01921339 0.022059821 0.81700003 4289417504
0.020636605 0.022059821 0.81700003 4290676291
0.022005817 0.022005817 0.81500006 4291466063
0.023425549 0.022005817 0.81500006 4291072657
0.024845278 0.022005817 0.81500006 4290677899
0.026265008 0.022005817 0.81500006 4290283111
0.027616799 0.021951815 0.81300002 4284164362
0.029033044 0.021951815 0.81300002 4285464832
0.03044929 0.021951815 0.81300002 4290399032
0.031865541 0.021951815 0.81300002 4289229440
0.033281785 0.021951815 0.81300002 4290676886
0.034698032 0.021951815 0.81300002 4290347903
0.036114275 0.021951815 0.81300002 4289097836
0.037530523 0.021951815 0.81300002 4288629869
0.038850959 0.021897813 0.81100005 4287511387
0.04026372 0.021897813 0.81100005 4287960373
0.041573707 0.021843811 0.80900002 4286907684
0.042982981 0.021843811 0.80900002 4287561750
0.044392262 0.021843811 0.80900002 4287823898
0.045801535 0.021843811 0.80900002 4288959835
0.04721082 0.021843811 0.80900002 4294953937
-0.028466027 0.024086637 0.83800006 4286578688
-0.027006229 0.024086637 0.83800006 4288942609
-0.025546433 0.024086637 0.83800006 4288292640
-0.024029151 0.024029151 0.83600003 4289542708
-0.022572838 0.024029151 0.83600003 4289284662
-0.021116527 0.024029151 0.83600003 4288100644
-0.01961318 0.023971664 0.83400005 4288622623
-0.018160351 0.023971664 0.83400005 4289083174
-0.016667457 0.023914179 0.83200002 4289611848
-0.015218113 0.023914179 0.83200002 4290006606
-0.01376877 0.023914179 0.83200002 4290075002
-0.012289811 0.023856692 0.83000004 4289285486
-0.010843951 0.023856692 0.83000004 4288827975
-0.0093980916 0.023856692 0.83000004 4287841079
-0.007952231 0.023856692 0.83000004 4288100394
-0.006490693 0.023799207 0.82800007 4287573794
-0.0050483169 0.023799207 0.82800007 4288365608
-0.0036059406 0.023799207 0.82800007 4288299815
-0.0021583382 0.02374172 0.82600003 4288167214
-0.00071944605 0.02374172 0.82600003 4287904042
0.00071944605 0.02374172 0.82600003 4287706659
0.0021531123 0.023684235 0.82400006 4287377950
0.0035885205 0.023684235 0.82400006 4287245878
0.0050239288 0.023684235 0.82400006 4287048243
0.0064436588 0.023626748 0.82200003 4287045120
0.0078755822 0.023626748 0.82200003 4286979328
0.0093075074 0.023626748 0.82200003 4287374616
0.010739431 0.023626748 0.82200003 4289677371
0.012171356 0.023626748 0.82200003 4288433743
0.013603278 0.023626748 0.82200003 4290144618
0.014998622 0.023569264 0.82000005 4288640390
0.016427062 0.023569264 0.82000005 4286074719
0.017855503 0.023569264 0.82000005 4285936640
0.019236907 0.023511777 0.81800002 4288173583
0.020661863 0.023511777 0.81800002 4288565320
0.022059821 0.023483032 0.81700003 4290209889
0.023483032 0.023483032 0.81700003 4290082166
0.024906248 0.023483032 0.81700003 4290016373
0.026265008 0.023425549 0.81500006 4288504915
0.027684739 0.023425549 0.81500006 4284294163
0.029104467 0.023425549 0.81500006 4285927692
0.030524198 0.023425549 0.81500006 4290532946
0.031943928 0.023425549 0.81500006 4289427847
0.033363659 0.023425549 0.81500006 4290414742
0.034783389 0.023425549 0.81500006 4289693071
0.03620312 0.023425549 0.81500006 4288771969
0.03762285 0.023425549 0.81500006 4289290100
0.038946766 0.023368061 0.81300002 4287645274
0.040363014 0.023368061 0.81300002 4288952910
0.041676484 0.023310576 0.81100005 4288689994
0.043089248 0.023310576 0.81100005 4288491305
0.044502009 0.023310576 0.81100005 4286583308
0.045914773 0.023310576 0.81100005 4290210170
-0.028466027 0.025546433 0.83800006 4286447616
-0.027006229 0.025546433 0.83800006 4286644224
-0.025546433 0.025546433 0.83800006 4287037440
-0.024086637 0.025546433 0.83800006 4287692800
-0.022626841 0.025546433 0.83800006 4288222976
-0.021167045 0.025546433 0.83800006 4289144064
-0.019660214 0.025485462 0.83600003 4288686592
-0.018203903 0.025485462 0.83600003 4289147139
-0.016707525 0.025424493 0.83400005 4288952869
-0.015254697 0.025424493 0.83400005 4288952869
-0.01376877 0.025363522 0.83200002 4288821031
-0.012319425 0.025363522 0.83200002 4288886824
-0.010870081 0.025363522 0.83200002 4288295709
-0.0094207367 0.025363522 0.83200002 4287242764
-0.007952231 0.025302552 0.83000004 4287763995
-0.0065063708 0.025302552 0.83000004 4287435030
-0.0050605107 0.025302552 0.83000004 4287963423
-0.0036146503 0.025302552 0.83000004 4288884525
-0.0021635643 0.025241584 0.82800007 4288428060
-0.00072118809 0.025241584 0.82800007 4290665022
0.00072118809 0.025241584 0.82800007 4289683547
0.0021635643 0.025241584 0.82800007 4290209891
0.0035972304 0.025180614 0.82600003 4289751655
0.0050361222 0.025180614 0.82600003 4289949033
0.0064593367 0.025119644 0.82400006 4289948781
0.0078947451 0.025119644 0.82400006 4290409332
0.0093075074 0.025058672 0.82200003 4289685091
0.010739431 0.025058672 0.82200003 4289093211
0.012171356 0.025058672 0.82200003 4289290837
0.013603278 0.025058672 0.82200003 4290672490
0.015035204 0.025058672 0.82200003 4289952895
0.016467128 0.025058672 0.82200003 4289426551
0.017855503 0.024997704 0.82000005 4288634940
0.019283943 0.024997704 0.82000005 4286200856
0.020712381 0.024997704 0.82000005 4287440954
0.02208682 0.024936732 0.81800002 4286388266
0.023511777 0.024936732 0.81800002 4287374866
0.024906248 0.024906248 0.81700003 4286848522
0.026329461 0.024906248 0.81700003 4287314946
0.027752675 0.024906248 0.81700003 4288696599
0.029175891 0.024906248 0.81700003 4288833144
0.030599104 0.024906248 0.81700003 4291464864
0.03202232 0.024906248 0.81700003 4290810782
0.033445533 0.024906248 0.81700003 4290679195
0.034868747 0.024906248 0.81700003 4290218131
0.036291961 0.024906248 0.81700003 4290218131
0.037715174 0.024906248 0.81700003 4290281108
0.039042581 0.024845278 0.81500006 4290215058
0.040462308 0.024845278 0.81500006 4290014854
0.041882042 0.024845278 0.81500006 4289620096
0.043301772 0.024845278 0.81500006 4288823933
0.044721503 0.024845278 0.81500006 4288889727
0.046027999 0.024784306 0.81300002 4290608020
-0.028533963 0.027070682 0.84000003 4286578688
-0.027070682 0.027070682 0.84000003 4286709760
-0.025607403 0.027070682 0.84000003 4287037440
-0.024086637 0.027006229 0.83800006 4287102976
-0.022626841 0.027006229 0.83800006 4287365120
-0.021167045 0.027006229 0.83800006 4287627264
-0.019707248 0.027006229 0.83800006 4288152832
-0.018247452 0.027006229 0.83800006 4289402629
-0.01674759 0.026941774 0.83600003 4288160284
-0.015291276 0.026941774 0.83600003 4288094491
-0.013801867 0.026877321 0.83400005 4287831835
-0.012349039 0.026877321 0.83400005 4287634713
-0.010870081 0.026812866 0.83200002 4287696142
-0.0094207367 0.026812866 0.83200002 4286578688
-0.0079713929 0.026812866 0.83200002 4287430656
-0.0065220483 0.026812866 0.83200002 4287430656
-0.0050727045 0.026812866 0.83200002 4287496192
-0.0036233601 0.026812866 0.83200002 4287824128
-0.0021687904 0.026748413 0.83000004 4288685584
-0.00072293007 0.026748413 0.83000004 4291448890
0.00072293007 0.026748413 0.83000004 4289681750
0.0021687904 0.026748413 0.83000004 4289484372
0.0036146503 0.026748413 0.83000004 4289156187
0.0050483169 0.026683958 0.82800007 4289945447
0.0064750146 0.026619505 0.82600003 4289357664
0.0079139071 0.026619505 0.82600003 4289620580
0.0093301535 0.026555052 0.82400006 4289686375
0.010765561 0.026555052 0.82400006 4289094237
0.01220097 0.026555052 0.82400006 4289618783
0.013636378 0.026555052 0.82400006 4290474092
0.015035204 0.026490597 0.82200003 4290343287
0.016467128 0.026490597 0.82200003 4290014322
0.017899051 0.026490597 0.82200003 4289685343
0.019330975 0.026490597 0.82200003 4287843139
0.0207629 0.026490597 0.82200003 4288168005
0.022140823 0.026426144 0.82000005 4287970882
0.023569264 0.026426144 0.82000005 4288100933
0.024936732 0.026361689 0.81800002 4288166726
0.026361689 0.026361689 0.81800002 4287840575
0.027786644 0.026361689 0.81800002 4290011744
0.029211601 0.026361689 0.81800002 4289755261
0.030636556 0.026361689 0.81800002 4291136914
0.032061514 0.026361689 0.81800002 4290482330
0.033445533 0.026329461 0.81700003 4290087828
0.034868747 0.026329461 0.81700003 4290217361
0.036291961 0.026329461 0.81700003 4290019983
0.037715174 0.026329461 0.81700003 4290084492
0.039138388 0.026329461 0.81700003 4290018699
0.040561602 0.026329461 0.81700003 4289753217
0.041882042 0.026265008 0.81500006 4288371564
0.043301772 0.026265008 0.81500006 4288294938
0.044721503 0.026265008 0.81500006 4288887076
