# .PCD v0.7 - Point Cloud Data file format
VERSION 0.7
FIELDS x y z rgba
SIZE 4 4 4 4
TYPE F F F U
COUNT 1 1 1 1
WIDTH 1066
HEIGHT 1
VIEWPOINT 0 0 0 1 0 0 0
POINTS 1066
DATA ascii
0.11714516 -0.14753957 0.72700006 4288371456
0.11857446 -0.14774252 0.72800004 4288239616
0.11984265 -0.14774252 0.72800004 4288369920
0.12111082 -0.14774252 0.72800004 4288238336
0.12221089 -0.14753957 0.72700006 4288304128
0.12347733 -0.14753957 0.72700006 4288304128
0.12474377 -0.14753957 0.72700006 4288566016
0.12601019 -0.14753957 0.72700006 4288631808
0.12727664 -0.14753957 0.72700006 4288501760
0.12854306 -0.14753957 0.72700006 4288435712
0.12980951 -0.14753957 0.72700006 4288436224
0.13125624 -0.14774252 0.72800004 4288370432
0.13234237 -0.14753957 0.72700006 4288239104
0.13360882 -0.14753957 0.72700006 4288370432
0.13487524 -0.14753957 0.72700006 4288173312
0.13614167 -0.14753957 0.72700006 4287909888
0.13740811 -0.14753957 0.72700006 4287712768
0.13867454 -0.14753957 0.72700006 4287646976
0.13994098 -0.14753957 0.72700006 4287185664
0.14120741 -0.14753957 0.72700006 4286198784
0.14208189 -0.14713369 0.72500002 4286457088
0.14334485 -0.14713369 0.72500002 4286062336
0.14500672 -0.14753957 0.72700006 4285339904
0.14627315 -0.14753957 0.72700006 4284418816
0.14753957 -0.14753957 0.72700006 4284813824
0.14880602 -0.14753957 0.72700006 4287642903
0.14965959 -0.14713369 0.72500002 4286662912
0.15092254 -0.14713369 0.72500002 4286268160
0.15218548 -0.14713369 0.72500002 4284761856
0.15344843 -0.14713369 0.72500002 4279500800
0.15471138 -0.14713369 0.72500002 4278517774
0.10618362 -0.14687674 0.73000002 4287392290
0.10716088 -0.14647435 0.72800004 4287129856
0.10842906 -0.14647435 0.72800004 4286340608
0.10969724 -0.14647435 0.72800004 4286339840
0.11096542 -0.14647435 0.72800004 4286339840
0.11223359 -0.14647435 0.72800004 4286405632
0.11334586 -0.14627315 0.72700006 4286339840
0.11461229 -0.14627315 0.72700006 4286339840
0.11587873 -0.14627315 0.72700006 4286471680
0.11714516 -0.14627315 0.72700006 4286603520
0.11857446 -0.14647435 0.72800004 4286471680
0.11984265 -0.14647435 0.72800004 4286274590
0.12111082 -0.14647435 0.72800004 4285879832
0.12221089 -0.14627315 0.72700006 4286339328
0.12347733 -0.14627315 0.72700006 4286931456
0.12491535 -0.14647435 0.72800004 4286800384
0.12618352 -0.14647435 0.72800004 4286866176
0.12727664 -0.14627315 0.72700006 4286538011
0.12854306 -0.14627315 0.72700006 4286669598
0.12980951 -0.14627315 0.72700006 4286538293
0.13125624 -0.14647435 0.72800004 4286275121
0.13234237 -0.14627315 0.72700006 4286143033
0.13360882 -0.14627315 0.72700006 4286143033
0.13487524 -0.14627315 0.72700006 4285880890
0.13614167 -0.14627315 0.72700006 4285157168
0.13740811 -0.14627315 0.72700006 4284895235
0.13867454 -0.14627315 0.72700006 4284632320
0.13994098 -0.14627315 0.72700006 4284891136
0.14120741 -0.14627315 0.72700006 4283180544
0.14208189 -0.14587075 0.72500002 4284356352
0.14334485 -0.14587075 0.72500002 4283961600
0.14500672 -0.14627315 0.72700006 4283567104
0.14627315 -0.14627315 0.72700006 4282646528
0.14753957 -0.14627315 0.72700006 4281468416
0.14839664 -0.14587075 0.72500002 4282455296
0.14965959 -0.14587075 0.72500002 4285090304
0.15092254 -0.14587075 0.72500002 4285222144
0.15218548 -0.14587075 0.72500002 4281740800
0.15344843 -0.14587075 0.72500002 4278517760
0.10701369 -0.14500672 0.72700006 4287459843
0.10842906 -0.14520617 0.72800004 4286933504
0.10969724 -0.14520617 0.72800004 4286998528
0.11096542 -0.14520617 0.72800004 4287261440
0.11223359 -0.14520617 0.72800004 4287195660
0.11350177 -0.14520617 0.72800004 4286998538
0.11461229 -0.14500672 0.72700006 4287064832
0.11587873 -0.14500672 0.72700006 4287196672
0.11714516 -0.14500672 0.72700006 4286469888
0.11857446 -0.14520617 0.72800004 4284298752
0.11984265 -0.14520617 0.72800004 4284884767
0.12111082 -0.14520617 0.72800004 4284358423
0.122379 -0.14520617 0.72800004 4285149211
0.12364718 -0.14520617 0.72800004 4287517759
0.12491535 -0.14520617 0.72800004 4286078208
0.12618352 -0.14520617 0.72800004 4285091072
0.12727664 -0.14500672 0.72700006 4284236583
0.12854306 -0.14500672 0.72700006 4283776032
0.12998806 -0.14520617 0.72800004 4283575875
0.13125624 -0.14520617 0.72800004 4282918202
0.1325244 -0.14520617 0.72800004 4282981190
0.13360882 -0.14500672 0.72700006 4282323516
0.13487524 -0.14500672 0.72700006 4283242277
0.13632894 -0.14520617 0.72800004 4283637035
0.13759711 -0.14520617 0.72800004 4284556571
0.13886529 -0.14520617 0.72800004 4284622365
0.13994098 -0.14500672 0.72700006 4285083658
0.14120741 -0.14500672 0.72700006 4285083658
0.14247385 -0.14500672 0.72700006 4285606656
0.14374028 -0.14500672 0.72700006 4285672448
0.14500672 -0.14500672 0.72700006 4284098816
0.14627315 -0.14500672 0.72700006 4280877056
0.14753957 -0.14500672 0.72700006 4280680501
0.14839664 -0.1446078 0.72500002 4282323022
0.14965959 -0.1446078 0.72500002 4284369152
0.15092254 -0.1446078 0.72500002 4285027328
0.15218548 -0.1446078 0.72500002 4282592768
0.15344843 -0.1446078 0.72500002 4279173120
0.10701369 -0.14374028 0.72700006 4287723294
0.10842906 -0.14393799 0.72800004 4286999314
0.10969724 -0.14393799 0.72800004 4286999818
0.11096542 -0.14393799 0.72800004 4287197198
0.11223359 -0.14393799 0.72800004 4287458348
0.11350177 -0.14393799 0.72800004 4287195433
0.11476994 -0.14393799 0.72800004 4287129385
0.11603812 -0.14393799 0.72800004 4287129385
0.11730629 -0.14393799 0.72800004 4286008844
0.11890022 -0.14433342 0.73000002 4282455808
0.12017188 -0.14433342 0.73000002 4284678144
0.12144355 -0.14433342 0.73000002 4284612608
0.1227152 -0.14433342 0.73000002 4284355840
0.12398686 -0.14433342 0.73000002 4287382045
0.12525852 -0.14433342 0.73000002 4285092619
0.12653019 -0.14433342 0.73000002 4282921216
0.12780185 -0.14433342 0.73000002 4282984704
0.12871988 -0.14393799 0.72800004 4283445250
0.12998806 -0.14393799 0.72800004 4282654512
0.13161682 -0.14433342 0.73000002 4281141273
0.1325244 -0.14393799 0.72800004 4281991198
0.13379259 -0.14393799 0.72800004 4281794586
0.13506076 -0.14393799 0.72800004 4283498496
0.13632894 -0.14393799 0.72800004 4285273101
0.13759711 -0.14393799 0.72800004 4285603586
0.13886529 -0.14393799 0.72800004 4285735428
0.14013347 -0.14393799 0.72800004 4285934599
0.14140165 -0.14393799 0.72800004 4286066186
0.14266981 -0.14393799 0.72800004 4286065684
0.14393799 -0.14393799 0.72800004 4286263319
0.14520617 -0.14393799 0.72800004 4284229905
0.14647435 -0.14393799 0.72800004 4280680448
0.14753957 -0.14374028 0.72700006 4280877097
0.14880602 -0.14374028 0.72700006 4283571793
0.14965959 -0.14334485 0.72500002 4284303378
0.15092254 -0.14334485 0.72500002 4284698136
0.15218548 -0.14334485 0.72500002 4281476357
0.10745528 -0.14306176 0.73000002 4286867968
0.10842906 -0.14266981 0.72800004 4286276096
0.10969724 -0.14266981 0.72800004 4286078208
0.11096542 -0.14266981 0.72800004 4285815040
0.11223359 -0.14266981 0.72800004 4285483289
0.11381358 -0.14306176 0.73000002 4285549338
0.11508524 -0.14306176 0.73000002 4285024275
0.11635689 -0.14306176 0.73000002 4284103173
0.11762856 -0.14306176 0.73000002 4284952601
0.1190631 -0.14325774 0.73100001 4283570948
0.1203365 -0.14325774 0.73100001 4285074455
0.1216099 -0.14325774 0.73100001 4284943125
0.1228833 -0.14325774 0.73100001 4284684562
0.1241567 -0.14325774 0.73100001 4287382075
0.12543011 -0.14325774 0.73100001 4285811456
0.1267035 -0.14325774 0.73100001 4283508736
0.12797691 -0.14325774 0.73100001 4283705126
0.12925032 -0.14325774 0.73100001 4285744453
0.13052371 -0.14325774 0.73100001 4284498722
0.13179712 -0.14325774 0.73100001 4282130176
0.13288848 -0.14306176 0.73000002 4283374901
0.13416013 -0.14306176 0.73000002 4284559431
0.1354318 -0.14306176 0.73000002 4285606668
0.13670346 -0.14306176 0.73000002 4285869840
0.13797513 -0.14306176 0.73000002 4286065924
0.13924679 -0.14306176 0.73000002 4286000131
0.14051844 -0.14306176 0.73000002 4285411072
0.14179011 -0.14306176 0.73000002 4285016576
0.14306176 -0.14306176 0.73000002 4284292616
0.14433342 -0.14306176 0.73000002 4283371520
0.14560507 -0.14306176 0.73000002 4282848512
0.14647435 -0.14266981 0.72800004 4281204736
0.14774252 -0.14266981 0.72800004 4281532478
0.14880602 -0.14247385 0.72700006 4284756335
0.15007246 -0.14247385 0.72700006 4284697089
0.15092254 -0.14208189 0.72500002 4284170752
0.15218548 -0.14208189 0.72500002 4281537816
0.10872694 -0.14179011 0.73000002 4285553181
0.1099986 -0.14179011 0.73000002 4285551644
0.11127026 -0.14179011 0.73000002 4284236040
0.11254192 -0.14179011 0.73000002 4284231424
0.11396948 -0.14198433 0.73100001 4284691968
0.11524289 -0.14198433 0.73100001 4284694292
0.11651628 -0.14198433 0.73100001 4283838984
0.11778969 -0.14198433 0.73100001 4284362257
0.1190631 -0.14198433 0.73100001 4283572997
0.1203365 -0.14198433 0.73100001 4285206804
0.1216099 -0.14198433 0.73100001 4284943889
0.1228833 -0.14198433 0.73100001 4284682518
0.1241567 -0.14198433 0.73100001 4287313981
0.12543011 -0.14198433 0.73100001 4286203905
0.1267035 -0.14198433 0.73100001 4284164352
0.12797691 -0.14198433 0.73100001 4284420096
0.12960395 -0.14237282 0.73300004 4287512350
0.13088083 -0.14237282 0.73300004 4285417257
0.13215771 -0.14237282 0.73300004 4282259200
0.13307053 -0.14198433 0.73100001 4284093457
0.13434392 -0.14198433 0.73100001 4286264625
0.13561733 -0.14198433 0.73100001 4286393883
0.13689072 -0.14198433 0.73100001 4286393883
0.13816412 -0.14198433 0.73100001 4286328079
0.13943753 -0.14198433 0.73100001 4286525201
0.14071092 -0.14198433 0.73100001 4284951594
0.14198433 -0.14198433 0.73100001 4284425249
0.14325774 -0.14198433 0.73100001 4282128670
0.14453113 -0.14198433 0.73100001 4281339154
0.14560507 -0.14179011 0.73000002 4281402396
0.14687674 -0.14179011 0.73000002 4280746003
0.14774252 -0.14140165 0.72800004 4280748094
0.1490107 -0.14140165 0.72800004 4285024639
0.15007246 -0.14120741 0.72700006 4285356874
0.15133889 -0.14120741 0.72700006 4282856997
0.10749273 -0.14225085 0.73900002 4282854912
0.10863288 -0.14205837 0.73800004 4284495142
0.10962059 -0.14167339 0.73600006 4285482037
0.1109027 -0.14167339 0.73600006 4284753951
0.11203238 -0.14148089 0.73500001 4283569676
0.11300443 -0.14109592 0.73300004 4284355328
0.1142813 -0.14109592 0.73300004 4284881666
0.11555819 -0.14109592 0.73300004 4284754201
0.11683508 -0.14109592 0.73300004 4285543716
0.11811198 -0.14109592 0.73300004 4285149960
0.11938886 -0.14109592 0.73300004 4284163072
0.12066574 -0.14109592 0.73300004 4285205007
0.12194262 -0.14109592 0.73300004 4285205007
0.12355571 -0.14148089 0.73500001 4284615969
0.1244964 -0.14109592 0.73300004 4287115846
0.12577328 -0.14109592 0.73300004 4286073344
0.12705018 -0.14109592 0.73300004 4284099840
0.12832706 -0.14109592 0.73300004 4284687363
0.12960395 -0.14109592 0.73300004 4286990118
0.13088083 -0.14109592 0.73300004 4285483802
0.13215771 -0.14109592 0.73300004 4282654720
0.13307053 -0.14071092 0.73100001 4284160269
0.13434392 -0.14071092 0.73100001 4285739301
0.13598838 -0.14109592 0.73300004 4286131477
0.13726525 -0.14109592 0.73300004 4286131477
0.13854215 -0.14109592 0.73300004 4285211136
0.13981903 -0.14109592 0.73300004 4283237376
0.14109592 -0.14109592 0.73300004 4282647598
0.14237282 -0.14109592 0.73300004 4282384683
0.14364968 -0.14109592 0.73300004 4281929008
0.14492658 -0.14109592 0.73300004 4282060338
0.14580454 -0.14071092 0.73100001 4281928506
0.14707795 -0.14071092 0.73100001 4281204783
0.1481484 -0.14051844 0.73000002 4282255169
0.14942007 -0.14051844 0.73000002 4286268541
0.15007246 -0.13994098 0.72700006 4285289993
0.10520201 -0.14134502 0.74100006 4285158212
0.10649282 -0.14134502 0.74100006 4285157669
0.10749273 -0.14096352 0.73900002 4282723328
0.10863288 -0.14077277 0.73800004 4284229905
0.10962059 -0.14039129 0.73600006 4284822043
0.1109027 -0.14039129 0.73600006 4285077526
0.11203238 -0.14020053 0.73500001 4284419339
0.11331275 -0.14020053 0.73500001 4285205248
0.11459313 -0.14020053 0.73500001 4285468418
0.11587349 -0.14020053 0.73500001 4284882439
0.11715387 -0.14020053 0.73500001 4285935383
0.11843424 -0.14020053 0.73500001 4285609760
0.11971461 -0.14020053 0.73500001 4284030727
0.12099498 -0.14020053 0.73500001 4285205511
0.12227535 -0.14020053 0.73500001 4285008133
0.12372382 -0.14039129 0.73600006 4284550176
0.12483608 -0.14020053 0.73500001 4287379275
0.12611645 -0.14020053 0.73500001 4286272545
0.12739682 -0.14020053 0.73500001 4285680152
0.12867719 -0.14020053 0.73500001 4285876480
0.12995757 -0.14020053 0.73500001 4286600198
0.13123794 -0.14020053 0.73500001 4286074147
0.13251831 -0.14020053 0.73500001 4283771392
0.13379867 -0.14020053 0.73500001 4284819464
0.13507906 -0.14020053 0.73500001 4285674773
0.13635942 -0.14020053 0.73500001 4286065674
0.13763979 -0.14020053 0.73500001 4286197004
0.13892016 -0.14020053 0.73500001 4284358411
0.14020053 -0.14020053 0.73500001 4281991168
0.14148089 -0.14020053 0.73500001 4281401394
0.14276126 -0.14020053 0.73500001 4281927482
0.14404163 -0.14020053 0.73500001 4282125379
0.14532201 -0.14020053 0.73500001 4282191172
0.14620346 -0.13981903 0.73300004 4282191422
0.14707795 -0.13943753 0.73100001 4281402162
0.14835134 -0.13943753 0.73100001 4282126403
0.14942007 -0.13924679 0.73000002 4286468484
0.10520201 -0.14005421 0.74100006 4285421384
0.10649282 -0.14005421 0.74100006 4285159425
0.10749273 -0.13967618 0.73900002 4282922752
0.10863288 -0.13948719 0.73800004 4284164140
0.10991847 -0.13948719 0.73800004 4284887862
0.11120407 -0.13948719 0.73800004 4285277467
0.11218482 -0.13910916 0.73600006 4284092936
0.11346692 -0.13910916 0.73600006 4285008396
0.11459313 -0.13892016 0.73500001 4285337361
0.11587349 -0.13892016 0.73500001 4285010193
0.11715387 -0.13892016 0.73500001 4285142035
0.11843424 -0.13892016 0.73500001 4284881174
0.11987749 -0.13910916 0.73600006 4284091914
0.1211596 -0.13910916 0.73600006 4285072897
0.12244172 -0.13910916 0.73600006 4285138690
0.12372382 -0.13910916 0.73600006 4284813091
0.12500595 -0.13910916 0.73600006 4287510861
0.12628804 -0.13910916 0.73600006 4286534946
0.12757017 -0.13910916 0.73600006 4286008601
0.12885226 -0.13910916 0.73600006 4285810432
0.13013439 -0.13910916 0.73600006 4286204928
0.1314165 -0.13910916 0.73600006 4285942016
0.13269863 -0.13910916 0.73600006 4284691712
0.13379867 -0.13892016 0.73500001 4285279754
0.13507906 -0.13892016 0.73500001 4285542670
0.13654494 -0.13910916 0.73600006 4285606656
0.13782707 -0.13910916 0.73600006 4283633152
0.13910916 -0.13910916 0.73600006 4282777627
0.14039129 -0.13910916 0.73600006 4282974751
0.14167339 -0.13910916 0.73600006 4282126403
0.14295551 -0.13910916 0.73600006 4282323526
0.14423761 -0.13910916 0.73600006 4282520137
0.14551973 -0.13910916 0.73600006 4282520137
0.14660238 -0.13892016 0.73500001 4282323775
0.14788274 -0.13892016 0.73500001 4281402673
0.14875725 -0.13854215 0.73300004 4282977094
0.15003411 -0.13854215 0.73300004 4287648397
0.10520201 -0.13876338 0.74100006 4286142027
0.10649282 -0.13876338 0.74100006 4285619737
0.10749273 -0.13838886 0.73900002 4284238084
0.10878007 -0.13838886 0.73900002 4282980887
0.11006741 -0.13838886 0.73900002 4284362540
0.11120407 -0.13820159 0.73800004 4285280547
0.11248966 -0.13820159 0.73800004 4284030223
0.11377526 -0.13820159 0.73800004 4285074952
0.11474904 -0.13782707 0.73600006 4285206795
0.11603115 -0.13782707 0.73600006 4285206804
0.11731327 -0.13782707 0.73600006 4285272597
0.11859537 -0.13782707 0.73600006 4285207574
0.12020324 -0.13820159 0.73800004 4285010195
0.12148884 -0.13820159 0.73800004 4285337611
0.12277443 -0.13820159 0.73800004 4285140488
0.12406003 -0.13820159 0.73800004 4284616469
0.12534562 -0.13820159 0.73800004 4287445568
0.12663122 -0.13820159 0.73800004 4286141496
0.12791681 -0.13820159 0.73800004 4285154601
0.12920241 -0.13820159 0.73800004 4284624640
0.13048801 -0.13820159 0.73800004 4285282560
0.13177361 -0.13820159 0.73800004 4285217024
0.13269863 -0.13782707 0.73600006 4285019392
0.13398072 -0.13782707 0.73600006 4285476365
0.13526285 -0.13782707 0.73600006 4285805330
0.13654494 -0.13782707 0.73600006 4285017609
0.13782707 -0.13782707 0.73600006 4282649088
0.13910916 -0.13782707 0.73600006 4282254626
0.14039129 -0.13782707 0.73600006 4282978348
0.14167339 -0.13782707 0.73600006 4282323526
0.14295551 -0.13782707 0.73600006 4282389319
0.14423761 -0.13782707 0.73600006 4282519885
0.14551973 -0.13782707 0.73600006 4282519885
0.14680184 -0.13782707 0.73600006 4282650943
0.14788274 -0.13763979 0.73500001 4281598512
0.14916311 -0.13763979 0.73500001 4282782530
0.15044349 -0.13763979 0.73500001 4287322246
0.10391118 -0.13747256 0.74100006 4280880128
0.10520201 -0.13747256 0.74100006 4286274883
0.10649282 -0.13747256 0.74100006 4285882385
0.10749273 -0.1371015 0.73900002 4285684749
0.10878007 -0.1371015 0.73900002 4283707455
0.11006741 -0.1371015 0.73900002 4283444026
0.11135475 -0.1371015 0.73900002 4285019158
0.11248966 -0.13691598 0.73800004 4283703298
0.11377526 -0.13691598 0.73800004 4284943616
0.11506085 -0.13691598 0.73800004 4285075200
0.11634645 -0.13691598 0.73800004 4285075979
0.11763204 -0.13691598 0.73800004 4285733652
0.11891765 -0.13691598 0.73800004 4285275668
0.12020324 -0.13691598 0.73800004 4284815117
0.12165345 -0.1371015 0.73900002 4285074703
0.12294079 -0.1371015 0.73900002 4284943373
0.12422813 -0.1371015 0.73900002 4284551179
0.12551548 -0.1371015 0.73900002 4285932832
0.1268028 -0.1371015 0.73900002 4285083658
0.12809014 -0.1371015 0.73900002 4283307264
0.12937748 -0.1371015 0.73900002 4284883715
0.13066481 -0.1371015 0.73900002 4286001939
0.13195217 -0.1371015 0.73900002 4285347328
0.1330592 -0.13691598 0.73800004 4285281536
0.13398072 -0.13654494 0.73600006 4285674752
0.13526285 -0.13654494 0.73600006 4285674752
0.13654494 -0.13654494 0.73600006 4285083658
0.13782707 -0.13654494 0.73600006 4282978048
0.13910916 -0.13654494 0.73600006 4282452797
0.14039129 -0.13654494 0.73600006 4282716225
0.14167339 -0.13654494 0.73600006 4282389573
0.14295551 -0.13654494 0.73600006 4282323523
0.14423761 -0.13654494 0.73600006 4282453074
0.14551973 -0.13654494 0.73600006 4282321488
0.14680184 -0.13654494 0.73600006 4282191172
0.14808397 -0.13654494 0.73600006 4281599035
0.14936607 -0.13654494 0.73600006 4283110716
0.15064819 -0.13654494 0.73600006 4287518846
0.15193029 -0.13654494 0.73600006 4285946905
0.10391118 -0.13618174 0.74100006 4281602560
0.10520201 -0.13618174 0.74100006 4286405435
0.10649282 -0.13618174 0.74100006 4286737441
0.10749273 -0.13581418 0.73900002 4286737441
0.10878007 -0.13581418 0.73900002 4283775780
0.11006741 -0.13581418 0.73900002 4282854678
0.11135475 -0.13581418 0.73900002 4284560935
0.11264208 -0.13581418 0.73900002 4284363555
0.11392943 -0.13581418 0.73900002 4284484873
0.11521676 -0.13581418 0.73900002 4284418824
0.1165041 -0.13581418 0.73900002 4284944904
0.11779144 -0.13581418 0.73900002 4286194971
0.11907879 -0.13581418 0.73900002 4285345057
0.12036612 -0.13581418 0.73900002 4284160782
0.12198269 -0.13618174 0.74100006 4284812548
0.12327351 -0.13618174 0.74100006 4284812548
0.12456434 -0.13618174 0.74100006 4284486668
0.12585516 -0.13618174 0.74100006 4285868321
0.12714598 -0.13618174 0.74100006 4285083908
0.1284368 -0.13618174 0.74100006 4283899392
0.12972763 -0.13618174 0.74100006 4285210880
0.13101844 -0.13618174 0.74100006 4285145088
0.13230927 -0.13618174 0.74100006 4284948480
0.13323949 -0.13581418 0.73900002 4285343232
0.13452683 -0.13581418 0.73900002 4286001937
0.13581418 -0.13581418 0.73900002 4285804815
0.1371015 -0.13581418 0.73900002 4284688912
0.13838886 -0.13581418 0.73900002 4282517760
0.13967618 -0.13581418 0.73900002 4282449953
0.14077277 -0.13563038 0.73800004 4282844711
0.14205837 -0.13563038 0.73800004 4282258484
0.14334397 -0.13563038 0.73800004 4281797933
0.14462957 -0.13563038 0.73800004 4281664315
0.14591515 -0.13563038 0.73800004 4281730108
0.14680184 -0.13526285 0.73600006 4281532980
0.14808397 -0.13526285 0.73600006 4280811562
0.14936607 -0.13526285 0.73600006 4282982445
0.15064819 -0.13526285 0.73600006 4286930026
0.15193029 -0.13526285 0.73600006 4285816869
0.10419164 -0.13525499 0.74300003 4281867008
0.10548595 -0.13525499 0.74300003 4285945900
0.10649282 -0.13489093 0.74100006 4287063040
0.10778365 -0.13489093 0.74100006 4288379148
0.10878007 -0.13452683 0.73900002 4285485330
0.11006741 -0.13452683 0.73900002 4281208576
0.11165611 -0.13489093 0.74100006 4283375169
0.11264208 -0.13452683 0.73900002 4285085787
0.11392943 -0.13452683 0.73900002 4284947480
0.11552858 -0.13489093 0.74100006 4283763462
0.11681941 -0.13489093 0.74100006 4284682518
0.11811023 -0.13489093 0.74100006 4285998122
0.11940105 -0.13489093 0.74100006 4285212928
0.12069188 -0.13489093 0.74100006 4283963136
0.12231193 -0.13525499 0.74300003 4284614656
0.12360624 -0.13525499 0.74300003 4284746496
0.12490054 -0.13525499 0.74300003 4284487183
0.12619485 -0.13525499 0.74300003 4285934629
0.12714598 -0.13489093 0.74100006 4285281024
0.1284368 -0.13489093 0.74100006 4284820480
0.13007776 -0.13525499 0.74300003 4284622853
0.13137208 -0.13525499 0.74300003 4283767552
0.13266638 -0.13525499 0.74300003 4284093970
0.13360009 -0.13489093 0.74100006 4284159763
0.13489093 -0.13489093 0.74100006 4284816132
0.13618174 -0.13489093 0.74100006 4285671441
0.13747256 -0.13489093 0.74100006 4285212675
0.13876338 -0.13489093 0.74100006 4284883712
0.14005421 -0.13489093 0.74100006 4283633450
0.14096352 -0.13452683 0.73900002 4283172899
0.14225085 -0.13452683 0.73900002 4283306294
0.14353821 -0.13452683 0.73900002 4283766845
0.14482555 -0.13452683 0.73900002 4283505957
0.14611287 -0.13452683 0.73900002 4283308835
0.14720076 -0.1343448 0.73800004 4281664567
0.14808397 -0.13398072 0.73600006 4280811562
0.14936607 -0.13398072 0.73600006 4283179062
0.15105754 -0.1343448 0.73800004 4286863470
0.10562792 -0.13414098 0.74400002 4285681951
0.10678025 -0.13396069 0.74300003 4287062528
0.10778365 -0.13360009 0.74100006 4288838929
0.10907447 -0.13360009 0.74100006 4286208281
0.11036529 -0.13360009 0.74100006 4281339648
0.11165611 -0.13360009 0.74100006 4282847262
0.11294693 -0.13360009 0.74100006 4285018687
0.11423776 -0.13360009 0.74100006 4285411615
0.11552858 -0.13360009 0.74100006 4284029962
0.11681941 -0.13360009 0.74100006 4284745216
0.11811023 -0.13360009 0.74100006 4286587412
0.11940105 -0.13360009 0.74100006 4285605648
0.12101763 -0.13396069 0.74300003 4284289792
0.12231193 -0.13396069 0.74300003 4284877058
0.12360624 -0.13396069 0.74300003 4285140486
0.12490054 -0.13396069 0.74300003 4284750339
0.12619485 -0.13396069 0.74300003 4286131992
0.12748915 -0.13396069 0.74300003 4285082886
0.12878346 -0.13396069 0.74300003 4285543437
0.13007776 -0.13396069 0.74300003 4284956978
0.13137208 -0.13396069 0.74300003 4281601280
0.13266638 -0.13396069 0.74300003 4282712598
0.13396069 -0.13396069 0.74300003 4283107356
0.13525499 -0.13396069 0.74300003 4285077760
0.13654929 -0.13396069 0.74300003 4285867530
0.13784359 -0.13396069 0.74300003 4285801481
0.13913791 -0.13396069 0.74300003 4285735688
0.14043221 -0.13396069 0.74300003 4285473313
0.14134502 -0.13360009 0.74100006 4284946969
0.14263585 -0.13360009 0.74100006 4284485664
0.14392667 -0.13360009 0.74100006 4285209386
0.14521749 -0.13360009 0.74100006 4284884015
0.14611287 -0.13323949 0.73900002 4283897120
0.14720076 -0.1330592 0.73800004 4282321936
0.14848636 -0.1330592 0.73800004 4281532676
0.14977196 -0.1330592 0.73800004 4284299325
0.15105754 -0.1330592 0.73800004 4286536031
0.10562792 -0.13284492 0.74400002 4284894232
0.10692397 -0.13284492 0.74400002 4287391744
0.10807457 -0.13266638 0.74300003 4289299981
0.10936887 -0.13266638 0.74300003 4287393536
0.11066318 -0.13266638 0.74300003 4282590464
0.11195748 -0.13266638 0.74300003 4282848334
0.11294693 -0.13230927 0.74100006 4284690538
0.11423776 -0.13230927 0.74100006 4284823839
0.11584041 -0.13266638 0.74300003 4284692253
0.11713471 -0.13266638 0.74300003 4284821263
0.11842901 -0.13266638 0.74300003 4284755470
0.11972331 -0.13266638 0.74300003 4284818710
0.12101763 -0.13266638 0.74300003 4284358159
0.12247654 -0.13284492 0.74400002 4284816918
0.1237726 -0.13284492 0.74400002 4284685076
0.12506865 -0.13284492 0.74400002 4284032515
0.12636469 -0.13284492 0.74400002 4284887567
0.12766074 -0.13284492 0.74400002 4283903491
0.12895678 -0.13284492 0.74400002 4283771905
0.13025284 -0.13284492 0.74400002 4282782500
0.13154888 -0.13284492 0.74400002 4281532433
0.13284492 -0.13284492 0.74400002 4282122789
0.13414098 -0.13284492 0.74400002 4282254376
0.13543703 -0.13284492 0.74400002 4284156420
0.13654929 -0.13266638 0.74300003 4284880142
0.13784359 -0.13266638 0.74300003 4285274635
0.13913791 -0.13266638 0.74300003 4285406477
0.14043221 -0.13266638 0.74300003 4285276431
0.14172652 -0.13266638 0.74300003 4285408274
0.14263585 -0.13230927 0.74100006 4284949269
0.14392667 -0.13230927 0.74100006 4284949269
0.14521749 -0.13230927 0.74100006 4284291362
0.14650832 -0.13230927 0.74100006 4283041552
0.14740022 -0.13195217 0.73900002 4282059264
0.14848636 -0.13177361 0.73800004 4282651648
0.14977196 -0.13177361 0.73800004 4284171040
0.10692397 -0.13154888 0.74400002 4286868737
0.10822002 -0.13154888 0.74400002 4288645148
0.10951606 -0.13154888 0.74400002 4287198733
0.11066318 -0.13137208 0.74300003 4282264064
0.11195748 -0.13137208 0.74300003 4282845245
0.11325179 -0.13137208 0.74300003 4285016157
0.11454609 -0.13137208 0.74300003 4284235077
0.11599631 -0.13154888 0.74400002 4283906112
0.11729235 -0.13154888 0.74400002 4283971378
0.1185884 -0.13154888 0.74400002 4283378985
0.11988445 -0.13154888 0.74400002 4283242760
0.1211805 -0.13154888 0.74400002 4283900691
0.12280578 -0.13190252 0.74600005 4284032011
0.12410532 -0.13190252 0.74600005 4283703046
0.12540485 -0.13190252 0.74600005 4283508745
0.12670439 -0.13190252 0.74600005 4284232724
0.12800391 -0.13190252 0.74600005 4283315227
0.12930346 -0.13190252 0.74600005 4282328332
0.13060299 -0.13190252 0.74600005 4281141248
0.13190252 -0.13190252 0.74600005 4281404416
0.13320205 -0.13190252 0.74600005 4282452480
0.13450158 -0.13190252 0.74600005 4282452480
0.13580112 -0.13190252 0.74600005 4283829248
0.13673308 -0.13154888 0.74400002 4284816128
0.13802911 -0.13154888 0.74400002 4285144320
0.13932517 -0.13154888 0.74400002 4285210112
0.14062122 -0.13154888 0.74400002 4285144320
0.14191727 -0.13154888 0.74400002 4285341696
0.14302082 -0.13137208 0.74300003 4284948992
0.14431514 -0.13137208 0.74300003 4284751360
0.14560944 -0.13137208 0.74300003 4284162304
0.14710146 -0.13154888 0.74400002 4283701760
0.14839751 -0.13154888 0.74400002 4282324224
0.14949237 -0.13137208 0.74300003 4283048192
0.10865639 -0.13077804 0.74700004 4288971276
0.10981046 -0.13060299 0.74600005 4287592192
0.11111 -0.13060299 0.74600005 4285158144
0.11240954 -0.13060299 0.74600005 4281668953
0.11370906 -0.13060299 0.74600005 4281011279
0.11500859 -0.13060299 0.74600005 4282650694
0.11630813 -0.13060299 0.74600005 4282321729
0.11760767 -0.13060299 0.74600005 4282781237
0.11890719 -0.13060299 0.74600005 4283307581
0.12020673 -0.13060299 0.74600005 4283703098
0.12150626 -0.13060299 0.74600005 4285150800
0.12297041 -0.13077804 0.74700004 4284561185
0.12427168 -0.13077804 0.74700004 4284561185
0.12557295 -0.13077804 0.74700004 4285549627
0.12687422 -0.13077804 0.74700004 4286733900
0.12817551 -0.13077804 0.74700004 4286406230
0.12947679 -0.13077804 0.74700004 4285616971
0.13077804 -0.13077804 0.74700004 4286143042
0.13207932 -0.13077804 0.74700004 4286669387
0.13320205 -0.13060299 0.74600005 4286669639
0.13450158 -0.13060299 0.74600005 4286406723
0.13580112 -0.13060299 0.74600005 4286929957
0.13710064 -0.13060299 0.74600005 4286798115
0.13840018 -0.13060299 0.74600005 4286862592
0.13969971 -0.13060299 0.74600005 4285941504
0.14099923 -0.13060299 0.74600005 4286071552
0.14229877 -0.13060299 0.74600005 4286269184
0.1435983 -0.13060299 0.74600005 4286336512
0.14489785 -0.13060299 0.74600005 4286336512
0.14619736 -0.13060299 0.74600005 4287063296
0.14749689 -0.13060299 0.74600005 4287195136
0.14879644 -0.13060299 0.74600005 4286868224
0.15009597 -0.13060299 0.74600005 4288118540
0.1513955 -0.13060299 0.74600005 4287527957
0.10865639 -0.12947679 0.74700004 4288577304
0.11025206 -0.12982343 0.74900001 4287527682
0.11125894 -0.12947679 0.74700004 4284896000
0.11256021 -0.12947679 0.74700004 4283379755
0.11416633 -0.12982343 0.74900001 4280484864
0.11516277 -0.12947679 0.74700004 4281401368
0.11646404 -0.12947679 0.74700004 4281729053
0.11776531 -0.12947679 0.74700004 4282779136
0.11890719 -0.12930346 0.74600005 4284358161
0.12020673 -0.12930346 0.74600005 4286270036
0.12150626 -0.12930346 0.74600005 4286204242
0.12297041 -0.12947679 0.74700004 4285353812
0.12427168 -0.12947679 0.74700004 4285419606
0.12557295 -0.12947679 0.74700004 4286928992
0.12687422 -0.12947679 0.74700004 4288442232
0.12851869 -0.12982343 0.74900001 4287789169
0.12982343 -0.12982343 0.74900001 4287591533
0.13112818 -0.12982343 0.74900001 4287129956
0.13243294 -0.12982343 0.74900001 4287261541
0.1337377 -0.12982343 0.74900001 4287327071
0.13504246 -0.12982343 0.74900001 4287195485
0.13634722 -0.12982343 0.74900001 4286997588
0.13728441 -0.12947679 0.74700004 4286931795
0.1385857 -0.12947679 0.74700004 4287061835
0.13988698 -0.12947679 0.74700004 4286667077
0.14118825 -0.12947679 0.74700004 4286140994
0.14248951 -0.12947679 0.74700004 4285943871
0.1437908 -0.12947679 0.74700004 4286601994
0.14509207 -0.12947679 0.74700004 4287786268
0.14639334 -0.12947679 0.74700004 4287459602
0.14769462 -0.12947679 0.74700004 4287459602
0.14899589 -0.12947679 0.74700004 4287459843
0.15029716 -0.12947679 0.74700004 4288841496
0.15159844 -0.12947679 0.74700004 4288184647
0.15289971 -0.12947679 0.74700004 4282395136
0.11054646 -0.12886184 0.75100005 4287723520
0.11155681 -0.12851869 0.74900001 4286604800
0.11286157 -0.12851869 0.74900001 4284761914
0.11416633 -0.12851869 0.74900001 4284564278
0.11547109 -0.12851869 0.74900001 4285880127
0.11646404 -0.12817551 0.74700004 4286208836
0.11776531 -0.12817551 0.74700004 4286800975
0.11906658 -0.12817551 0.74700004 4288511592
0.12036786 -0.12817551 0.74700004 4287988099
0.12166914 -0.12817551 0.74700004 4287658877
0.12297041 -0.12817551 0.74700004 4287133311
0.1246044 -0.12851869 0.74900001 4286936188
0.12590916 -0.12851869 0.74900001 4287459956
0.12755361 -0.12886184 0.75100005 4287920507
0.12886184 -0.12886184 0.75100005 4287525477
0.13017009 -0.12886184 0.75100005 4287591526
0.13147834 -0.12886184 0.75100005 4286867574
0.13278657 -0.12886184 0.75100005 4286670452
0.13409483 -0.12886184 0.75100005 4286538854
0.13504246 -0.12851869 0.74900001 4286538854
0.13634722 -0.12851869 0.74900001 4286800755
0.13765198 -0.12851869 0.74900001 4287656063
0.13895674 -0.12851869 0.74900001 4287393911
0.1402615 -0.12851869 0.74900001 4287328118
0.14156626 -0.12851869 0.74900001 4287262069
0.14287102 -0.12851869 0.74900001 4285814623
0.14417577 -0.12851869 0.74900001 4286404352
0.14548053 -0.12851869 0.74900001 4287522576
0.14678529 -0.12851869 0.74900001 4287327232
0.14809005 -0.12851869 0.74900001 4287129856
0.1493948 -0.12851869 0.74900001 4287327232
0.15029716 -0.12817551 0.74700004 4288972048
0.15159844 -0.12817551 0.74700004 4287724825
0.15289971 -0.12817551 0.74700004 4281145600
0.10923822 -0.12755361 0.75100005 4287788040
0.11054646 -0.12755361 0.75100005 4287788042
0.1118547 -0.12755361 0.75100005 4286801152
0.11316294 -0.12755361 0.75100005 4286797365
0.11447118 -0.12755361 0.75100005 4287455296
0.11577943 -0.12755361 0.75100005 4287259231
0.11708767 -0.12755361 0.75100005 4287719782
0.11839592 -0.12755361 0.75100005 4287591272
0.11970416 -0.12755361 0.75100005 4288446581
0.1210124 -0.12755361 0.75100005 4287529854
0.12232064 -0.12755361 0.75100005 4285819492
0.12362888 -0.12755361 0.75100005 4285227884
0.12493712 -0.12755361 0.75100005 4285227884
0.12624536 -0.12755361 0.75100005 4286078824
0.12755361 -0.12755361 0.75100005 4285947494
0.12886184 -0.12755361 0.75100005 4285618504
0.13017009 -0.12755361 0.75100005 4285618504
0.13147834 -0.12755361 0.75100005 4285356120
0.13278657 -0.12755361 0.75100005 4284961362
0.13409483 -0.12755361 0.75100005 4284830004
0.13540307 -0.12755361 0.75100005 4285093175
0.13671131 -0.12755361 0.75100005 4286603616
0.13801955 -0.12755361 0.75100005 4287985013
0.13932779 -0.12755361 0.75100005 4287329663
0.1402615 -0.12721393 0.74900001 4287198076
0.14156626 -0.12721393 0.74900001 4287263869
0.14287102 -0.12721393 0.74900001 4286605940
0.14417577 -0.12721393 0.74900001 4286470990
0.14548053 -0.12721393 0.74900001 4286537039
0.14678529 -0.12721393 0.74900001 4286931712
0.14809005 -0.12721393 0.74900001 4286931712
0.1493948 -0.12721393 0.74900001 4287458816
0.15069956 -0.12721393 0.74900001 4289169173
0.15159844 -0.12687422 0.74700004 4287134487
0.15289971 -0.12687422 0.74700004 4279305216
0.10967459 -0.12674968 0.75400001 4286997769
0.11069366 -0.12641346 0.75200003 4287128115
0.11200365 -0.12641346 0.75200003 4287720253
0.11331363 -0.12641346 0.75200003 4287262545
0.11462361 -0.12641346 0.75200003 4288315233
0.1159336 -0.12641346 0.75200003 4288315263
0.11724358 -0.12641346 0.75200003 4288315263
0.11855356 -0.12641346 0.75200003 4288315524
0.11986355 -0.12641346 0.75200003 4288447110
0.12117354 -0.12641346 0.75200003 4286871399
0.12248352 -0.12641346 0.75200003 4282397218
0.1237935 -0.12641346 0.75200003 4282724936
0.12510349 -0.12641346 0.75200003 4283316816
0.12641346 -0.12641346 0.75200003 4284171571
0.12772344 -0.12641346 0.75200003 4284039729
0.12903345 -0.12641346 0.75200003 4284170776
0.13034342 -0.12641346 0.75200003 4284104983
0.13165341 -0.12641346 0.75200003 4284105265
0.13296339 -0.12641346 0.75200003 4283249956
0.13427337 -0.12641346 0.75200003 4283773452
0.13558336 -0.12641346 0.75200003 4285352484
0.13689335 -0.12641346 0.75200003 4286669909
0.13801955 -0.12624536 0.75100005 4288380527
0.13932779 -0.12624536 0.75100005 4287724420
0.14063603 -0.12624536 0.75100005 4287395456
0.14194427 -0.12624536 0.75100005 4287330174
0.14325252 -0.12624536 0.75100005 4287330174
0.14456075 -0.12624536 0.75100005 4287328895
0.145869 -0.12624536 0.75100005 4285881449
0.14717723 -0.12624536 0.75100005 4286338304
0.14848548 -0.12624536 0.75100005 4286601216
0.14979373 -0.12624536 0.75100005 4287785728
0.15069956 -0.12590916 0.74900001 4289693709
0.15200432 -0.12590916 0.74900001 4287131906
0.15330908 -0.12590916 0.74900001 4279304192
0.10967459 -0.1254362 0.75400001 4286866436
0.11098806 -0.1254362 0.75400001 4286863931
0.11230153 -0.1254362 0.75400001 4287982155
0.11361499 -0.1254362 0.75400001 4287198300
0.11492845 -0.1254362 0.75400001 4287922022
0.11624193 -0.1254362 0.75400001 4287922563
0.11755539 -0.1254362 0.75400001 4287922563
0.11886886 -0.1254362 0.75400001 4288118915
0.12018233 -0.1254362 0.75400001 4288250501
0.12149581 -0.1254362 0.75400001 4286805363
0.12280927 -0.1254362 0.75400001 4284700244
0.12412273 -0.1254362 0.75400001 4285093203
0.1254362 -0.1254362 0.75400001 4284895823
0.12674968 -0.1254362 0.75400001 4284566607
0.12806314 -0.1254362 0.75400001 4284171849
0.12937661 -0.1254362 0.75400001 4284369705
0.13069008 -0.1254362 0.75400001 4284698669
0.13200355 -0.1254362 0.75400001 4285025613
0.13331701 -0.1254362 0.75400001 4284038718
0.13463049 -0.1254362 0.75400001 4284496640
0.13594395 -0.1254362 0.75400001 4286009618
0.13725741 -0.1254362 0.75400001 4287129706
0.13820334 -0.12510349 0.75200003 4288313979
0.13951331 -0.12510349 0.75200003 4287593350
0.14082329 -0.12510349 0.75200003 4287198593
0.14213328 -0.12510349 0.75200003 4287002465
0.14344326 -0.12510349 0.75200003 4287134307
0.14475325 -0.12510349 0.75200003 4287461001
0.14606324 -0.12510349 0.75200003 4286868608
0.14717723 -0.12493712 0.75100005 4285944375
0.14848548 -0.12493712 0.75100005 4286075705
0.14979373 -0.12493712 0.75100005 4287914496
0.15110198 -0.12493712 0.75100005 4289164562
0.15200432 -0.1246044 0.74900001 4286931712
0.15330908 -0.1246044 0.74900001 4279828480
0.1099655 -0.12445197 0.75600004 4287457280
0.11128246 -0.12445197 0.75600004 4287259477
0.1125994 -0.12445197 0.75600004 4288114786
0.11361499 -0.12412273 0.75400001 4287525729
0.11492845 -0.12412273 0.75400001 4287657571
0.11624193 -0.12412273 0.75400001 4286935922
0.11755539 -0.12412273 0.75400001 4285817442
0.11886886 -0.12412273 0.75400001 4284832102
0.12018233 -0.12412273 0.75400001 4284963945
0.12149581 -0.12412273 0.75400001 4284964195
0.12280927 -0.12412273 0.75400001 4285029988
0.12445197 -0.12445197 0.75600004 4285094740
0.12576893 -0.12445197 0.75600004 4284634189
0.12708588 -0.12445197 0.75600004 4283910750
0.12840284 -0.12445197 0.75600004 4283121491
0.12971978 -0.12445197 0.75600004 4283514420
0.13103674 -0.12445197 0.75600004 4284567109
0.13235369 -0.12445197 0.75600004 4284436052
0.13331701 -0.12412273 0.75400001 4283186241
0.13463049 -0.12412273 0.75400001 4283315201
0.13594395 -0.12412273 0.75400001 4284433683
0.13725741 -0.12412273 0.75400001 4284106839
0.13857087 -0.12412273 0.75400001 4284303962
0.13988435 -0.12412273 0.75400001 4283845461
0.14119782 -0.12412273 0.75400001 4283055946
0.14213328 -0.1237935 0.75200003 4283776823
0.14344326 -0.1237935 0.75200003 4287066473
0.14475325 -0.1237935 0.75200003 4287987327
0.14606324 -0.1237935 0.75200003 4287921533
0.14737321 -0.1237935 0.75200003 4287587440
0.14868321 -0.1237935 0.75200003 4285811029
0.14999318 -0.1237935 0.75200003 4286926592
0.15110198 -0.12362888 0.75100005 4288308235
0.15241022 -0.12362888 0.75100005 4286472207
0.15371846 -0.12362888 0.75100005 4279959552
0.11011096 -0.1232979 0.75700003 4287325987
0.11142965 -0.1232979 0.75700003 4287390034
0.11274835 -0.1232979 0.75700003 4287324241
0.11406704 -0.1232979 0.75700003 4287061587
0.11492845 -0.12280927 0.75400001 4287653724
0.11624193 -0.12280927 0.75400001 4286278245
0.11755539 -0.12280927 0.75400001 4284304454
0.11918417 -0.12313503 0.75600004 4283650645
0.12050112 -0.12313503 0.75600004 4283453522
0.12181807 -0.12313503 0.75600004 4282399549
0.12313503 -0.12313503 0.75600004 4283254857
0.12461659 -0.1232979 0.75700003 4283844162
0.12576893 -0.12313503 0.75600004 4283778369
0.12708588 -0.12313503 0.75600004 4283254596
0.12840284 -0.12313503 0.75600004 4282727996
0.12989138 -0.1232979 0.75700003 4281412097
0.13121006 -0.1232979 0.75700003 4283583266
0.13252877 -0.1232979 0.75700003 4283255880
0.13367064 -0.12313503 0.75600004 4282137142
0.13498759 -0.12313503 0.75600004 4280227840
0.13630454 -0.12313503 0.75600004 4282201611
0.13762151 -0.12313503 0.75600004 4281741623
0.13857087 -0.12280927 0.75400001 4282333503
0.13988435 -0.12280927 0.75400001 4282596928
0.14119782 -0.12280927 0.75400001 4281610033
0.14251128 -0.12280927 0.75400001 4282722304
0.14382476 -0.12280927 0.75400001 4287327795
0.14513822 -0.12280927 0.75400001 4288052607
0.1464517 -0.12280927 0.75400001 4287986813
0.14776517 -0.12280927 0.75400001 4287917175
0.14907864 -0.12280927 0.75400001 4285680213
0.1503921 -0.12280927 0.75400001 4286334208
0.15130317 -0.12248352 0.75200003 4287781639
0.15261315 -0.12248352 0.75200003 4286012435
0.15392312 -0.12248352 0.75200003 4279697408
0.1090797 -0.12230148 0.75900006 4287654948
0.11040188 -0.12230148 0.75900006 4286668053
0.11172406 -0.12230148 0.75900006 4286666056
0.11304624 -0.12230148 0.75900006 4286863692
0.11436841 -0.12230148 0.75900006 4286405197
0.11538574 -0.1219792 0.75700003 4285615937
0.11655027 -0.12181807 0.75600004 4284500813
0.11786722 -0.12181807 0.75600004 4283777091
0.11918417 -0.12181807 0.75600004 4284240985
0.12050112 -0.12181807 0.75600004 4284307034
0.12181807 -0.12181807 0.75600004 4284765268
0.12313503 -0.12181807 0.75600004 4285094234
0.12461659 -0.1219792 0.75700003 4284895058
0.12593529 -0.1219792 0.75700003 4284697423
0.12759019 -0.12230148 0.75900006 4284961351
0.12891237 -0.12230148 0.75900006 4285421902
0.13023455 -0.12230148 0.75900006 4284763970
0.13155673 -0.12230148 0.75900006 4284303419
0.1328789 -0.12230148 0.75900006 4284566859
0.13420108 -0.12230148 0.75900006 4285093203
0.13516615 -0.1219792 0.75700003 4285224261
0.13648485 -0.1219792 0.75700003 4285421384
0.13762151 -0.12181807 0.75600004 4284831314
0.13893846 -0.12181807 0.75600004 4284568142
0.14025541 -0.12181807 0.75600004 4285555791
0.14157236 -0.12181807 0.75600004 4285752913
0.14288931 -0.12181807 0.75600004 4286145361
0.14420626 -0.12181807 0.75600004 4286408277
0.14552321 -0.12181807 0.75600004 4287591263
0.1464517 -0.12149581 0.75400001 4287854178
0.14776517 -0.12149581 0.75400001 4288047707
0.14907864 -0.12149581 0.75400001 4286074174
0.1503921 -0.12149581 0.75400001 4286402564
0.15170556 -0.12149581 0.75400001 4287389459
0.15261315 -0.12117354 0.75200003 4285355538
0.15392312 -0.12117354 0.75200003 4279435264
0.10936712 -0.12129808 0.76100004 4288184647
0.11069279 -0.12129808 0.76100004 4286408236
0.11201845 -0.12129808 0.76100004 4286469432
0.11304624 -0.12097931 0.75900006 4286929983
0.11436841 -0.12097931 0.75900006 4286275916
0.1156906 -0.12097931 0.75900006 4285157179
0.11670443 -0.12066051 0.75700003 4284500552
0.11786722 -0.12050112 0.75600004 4285158226
0.11918417 -0.12050112 0.75600004 4286604918
0.12066051 -0.12066051 0.75700003 4286539125
0.1219792 -0.12066051 0.75700003 4286802022
0.1232979 -0.12066051 0.75700003 4286802022
0.12494585 -0.12097931 0.75900006 4286997870
0.12626801 -0.12097931 0.75900006 4286537319
0.12792639 -0.12129808 0.76100004 4286207069
0.12925206 -0.12129808 0.76100004 4286799462
0.13057773 -0.12129808 0.76100004 4286735715
0.13190338 -0.12129808 0.76100004 4285880407
0.13322905 -0.12129808 0.76100004 4286075221
0.1345547 -0.12129808 0.76100004 4286864737
0.13588037 -0.12129808 0.76100004 4286931309
0.13720603 -0.12129808 0.76100004 4286931309
0.13780354 -0.12066051 0.75700003 4286538611
0.13912223 -0.12066051 0.75700003 4286407025
0.14044093 -0.12066051 0.75700003 4286539363
0.14157236 -0.12050112 0.75600004 4286605413
0.14288931 -0.12050112 0.75600004 4286670685
0.14420626 -0.12050112 0.75600004 4285881170
0.14552321 -0.12050112 0.75600004 4286469938
0.14684017 -0.12050112 0.75600004 4286667060
0.14815712 -0.12050112 0.75600004 4286929192
0.14947407 -0.12050112 0.75600004 4286468641
0.15079102 -0.12050112 0.75600004 4286469393
0.15170556 -0.12018233 0.75400001 4287127066
0.15301904 -0.12018233 0.75400001 4284960281
0.15392312 -0.11986355 0.75200003 4279435264
0.10846739 -0.12044539 0.76400006 4288841257
0.10951084 -0.12013007 0.76200002 4288577565
0.11083825 -0.12013007 0.76200002 4287261705
0.11201845 -0.11997243 0.76100004 4286798399
0.11334412 -0.11997243 0.76100004 4287653707
0.11466977 -0.11997243 0.76100004 4287130943
0.11599544 -0.11997243 0.76100004 4287657288
0.11701278 -0.11965713 0.75900006 4287592560
0.11833494 -0.11965713 0.75900006 4288776577
0.11965713 -0.11965713 0.75900006 4288250251
0.12097931 -0.11965713 0.75900006 4287986823
0.12230148 -0.11965713 0.75900006 4287921531
0.12362366 -0.11965713 0.75900006 4288250753
0.12527508 -0.11997243 0.76100004 4288381317
0.12660074 -0.11997243 0.76100004 4288513160
0.12792639 -0.11997243 0.76100004 4287460227
0.1294219 -0.12013007 0.76200002 4287197311
0.1307493 -0.12013007 0.76200002 4287590520
0.13207671 -0.12013007 0.76200002 4288380036
0.13340411 -0.12013007 0.76200002 4288248953
0.1345547 -0.11997243 0.76100004 4288577917
0.13588037 -0.11997243 0.76100004 4288248464
0.13720603 -0.11997243 0.76100004 4288051084
0.1385317 -0.11997243 0.76100004 4286997377
0.1394898 -0.11965713 0.75900006 4286668668
0.14081198 -0.11965713 0.75900006 4286603616
0.14175962 -0.11934181 0.75700003 4286800738
0.14307831 -0.11934181 0.75700003 4286800225
0.14439701 -0.11934181 0.75700003 4285550158
0.14571571 -0.11934181 0.75700003 4286007559
0.14684017 -0.11918417 0.75600004 4286336523
0.14815712 -0.11918417 0.75600004 4286994944
0.14947407 -0.11918417 0.75600004 4287784448
0.15079102 -0.11918417 0.75600004 4287326235
0.15170556 -0.11886886 0.75400001 4286668305
0.15301904 -0.11886886 0.75400001 4283907586
0.15392312 -0.11855356 0.75200003 4279369728
0.10875133 -0.1194263 0.76600003 4288645677
0.10979827 -0.1191145 0.76400006 4288578860
0.11112916 -0.1191145 0.76400006 4286802705
0.11216564 -0.11880267 0.76200002 4286732561
0.11349305 -0.11880267 0.76200002 4287324954
0.11482046 -0.11880267 0.76200002 4286863912
0.11599544 -0.11864676 0.76100004 4287916600
0.1173211 -0.11864676 0.76100004 4287851600
0.11864676 -0.11864676 0.76100004 4288706909
0.11997243 -0.11864676 0.76100004 4288052073
0.12129808 -0.11864676 0.76100004 4287657571
0.12262375 -0.11864676 0.76100004 4286802772
0.12394941 -0.11864676 0.76100004 4287592287
0.12543969 -0.11880267 0.76200002 4287528300
0.1267671 -0.11880267 0.76200002 4287396458
0.12809451 -0.11880267 0.76200002 4286803555
0.1294219 -0.11880267 0.76200002 4286277211
0.13109249 -0.1191145 0.76400006 4286471496
0.13242337 -0.1191145 0.76400006 4287392598
0.13375427 -0.1191145 0.76400006 4287393366
0.13473152 -0.11880267 0.76200002 4288182882
0.13605893 -0.11880267 0.76200002 4288051834
0.13738634 -0.11880267 0.76200002 4287591283
0.13871373 -0.11880267 0.76200002 4286471774
0.13985737 -0.11864676 0.76100004 4286405980
0.14118302 -0.11864676 0.76100004 4286666308
0.14213416 -0.11833494 0.75900006 4286666308
0.14345634 -0.11833494 0.75900006 4286996293
0.1447785 -0.11833494 0.75900006 4286206778
0.14610069 -0.11833494 0.75900006 4286400768
0.14703439 -0.11802313 0.75700003 4286861312
0.1483531 -0.11802313 0.75700003 4287586560
0.14967178 -0.11802313 0.75700003 4288902408
0.15079102 -0.11786722 0.75600004 4288379991
0.15210798 -0.11786722 0.75600004 4285945650
0.15301904 -0.11755539 0.75400001 4282459392
0.1543325 -0.11755539 0.75400001 4279500800
0.10875133 -0.11809193 0.76600003 4288840283
0.10979827 -0.11778361 0.76400006 4288643072
0.11112916 -0.11778361 0.76400006 4287195648
0.11246005 -0.11778361 0.76400006 4287061546
0.11379094 -0.11778361 0.76400006 4287850805
0.11512183 -0.11778361 0.76400006 4287654407
0.11645272 -0.11778361 0.76400006 4287259649
0.11747527 -0.11747527 0.76200002 4287061253
0.11880267 -0.11747527 0.76200002 4286271488
0.12013007 -0.11747527 0.76200002 4286600963
0.12145747 -0.11747527 0.76200002 4286337792
0.12262375 -0.1173211 0.76100004 4286272768
0.12394941 -0.1173211 0.76100004 4286470400
0.12576893 -0.11778361 0.76400006 4286142238
0.12709983 -0.11778361 0.76400006 4285418259
0.12843071 -0.11778361 0.76400006 4285811463
0.12976159 -0.11778361 0.76400006 4284363776
0.13109249 -0.11778361 0.76400006 4285281803
0.13242337 -0.11778361 0.76400006 4286729249
0.13375427 -0.11778361 0.76400006 4287258880
0.13508515 -0.11778361 0.76400006 4286732544
0.13605893 -0.11747527 0.76200002 4285155121
0.13738634 -0.11747527 0.76200002 4283773468
0.13871373 -0.11747527 0.76200002 4284495892
0.13985737 -0.1173211 0.76100004 4285877545
0.14118302 -0.1173211 0.76100004 4285019408
0.14250869 -0.1173211 0.76100004 4284032513
0.14383434 -0.1173211 0.76100004 4285611799
0.14516 -0.1173211 0.76100004 4287980347
0.14648567 -0.1173211 0.76100004 4286996224
0.14742288 -0.11701278 0.75900006 4286404096
0.14874505 -0.11701278 0.75900006 4286864384
0.15006723 -0.11701278 0.75900006 4288443658
0.15099049 -0.11670443 0.75700003 4288314411
0.15210798 -0.11655027 0.75600004 4284958720
0.1088933 -0.11690999 0.76700002 4288577860
0.1100857 -0.11675756 0.76600003 4287654153
0.11142007 -0.11675756 0.76600003 4287127809
0.11275445 -0.11675756 0.76600003 4287455007
0.11408882 -0.11675756 0.76600003 4287981351
0.11542319 -0.11675756 0.76600003 4287785512
0.11645272 -0.11645272 0.76400006 4287324961
0.11778361 -0.11645272 0.76400006 4287193613
0.1191145 -0.11645272 0.76400006 4286864905
0.12044539 -0.11645272 0.76400006 4287126274
0.12177627 -0.11645272 0.76400006 4287652618
0.12310716 -0.11645272 0.76400006 4287720448
0.12443805 -0.11645272 0.76400006 4287062528
0.12609817 -0.11675756 0.76600003 4286862592
0.12743254 -0.11675756 0.76600003 4286533632
0.12876692 -0.11675756 0.76600003 4286795264
0.13010129 -0.11675756 0.76600003 4285413632
0.13143566 -0.11675756 0.76600003 4286199808
0.13277003 -0.11675756 0.76600003 4288173837
0.1341044 -0.11675756 0.76600003 4288180259
