# .PCD v0.7 - Point Cloud Data file format
VERSION 0.7
FIELDS x y z
SIZE 4 4 4
TYPE F F F
COUNT 1 1 1
WIDTH 1421
HEIGHT 1
VIEWPOINT 0 0 0 1 0 0 0
POINTS 1421
DATA ascii
0.13778839 -0.17007546 0.74733162
0.13814463 -0.17005749 0.74730587
0.13852547 -0.17003825 0.74727839
0.13893218 -0.17001773 0.74724901
0.13936602 -0.16999583 0.74721771
0.13982812 -0.16997251 0.74718434
0.14031957 -0.1699477 0.74714887
0.14084134 -0.16992135 0.7471112
0.14139423 -0.16989344 0.74707127
0.14197895 -0.16986394 0.74702907
0.14259604 -0.16983278 0.74698454
0.14324586 -0.16979995 0.74693757
0.14392868 -0.16976538 0.74688822
0.14464448 -0.16972892 0.7468363
0.14539298 -0.16969 0.74678135
0.14617315 -0.16964687 0.74672198
0.14698172 -0.16959392 0.74665374
0.14825974 -0.16944058 0.74648941
0.14936717 -0.16881219 0.74594474
0.1495419 -0.1676484 0.74499476
0.13210113 -0.14515512 0.72728258
0.13224645 -0.14514779 0.72727209
0.13240221 -0.14513993 0.72726089
0.13256913 -0.1451315 0.72724885
0.13274805 -0.14512247 0.72723591
0.13293982 -0.14511278 0.72722208
0.13314533 -0.14510241 0.72720724
0.1333656 -0.1450913 0.72719133
0.13360167 -0.14507937 0.72717428
0.13385464 -0.1450666 0.72715604
0.13412572 -0.14505292 0.72713643
0.13441615 -0.14503826 0.72711551
0.13472719 -0.14502257 0.72709304
0.13506019 -0.14500576 0.72706902
0.13541643 -0.14498778 0.72704327
0.13579728 -0.14496855 0.72701579
0.13620399 -0.14494802 0.72698641
0.13663781 -0.14492612 0.72695512
0.13709992 -0.1449028 0.72692174
0.13759138 -0.14487799 0.72688627
0.13811314 -0.14485165 0.7268486
0.13866603 -0.14482374 0.72680867
0.13925076 -0.14479423 0.72676647
0.13986784 -0.1447631 0.72672194
0.14051767 -0.14473031 0.72667503
0.1412005 -0.14469595 0.72662586
0.14191638 -0.14466015 0.72657442
0.14266515 -0.14462347 0.72652131
0.1434461 -0.1445878 0.72646797
0.14425731 -0.14455901 0.72641927
0.14555457 -0.14458235 0.72639769
0.1467859 -0.1450927 0.7267735
0.14721063 -0.14622621 0.72768027
0.12805162 -0.14535953 0.72757494
0.12790629 -0.14536686 0.72758543
0.12775055 -0.14537473 0.7275967
0.12758361 -0.14538315 0.72760874
0.12740469 -0.14539218 0.72762161
0.12721294 -0.14540187 0.7276355
0.12700742 -0.14541224 0.72765034
0.12678716 -0.14542335 0.7276662
0.12655109 -0.14543527 0.72768325
0.1262981 -0.14544804 0.72770154
0.12602702 -0.14546172 0.7277211
0.12573659 -0.14547639 0.72774208
0.12542555 -0.14549209 0.72776449
0.12509257 -0.1455089 0.72778857
0.12473632 -0.14552689 0.72781426
0.12435548 -0.14554611 0.72784173
0.12394877 -0.14556663 0.72787112
0.12351494 -0.14558853 0.72790241
0.12305283 -0.14561185 0.72793579
0.12256137 -0.14563666 0.72797126
0.12203961 -0.14566301 0.72800893
0.12148672 -0.14569092 0.72804886
0.12090199 -0.14572042 0.72809106
0.12028491 -0.14575158 0.72813565
0.11963508 -0.14578441 0.72818255
0.11895227 -0.14581898 0.72823191
0.11823647 -0.14585544 0.72828388
0.11748795 -0.14589436 0.72833884
0.1167078 -0.14593749 0.7283982
0.11589924 -0.14599045 0.72846639
0.1146212 -0.14614378 0.72863078
0.11351378 -0.14677218 0.72917539
0.11333905 -0.14793596 0.73012543
0.13077982 -0.17042924 0.74783754
0.13063449 -0.17043658 0.74784803
0.13047874 -0.17044444 0.7478593
0.1303118 -0.17045286 0.74787134
0.1301329 -0.17046189 0.74788421
0.12994114 -0.17047158 0.7478981
0.12973562 -0.17048195 0.74791294
0.12951535 -0.17049307 0.7479288
0.12927929 -0.17050499 0.74794585
0.12902631 -0.17051776 0.74796414
0.12875521 -0.17053144 0.74798369
0.12846479 -0.1705461 0.74800467
0.12815374 -0.17056179 0.74802709
0.12782076 -0.1705786 0.74805117
0.1274645 -0.17059658 0.74807686
0.12708367 -0.17061581 0.74810433
0.12667696 -0.17063634 0.74813372
0.12624313 -0.17065825 0.74816501
0.12578103 -0.17068157 0.74819839
0.12528957 -0.17070638 0.74823385
0.12476781 -0.17073271 0.74827152
0.12421491 -0.17076062 0.74831146
0.1236302 -0.17079014 0.74835366
0.12301311 -0.17082126 0.74839818
0.12236328 -0.17085405 0.74844509
0.12168045 -0.17088842 0.74849433
0.12096456 -0.17092422 0.74854571
0.1202158 -0.17096089 0.74859887
0.11943484 -0.17099656 0.74865216
0.11862364 -0.17102535 0.74870086
0.11732638 -0.17100202 0.74872243
0.11609504 -0.17049167 0.74834669
0.11567032 -0.16935815 0.74743992
0.13479367 -0.17046407 0.74707741
0.134938 -0.17045678 0.74706697
0.13509269 -0.17044897 0.74705577
0.13525848 -0.17044061 0.74704385
0.13543618 -0.17043164 0.74703097
0.13562661 -0.17042203 0.74701726
0.13583073 -0.17041172 0.74700248
0.13604949 -0.17040068 0.74698675
0.13628395 -0.17038885 0.74696982
0.1365352 -0.17037617 0.74695164
0.13680443 -0.17036258 0.74693221
0.13709286 -0.17034802 0.74691141
0.13740179 -0.17033242 0.74688911
0.13773249 -0.17031573 0.74686521
0.1380863 -0.17029788 0.7468397
0.13846454 -0.17027877 0.7468124
0.13886847 -0.17025839 0.7467832
0.13929933 -0.17023665 0.74675214
0.13975827 -0.17021348 0.746719
0.14024638 -0.17018883 0.74668378
0.14076456 -0.17016268 0.74664634
0.14131367 -0.17013496 0.74660671
0.1418944 -0.17010565 0.74656481
0.14250726 -0.1700747 0.74652052
0.14315264 -0.1700421 0.74647391
0.14383078 -0.17000777 0.74642491
0.1445417 -0.16997156 0.7463733
0.14528508 -0.1699329 0.7463187
0.1460599 -0.16989008 0.74625975
0.14686294 -0.16983747 0.74619198
0.14813223 -0.16968518 0.74602878
0.14923207 -0.16906108 0.74548787
0.14940561 -0.16790527 0.74454433
0.13208413 -0.14556584 0.72695339
0.13222846 -0.14555855 0.72694296
0.13238315 -0.14555074 0.72693181
0.13254894 -0.14554238 0.72691983
0.13272664 -0.14553341 0.72690701
0.13291708 -0.14552379 0.72689325
0.13312119 -0.14551349 0.72687852
0.13333996 -0.14550245 0.72686273
0.13357441 -0.14549062 0.7268458
0.13382566 -0.14547794 0.72682762
0.13409489 -0.14546435 0.72680819
0.13438334 -0.14544979 0.72678739
0.13469225 -0.14543419 0.7267651
0.13502295 -0.1454175 0.72674119
0.13537677 -0.14539963 0.72671568
0.135755 -0.14538054 0.72668839
0.13615893 -0.14536016 0.72665924
0.1365898 -0.1453384 0.72662812
0.13704874 -0.14531524 0.72659498
0.13753684 -0.1452906 0.72655976
0.13805503 -0.14526445 0.72652233
0.13860413 -0.14523673 0.72648269
0.13918486 -0.14520742 0.72644079
0.13979772 -0.14517649 0.72639656
0.14044312 -0.14514394 0.72634995
0.14112127 -0.1451098 0.72630107
0.14183226 -0.14507425 0.72625005
0.14257589 -0.14503783 0.72619724
0.14335153 -0.14500239 0.72614431
0.14415716 -0.1449738 0.72609591
0.14544556 -0.14499699 0.72607452
0.14666848 -0.14550383 0.7264477
0.1470903 -0.1466296 0.72734827
0.12806232 -0.14576885 0.72724372
0.12791799 -0.14577614 0.72725409
0.1277633 -0.14578395 0.7272653
0.12759751 -0.14579231 0.72727728
0.12741983 -0.14580128 0.72729009
0.12722938 -0.14581089 0.7273038
0.12702528 -0.1458212 0.72731858
0.12680651 -0.14583224 0.72733438
0.12657206 -0.14584407 0.72735131
0.12632081 -0.14585675 0.72736943
0.12605157 -0.14587034 0.72738886
0.12576313 -0.1458849 0.72740966
0.12545422 -0.1459005 0.72743195
0.1251235 -0.14591719 0.72745585
0.1247697 -0.14593506 0.72748137
0.12439147 -0.14595415 0.72750872
0.12398753 -0.14597453 0.72753787
0.12355667 -0.14599629 0.72756898
0.12309773 -0.14601944 0.72760206
0.12260963 -0.14604409 0.72763735
0.12209143 -0.14607024 0.72767472
0.12154233 -0.14609796 0.72771436
0.12096161 -0.14612728 0.72775632
0.12034874 -0.14615822 0.72780055
0.11970336 -0.14619082 0.72784716
0.11902522 -0.14622515 0.72789621
0.1183143 -0.14626136 0.72794777
0.11757091 -0.14630002 0.72800237
0.11679609 -0.14634284 0.72806132
0.11599306 -0.14639544 0.72812909
0.11472376 -0.14654773 0.72829229
0.11362392 -0.14717184 0.7288332
0.11345039 -0.14832765 0.72977674
0.13077186 -0.17066708 0.74736768
0.13062753 -0.17067437 0.74737811
0.13047284 -0.17068218 0.74738932
0.13030705 -0.17069055 0.74740124
0.13012937 -0.17069952 0.74741411
0.12993892 -0.17070913 0.74742782
0.1297348 -0.17071943 0.74744254
0.12951605 -0.17073047 0.74745834
0.1292816 -0.1707423 0.74747527
0.12903035 -0.170755 0.74749345
0.12876111 -0.17076859 0.74751288
0.12847267 -0.17078315 0.74753368
0.12816375 -0.17079873 0.74755597
0.12783304 -0.17081542 0.74757987
0.12747923 -0.17083329 0.74760538
0.127101 -0.17085238 0.74763268
0.12669706 -0.17087276 0.74766189
0.12626621 -0.17089452 0.74769294
0.12580726 -0.17091769 0.74772608
0.12531917 -0.17094232 0.74776131
0.12480097 -0.17096847 0.74779874
0.12425186 -0.17099619 0.74783838
0.12367114 -0.1710255 0.74788028
0.12305828 -0.17105643 0.74792457
0.12241289 -0.17108898 0.74797112
0.12173473 -0.17112312 0.74801999
0.12102374 -0.17115867 0.74807101
0.12028011 -0.17119509 0.74812382
0.11950448 -0.17123052 0.74817681
0.11869884 -0.17125912 0.74822515
0.11741044 -0.17123593 0.74824655
0.11618753 -0.17072909 0.74787337
0.11576571 -0.16960332 0.7469728
0.13476181 -0.17061497 0.74672091
0.13490516 -0.17060773 0.7467106
0.13505879 -0.17059998 0.74669951
0.13522346 -0.17059167 0.74668759
0.13539995 -0.17058276 0.74667484
0.13558909 -0.1705732 0.74666119
0.13579182 -0.17056297 0.74664658
0.1360091 -0.170552 0.74663091
0.13624196 -0.17054026 0.7466141
0.13649151 -0.17052765 0.74659604
0.13675891 -0.17051415 0.74657679
0.1370454 -0.1704997 0.7465561
0.13735221 -0.17048422 0.74653393
0.13768068 -0.17046763 0.74651021
0.13803209 -0.1704499 0.74648488
0.13840775 -0.17043093 0.74645776
0.13880895 -0.17041068 0.74642879
0.13923688 -0.17038907 0.74639785
0.13969271 -0.17036606 0.74636495
0.1401775 -0.1703416 0.74632996
0.14069217 -0.17031562 0.74629283
0.14123756 -0.17028809 0.74625343
0.14181434 -0.17025897 0.74621183
0.14242303 -0.17022824 0.74616784
0.14306405 -0.17019585 0.74612159
0.14373758 -0.17016175 0.74607289
0.14444368 -0.17012578 0.74602163
0.14518201 -0.1700874 0.74596745
0.14595158 -0.17004487 0.74590886
0.14674917 -0.16999263 0.74584156
0.14800985 -0.16984136 0.74567944
0.14910223 -0.16922149 0.74514222
0.14927459 -0.16807353 0.74420512
0.13207066 -0.14588569 0.72673351
0.13221401 -0.14587846 0.72672313
0.13236764 -0.1458707 0.72671205
0.13253231 -0.1458624 0.72670019
0.1327088 -0.14585349 0.72668743
0.13289794 -0.14584394 0.72667378
0.13310067 -0.1458337 0.72665912
0.13331795 -0.14582273 0.72664344
0.13355081 -0.14581099 0.72662663
0.13380036 -0.14579839 0.72660863
0.13406776 -0.14578488 0.72658932
0.13435425 -0.14577043 0.72656864
0.13466106 -0.14575495 0.72654647
0.13498953 -0.14573836 0.7265228
0.13534094 -0.14572062 0.72649741
0.1357166 -0.14570166 0.72647029
0.1361178 -0.14568141 0.72644132
0.13654573 -0.1456598 0.72641045
0.13700156 -0.1456368 0.72637755
0.13748635 -0.14561233 0.72634256
0.13800102 -0.14558636 0.72630537
0.13854641 -0.14555882 0.72626603
0.13912319 -0.1455297 0.72622436
0.1397319 -0.14549899 0.72618043
0.1403729 -0.14546666 0.72613418
0.14104646 -0.14543276 0.72608566
0.14175263 -0.14539744 0.72603494
0.14249121 -0.14536127 0.72598249
0.14326158 -0.14532608 0.72592992
0.14406174 -0.14529768 0.72588187
0.1453414 -0.1453207 0.7258606
0.14655602 -0.14582412 0.72623128
0.14697498 -0.14694224 0.7271257
0.12807614 -0.14608733 0.72702187
0.12793279 -0.14609456 0.72703218
0.12777916 -0.14610232 0.72704327
0.12761448 -0.14611064 0.72705519
0.12743799 -0.14611955 0.72706789
0.12724885 -0.14612909 0.7270816
0.12704612 -0.14613932 0.7270962
0.12682885 -0.14615029 0.72711188
0.12659599 -0.14616205 0.72712868
0.12634644 -0.14617464 0.72714674
0.12607904 -0.14618814 0.727166
0.12579255 -0.14620259 0.72718668
0.12548573 -0.14621809 0.72720885
0.12515727 -0.14623466 0.72723258
0.12480585 -0.14625241 0.72725791
0.12443019 -0.14627136 0.72728503
0.124029 -0.14629161 0.727314
0.12360106 -0.14631322 0.72734493
0.12314523 -0.14633623 0.72737783
0.12266045 -0.1463607 0.72741282
0.12214577 -0.14638668 0.72744995
0.12160038 -0.14641421 0.72748935
0.12102361 -0.14644332 0.72753096
0.12041491 -0.14647406 0.72757494
0.11977389 -0.14650644 0.7276212
0.11910036 -0.14654054 0.72766989
0.11839427 -0.14657651 0.72772115
0.11765593 -0.14661489 0.72777534
0.11688636 -0.14665744 0.72783393
0.11608878 -0.14670968 0.72790122
0.1148281 -0.14686093 0.72806334
0.11373572 -0.1474808 0.72860056
0.11356337 -0.14862877 0.72953767
0.13076729 -0.1708166 0.74700928
0.13062394 -0.17082384 0.74701965
0.13047031 -0.17083159 0.74703074
0.13030563 -0.17083991 0.7470426
0.13012914 -0.17084882 0.74705535
0.12994 -0.17085835 0.747069
0.12973727 -0.17086859 0.74708366
0.12952 -0.17087956 0.74709934
0.12928714 -0.17089131 0.74711615
0.12903759 -0.17090391 0.74713415
0.12877019 -0.17091741 0.74715346
0.1284837 -0.17093188 0.74717414
0.12817688 -0.17094736 0.74719632
0.12784842 -0.17096394 0.74721998
0.127497 -0.17098168 0.74724537
0.12712134 -0.17100063 0.74727249
0.12672015 -0.1710209 0.74730146
0.12629221 -0.17104249 0.74733233
0.12583637 -0.17106549 0.74736524
0.12535159 -0.17108996 0.74740022
0.12483692 -0.17111595 0.74743742
0.12429153 -0.17114347 0.74747676
0.12371475 -0.17117259 0.74751842
0.12310605 -0.1712033 0.74756235
0.12246504 -0.17123564 0.7476086
0.12179148 -0.17126954 0.74765712
0.12108532 -0.17130485 0.74770784
0.12034673 -0.17134102 0.74776024
0.11957637 -0.17137621 0.74781287
0.11877619 -0.17140462 0.74786091
0.11749654 -0.17138159 0.74788219
0.11628193 -0.17087817 0.74751151
0.11586297 -0.16976006 0.74661708
0.13473228 -0.17071112 0.7464335
0.13487466 -0.17070392 0.74642318
0.13502726 -0.17069621 0.74641222
0.13519081 -0.17068796 0.74640042
0.1353661 -0.17067912 0.74638772
0.13555397 -0.17066963 0.74637419
0.13575533 -0.17065947 0.74635965
0.13597113 -0.17064857 0.74634403
0.13620241 -0.17063691 0.74632734
0.13645028 -0.17062439 0.74630946
0.13671587 -0.17061098 0.74629027
0.13700041 -0.17059661 0.74626976
0.13730516 -0.17058124 0.74624777
0.1376314 -0.17056477 0.74622422
0.13798043 -0.17054716 0.74619901
0.13835354 -0.17052832 0.74617207
0.13875201 -0.17050821 0.74614328
0.13917705 -0.17048675 0.74611264
0.13962981 -0.17046389 0.74607992
0.14011131 -0.17043959 0.74604517
0.1406225 -0.17041379 0.74600828
0.1411642 -0.17038645 0.74596918
0.14173706 -0.17035753 0.74592781
0.14234164 -0.17032699 0.74588418
0.14297831 -0.17029484 0.74583817
0.14364728 -0.17026097 0.74578983
0.14434859 -0.17022525 0.74573892
0.14508195 -0.17018712 0.7456851
0.14584629 -0.17014487 0.74562693
0.14663848 -0.17009297 0.74556005
0.14789063 -0.16994275 0.74539906
0.14897561 -0.16932708 0.74486548
0.1491468 -0.16818687 0.74393469
0.13205935 -0.14614926 0.72658139
0.13220173 -0.14614208 0.72657108
0.13235433 -0.14613438 0.72656006
0.13251789 -0.14612612 0.72654825
0.13269317 -0.14611727 0.72653562
0.13288105 -0.14610779 0.72652203
0.1330824 -0.14609763 0.72650754
0.1332982 -0.14608674 0.72649193
0.13352948 -0.14607506 0.72647524
0.13377735 -0.14606255 0.72645736
0.13404293 -0.14604914 0.72643816
0.13432749 -0.14603478 0.72641766
0.13463223 -0.1460194 0.72639567
0.13495846 -0.14600293 0.72637206
0.13530751 -0.14598531 0.72634691
0.13568062 -0.14596649 0.72631997
0.13607909 -0.14594637 0.72629118
0.13650413 -0.14592491 0.72626048
0.13695687 -0.14590205 0.72622782
0.13743837 -0.14587775 0.72619307
0.13794957 -0.14585194 0.72615618
0.13849127 -0.14582461 0.72611707
0.13906413 -0.14579569 0.72607571
0.13966872 -0.14576519 0.72603208
0.1403054 -0.14573307 0.72598612
0.14097439 -0.1456994 0.7259379
0.14167577 -0.14566432 0.72588754
0.14240935 -0.14562839 0.7258355
0.1431745 -0.14559345 0.72578323
0.14396927 -0.14556523 0.72573549
0.14524025 -0.1455881 0.72571439
0.14644665 -0.14608811 0.72608256
0.14686278 -0.14719866 0.72697097
0.12809189 -0.14634953 0.72686779
0.12794951 -0.14635672 0.72687805
0.1277969 -0.14636442 0.72688907
0.12763335 -0.14637268 0.72690088
0.12745807 -0.14638153 0.72691351
0.12727019 -0.14639102 0.7269271
0.12706883 -0.14640118 0.72694165
0.12685303 -0.14641207 0.7269572
0.12662175 -0.14642374 0.72697389
0.12637389 -0.14643626 0.72699183
0.12610829 -0.14644967 0.72701097
0.12582375 -0.14646402 0.72703153
0.12551901 -0.14647941 0.72705352
0.12519276 -0.14649588 0.72707707
0.12484374 -0.14651349 0.72710228
0.12447061 -0.14653233 0.72712922
0.12407214 -0.14655244 0.72715795
0.1236471 -0.1465739 0.72718865
0.12319436 -0.14659674 0.72722131
0.12271286 -0.14662105 0.72725612
0.12220167 -0.14664686 0.72729301
0.12165996 -0.1466742 0.72733212
0.1210871 -0.14670312 0.72737348
0.12048252 -0.14673364 0.72741711
0.11984584 -0.14676581 0.72746307
0.11917687 -0.14679967 0.72751147
0.11847556 -0.1468354 0.72756237
0.11774222 -0.14687353 0.72761619
0.11697786 -0.14691578 0.72767437
0.11618568 -0.14696766 0.72774118
0.11493354 -0.1471179 0.72790223
0.11384855 -0.14773357 0.72843581
0.11367736 -0.14887376 0.7293666
0.13076481 -0.17091137 0.7467199
0.13062243 -0.17091857 0.74673015
0.13046983 -0.17092627 0.74674118
0.13030627 -0.17093453 0.74675298
0.13013099 -0.17094336 0.74676567
0.12994312 -0.17095286 0.7467792
0.12974176 -0.17096302 0.74679375
0.12952596 -0.17097391 0.7468093
0.12929468 -0.17098558 0.74682605
0.12904681 -0.1709981 0.74684393
0.12878123 -0.17101151 0.74686307
0.12849668 -0.17102587 0.74688363
0.12819193 -0.17104125 0.74690562
0.1278657 -0.17105772 0.74692917
0.12751666 -0.17107533 0.74695438
0.12714355 -0.17109416 0.74698132
0.12674507 -0.17111428 0.74701005
0.12632003 -0.17113574 0.74704075
0.12586728 -0.1711586 0.74707347
0.12538578 -0.1711829 0.74710822
0.12487459 -0.17120869 0.74714512
0.1243329 -0.17123604 0.74718422
0.12376002 -0.17126496 0.74722558
0.12315544 -0.17129546 0.74726921
0.12251877 -0.17132758 0.74731517
0.12184978 -0.17136125 0.74736339
0.12114839 -0.17139633 0.74741375
0.12041481 -0.17143226 0.74746579
0.11964966 -0.1714672 0.74751806
0.1188549 -0.17149542 0.74756575
0.11758392 -0.17147255 0.74758685
0.11637752 -0.17097254 0.74721873
0.1159614 -0.16986199 0.74633032
0.13470435 -0.17077 0.74619299
0.13484576 -0.17076287 0.7461828
0.13499732 -0.17075522 0.74617183
0.13515978 -0.17074703 0.74616009
0.13533388 -0.17073824 0.74614751
0.13552047 -0.17072882 0.74613404
0.13572046 -0.17071871 0.74611962
0.1359348 -0.1707079 0.74610418
0.13616452 -0.1706963 0.74608755
0.1364107 -0.17068388 0.74606979
0.13667449 -0.17067057 0.74605078
0.13695711 -0.17065629 0.74603033
0.1372598 -0.17064102 0.74600852
0.13758382 -0.17062466 0.74598509
0.1379305 -0.17060716 0.74596006
0.13830109 -0.17058846 0.74593335
0.13869686 -0.17056848 0.74590474
0.13911901 -0.17054717 0.74587429
0.1395687 -0.17052448 0.7458418
0.14004694 -0.17050034 0.74580729
0.14055467 -0.17047471 0.74577063
0.14109269 -0.17044754 0.74573183
0.14166167 -0.17041881 0.7456907
0.14226216 -0.1703885 0.74564737
0.14289452 -0.17035656 0.74560171
0.14355896 -0.17032292 0.74555367
0.14425552 -0.17028743 0.74550313
0.1449839 -0.17024957 0.74544966
0.14574307 -0.1702076 0.74539191
0.1465299 -0.17015606 0.74532551
0.14777356 -0.17000686 0.74516553
0.14885119 -0.16939536 0.74463558
0.14902122 -0.16826288 0.74371111
0.13204953 -0.14637457 0.72647536
0.13219094 -0.14636743 0.72646517
0.1323425 -0.14635977 0.7264542
0.13250495 -0.14635158 0.72644246
0.13267906 -0.14634278 0.72642988
0.13286565 -0.14633337 0.72641641
0.13306564 -0.14632328 0.72640198
0.13327998 -0.14631245 0.72638655
0.1335097 -0.14630085 0.72636992
0.13375588 -0.14628842 0.72635216
0.13401967 -0.14627512 0.72633314
0.13430229 -0.14626084 0.7263127
0.13460498 -0.14624557 0.72629088
0.134929 -0.14622921 0.72626746
0.13527568 -0.14621171 0.72624248
0.13564627 -0.14619301 0.72621572
0.13604203 -0.14617303 0.72618711
0.13646419 -0.14615172 0.72615665
0.13691388 -0.14612903 0.72612417
0.13739212 -0.14610489 0.72608966
0.13789985 -0.14607926 0.726053
0.13843787 -0.14605209 0.7260142
0.13900685 -0.14602338 0.72597313
0.13960734 -0.14599307 0.72592974
0.1402397 -0.14596118 0.72588414
0.14090417 -0.14592773 0.72583622
0.1416008 -0.14589289 0.72578621
0.14232942 -0.14585721 0.72573453
0.14308938 -0.14582251 0.72568262
0.14387876 -0.14579448 0.72563523
0.14514112 -0.14581719 0.72561425
0.14633936 -0.14631382 0.72597992
0.14675266 -0.14741684 0.72686231
0.12810893 -0.14657347 0.72675979
0.12796752 -0.14658061 0.72677004
0.12781595 -0.14658827 0.72678095
0.12765351 -0.14659646 0.72679269
0.1274794 -0.14660525 0.72680527
0.12729281 -0.14661467 0.72681874
0.12709282 -0.14662476 0.72683316
0.12687847 -0.14663558 0.72684866
0.12664875 -0.14664719 0.72686523
0.12640257 -0.14665961 0.72688299
0.12613878 -0.14667292 0.72690207
0.12585618 -0.14668718 0.72692245
0.12555349 -0.14670247 0.72694427
0.12522946 -0.14671881 0.72696769
0.12488279 -0.14673632 0.72699273
0.1245122 -0.14675502 0.72701949
0.12411643 -0.14677501 0.72704804
0.12369426 -0.14679632 0.7270785
0.12324458 -0.14681901 0.72711098
0.12276635 -0.14684315 0.72714549
0.12225862 -0.14686878 0.72718215
0.12172059 -0.14689595 0.72722101
0.1211516 -0.14692466 0.72726208
0.12055112 -0.14695498 0.72730541
0.11991876 -0.14698693 0.72735107
0.11925432 -0.14702056 0.72739911
0.11855776 -0.14705604 0.72744966
0.11782938 -0.14709392 0.72750318
0.11707021 -0.14713588 0.72756094
0.11628339 -0.14718741 0.72762734
0.11503973 -0.14733663 0.72778726
0.11396209 -0.14794813 0.7283172
0.11379206 -0.1490806 0.72924167
0.13076375 -0.17096892 0.74647743
0.13062234 -0.17097606 0.74648768
0.13047077 -0.17098372 0.74649858
0.13030833 -0.17099191 0.74651033
0.13013422 -0.1710007 0.7465229
0.12994763 -0.17101012 0.74653637
0.12974764 -0.17102021 0.7465508
0.12953329 -0.17103103 0.7465663
0.12930357 -0.17104262 0.74658287
0.12905739 -0.17105505 0.74660063
0.12879361 -0.17106837 0.7466197
0.128511 -0.17108263 0.74664009
0.12820831 -0.17109792 0.7466619
0.12788428 -0.17111427 0.74668533
0.12753761 -0.17113177 0.74671036
0.12716702 -0.17115048 0.74673712
0.12677124 -0.17117046 0.74676567
0.12634909 -0.17119177 0.74679613
0.1258994 -0.17121446 0.74682862
0.12542117 -0.1712386 0.74686313
0.12491344 -0.17126423 0.74689978
0.12437541 -0.17129138 0.74693865
0.12380642 -0.17132011 0.74697971
0.12320594 -0.1713504 0.74702305
0.12257358 -0.17138231 0.74706864
0.12190911 -0.17141575 0.74711657
0.12121248 -0.17145059 0.74716657
0.12048387 -0.17148626 0.74721831
0.1197239 -0.17152098 0.74727017
0.11893453 -0.17154901 0.74731755
0.11767215 -0.1715263 0.74733853
0.11647393 -0.17102967 0.74697286
0.11606062 -0.16992664 0.74609053
0.13467756 -0.17080201 0.74598634
0.13481802 -0.17079492 0.74597621
0.13496856 -0.17078732 0.74596536
0.1351299 -0.17077918 0.74595368
0.13530281 -0.17077045 0.74594122
0.13548815 -0.17076109 0.74592781
0.13568678 -0.17075107 0.74591351
0.13589966 -0.17074032 0.74589813
0.13612783 -0.1707288 0.74588168
0.13637233 -0.17071646 0.74586403
0.13663433 -0.17070323 0.74584508
0.13691503 -0.17068908 0.74582481
0.13721566 -0.17067389 0.74580312
0.13753748 -0.17065765 0.74577987
0.1378818 -0.17064027 0.74575502
0.13824987 -0.17062169 0.74572849
0.13864297 -0.17060184 0.74570012
0.13906226 -0.17058069 0.74566984
0.13950889 -0.17055814 0.7456376
0.13998388 -0.17053416 0.74560332
0.14048815 -0.17050871 0.7455669
0.14102253 -0.17048173 0.74552834
0.14158766 -0.17045321 0.74548751
0.14218406 -0.17042309 0.74544448
0.14281212 -0.17039137 0.74539912
0.14347206 -0.17035796 0.74535137
0.14416388 -0.17032272 0.74530119
0.14488731 -0.17028511 0.74524808
0.14564133 -0.17024343 0.74519068
0.1464228 -0.17019224 0.74512476
0.14765802 -0.17004403 0.74496591
0.14872834 -0.16943669 0.74443954
0.14889722 -0.16831191 0.74352133
0.13204077 -0.14657222 0.72640264
0.13218123 -0.14656512 0.72639245
0.13233176 -0.14655752 0.7263816
0.13249311 -0.14654939 0.72636998
0.13266602 -0.14654066 0.72635746
0.13285135 -0.1465313 0.72634411
0.13304998 -0.14652127 0.72632974
0.13326287 -0.14651053 0.72631437
0.13349102 -0.14649901 0.72629791
0.13373554 -0.14648667 0.72628027
0.13399754 -0.14647345 0.72626138
0.13427824 -0.14645928 0.72624111
0.13457887 -0.1464441 0.72621942
0.13490069 -0.14642785 0.72619617
0.13524501 -0.14641048 0.72617131
0.13561308 -0.1463919 0.72614473
0.13600616 -0.14637205 0.72611636
0.13642547 -0.14635089 0.72608608
0.13687208 -0.14632834 0.72605383
0.13734707 -0.14630437 0.72601956
0.13785136 -0.14627892 0.72598314
0.13838573 -0.14625195 0.72594458
0.13895085 -0.14622343 0.72590381
0.13954727 -0.14619333 0.72586071
0.14017533 -0.14616165 0.72581542
0.14083529 -0.14612843 0.72576785
0.14152719 -0.14609383 0.72571814
0.14225085 -0.1460584 0.72566682
0.14300565 -0.14602391 0.72561526
0.14378968 -0.14599608 0.72556818
0.14504348 -0.14601864 0.72554737
0.14623356 -0.14651188 0.72591054
0.14664406 -0.14760742 0.72678691
0.12812693 -0.14676978 0.72668517
0.12798648 -0.14677687 0.7266953
0.12783594 -0.14678447 0.72670615
0.12767461 -0.14679261 0.72671783
0.12750168 -0.14680134 0.72673029
0.12731636 -0.1468107 0.7267437
0.12711772 -0.14682072 0.726758
0.12690483 -0.14683147 0.72677338
0.12667668 -0.14684299 0.72678983
0.12643217 -0.14685532 0.72680748
0.12617016 -0.14686856 0.72682643
0.12588947 -0.14688273 0.72684669
0.12558885 -0.1468979 0.72686839
0.12526701 -0.14691414 0.72689164
0.1249227 -0.14693151 0.72691649
0.12455463 -0.1469501 0.72694302
0.12416154 -0.14696994 0.72697139
0.12374225 -0.1469911 0.72700167
0.12329562 -0.14701365 0.72703391
0.12282063 -0.14703763 0.72706819
0.12231635 -0.14706308 0.7271046
0.12178198 -0.14709006 0.72714317
0.12121685 -0.14711858 0.727184
0.12062044 -0.1471487 0.72722703
0.11999238 -0.14718042 0.72727239
0.11933245 -0.14721383 0.72732013
0.11864062 -0.14724907 0.72737032
0.11791719 -0.14728668 0.72742343
0.11716317 -0.14732838 0.72748083
0.1163817 -0.14737956 0.72754675
0.11514647 -0.14752775 0.7277056
0.11407616 -0.14813511 0.72823197
0.11390729 -0.14925988 0.72915018
0.13076372 -0.17099957 0.74626887
0.13062328 -0.17100666 0.74627906
0.13047273 -0.17101426 0.74628991
0.1303114 -0.1710224 0.74630153
0.13013847 -0.17103113 0.74631405
0.12995315 -0.17104049 0.7463274
0.12975451 -0.17105052 0.74634176
0.12954162 -0.17106126 0.74635714
0.12931347 -0.17107278 0.74637359
0.12906896 -0.17108512 0.74639124
0.12880696 -0.17109835 0.74641013
0.12852627 -0.17111251 0.7464304
0.12822564 -0.17112769 0.74645209
0.1279038 -0.17114393 0.74647534
0.1275595 -0.17116131 0.74650019
0.12719142 -0.17117989 0.74652678
0.12679833 -0.17119974 0.74655515
0.12637904 -0.1712209 0.74658543
0.12593241 -0.17124344 0.74661767
0.12545742 -0.17126742 0.74665195
0.12495314 -0.17129287 0.74668837
0.12441877 -0.17131984 0.74672693
0.12385364 -0.17134838 0.7467677
0.12325723 -0.17137846 0.74681079
0.12262917 -0.17141014 0.74685609
0.12196922 -0.17144336 0.74690366
0.12127732 -0.17147797 0.74695337
0.12055365 -0.17151341 0.74700469
0.11979885 -0.17154787 0.74705625
0.11901483 -0.17157571 0.74710333
0.11776102 -0.17155315 0.74712414
0.11657094 -0.17105991 0.74676096
0.11616044 -0.16996437 0.7458846
0.13465165 -0.17081377 0.7458052
0.13479114 -0.17080672 0.74579513
0.13494065 -0.17079918 0.74578434
0.13510089 -0.17079109 0.74577278
0.13527264 -0.17078242 0.74576038
0.1354567 -0.17077313 0.74574709
0.13565399 -0.17076316 0.74573284
0.13586542 -0.1707525 0.74571759
0.13609202 -0.17074105 0.74570125
0.13633487 -0.1707288 0.74568373
0.13659509 -0.17071566 0.74566495
0.13687386 -0.17070159 0.74564481
0.13717245 -0.17068653 0.74562323
0.13749208 -0.17067039 0.74560016
0.13783404 -0.17065312 0.74557549
0.13819961 -0.17063467 0.74554908
0.13859002 -0.17061497 0.74552089
0.13900645 -0.17059395 0.74549085
0.13945004 -0.17057155 0.74545884
0.1399218 -0.17054774 0.74542475
0.14042264 -0.17052247 0.74538863
0.14095336 -0.17049567 0.7453503
0.14151464 -0.17046733 0.74530977
0.14210698 -0.17043743 0.74526703
0.14273077 -0.17040591 0.74522197
0.1433862 -0.17037274 0.74517459
0.14407332 -0.17033774 0.7451247
0.14479181 -0.17030038 0.74507195
0.1455407 -0.17025898 0.74501497
0.14631684 -0.17020814 0.74494952
0.14754365 -0.17006095 0.74479175
0.14860667 -0.16945775 0.74426895
0.1487744 -0.16834062 0.743357
0.13203283 -0.14674909 0.72635496
0.13217232 -0.14674205 0.72634488
0.13232183 -0.14673451 0.7263341
0.13248207 -0.14672641 0.72632253
0.1326538 -0.14671774 0.72631013
0.13283788 -0.14670844 0.72629684
0.13303515 -0.14669849 0.7262826
0.13324659 -0.14668782 0.72626734
0.1334732 -0.14667638 0.72625095
0.13371603 -0.14666413 0.72623342
0.13397625 -0.14665098 0.72621465
0.13425504 -0.14663692 0.7261945
0.13455361 -0.14662184 0.72617298
0.13487326 -0.14660572 0.72614992
0.13521522 -0.14658844 0.72612518
0.13558079 -0.14657 0.72609884
0.13597119 -0.14655028 0.72607064
0.13638763 -0.14652927 0.72604054
0.13683121 -0.14650688 0.72600853
0.13730296 -0.14648306 0.7259745
0.13780381 -0.14645778 0.72593832
0.13833454 -0.146431 0.72589999
0.13889582 -0.14640266 0.72585952
0.13948816 -0.14637277 0.72581673
0.14011195 -0.14634131 0.72577173
0.14076741 -0.14630832 0.72572452
0.14145459 -0.14627396 0.72567517
0.14217332 -0.14623876 0.72562414
0.14292298 -0.14620452 0.72557294
0.14370166 -0.14617687 0.72552621
0.14494692 -0.14619927 0.72550553
0.14612889 -0.14668916 0.7258662
0.14653659 -0.14777723 0.72673661
0.12814565 -0.1469453 0.72663558
0.12800616 -0.14695235 0.72664565
0.12785664 -0.14695989 0.72665644
0.12769641 -0.14696798 0.726668
0.12752466 -0.14697665 0.7266804
0.1273406 -0.14698593 0.72669369
0.12714331 -0.1469959 0.72670794
0.12693188 -0.14700657 0.72672319
0.12670527 -0.147018 0.72673953
0.12646243 -0.14703026 0.72675705
0.12620221 -0.14704341 0.72677583
0.12592344 -0.14705747 0.72679597
0.12562485 -0.14707254 0.72681755
0.12530522 -0.14708868 0.72684062
0.12496325 -0.14710595 0.72686529
0.12459768 -0.14712439 0.7268917
0.12420728 -0.14714409 0.72691989
0.12379085 -0.14716512 0.72694993
0.12334726 -0.14718752 0.72698194
0.1228755 -0.14721133 0.72701597
0.12237466 -0.1472366 0.72705215
0.12184393 -0.14726339 0.72709048
0.12128265 -0.14729173 0.72713101
0.12069031 -0.14732164 0.72717375
0.12006653 -0.14735314 0.72721881
0.1194111 -0.14738633 0.72726619
0.11872398 -0.14742133 0.72731608
0.11800548 -0.14745869 0.72736883
0.1172566 -0.14750008 0.72742581
0.11648045 -0.14755093 0.72749126
0.11525365 -0.1476981 0.72764903
0.11419062 -0.14830132 0.72817183
0.1140229 -0.14941844 0.72908378
0.13076448 -0.17100997 0.74608582
0.13062498 -0.17101702 0.7460959
0.13047548 -0.17102456 0.74610668
0.13031523 -0.17103265 0.74611825
0.13014349 -0.17104132 0.74613065
0.12995942 -0.17105062 0.74614394
0.12976214 -0.17106058 0.74615818
0.12955071 -0.17107125 0.74617344
0.12932411 -0.17108269 0.74618983
0.12908126 -0.17109494 0.74620736
0.12882105 -0.17110808 0.74622613
0.12854226 -0.17112215 0.74624628
0.12824368 -0.17113723 0.7462678
0.12792405 -0.17115335 0.74629086
0.12758207 -0.17117062 0.7463156
0.12721652 -0.17118907 0.74634194
0.12682611 -0.17120878 0.74637014
0.12640966 -0.17122979 0.74640024
0.12596609 -0.17125219 0.74643224
0.12549433 -0.171276 0.74646628
0.12499349 -0.17130129 0.74650246
0.12446275 -0.17132807 0.74654073
0.12390148 -0.17135641 0.74658126
0.12330914 -0.17138629 0.74662405
0.12268535 -0.17141776 0.74666905
0.12202989 -0.17145075 0.74671626
0.12134271 -0.17148511 0.74676561
0.12062397 -0.17152031 0.74681664
0.11987431 -0.17155455 0.74686784
0.11909564 -0.17158219 0.74691457
0.11785039 -0.1715598 0.74693525
0.1166684 -0.17106991 0.74657452
0.1162607 -0.16998184 0.74570417
0.13462639 -0.17080981 0.74564385
0.13476494 -0.17080282 0.74563384
0.13491341 -0.17079532 0.74562317
0.13507256 -0.17078729 0.74561167
0.13524313 -0.17077868 0.74559933
0.13542594 -0.17076945 0.74558616
0.13562188 -0.17075956 0.74557203
0.13583186 -0.17074896 0.74555683
0.13605691 -0.17073759 0.74554062
0.13629809 -0.17072542 0.74552321
0.13655652 -0.17071238 0.74550456
0.1368334 -0.1706984 0.74548453
0.13712993 -0.17068343 0.74546313
0.13744739 -0.17066741 0.74544024
0.13778701 -0.17065027 0.74541569
0.13815008 -0.17063195 0.74538952
0.13853781 -0.17061237 0.74536151
0.13895139 -0.17059149 0.74533165
0.13939194 -0.17056926 0.74529982
0.13986047 -0.17054561 0.74526602
0.14035788 -0.1705205 0.74523014
0.14088498 -0.17049389 0.74519205
0.14144242 -0.17046575 0.74515182
0.1420307 -0.17043604 0.74510932
0.14265022 -0.17040475 0.74506462
0.14330117 -0.1703718 0.74501753
0.14398357 -0.17033704 0.744968
0.14469716 -0.17029993 0.7449156
0.14544092 -0.17025882 0.74485904
0.14621176 -0.17020833 0.74479401
0.14743017 -0.17006215 0.74463731
0.14848591 -0.16946307 0.74411809
0.14865248 -0.1683536 0.7432124
0.1320255 -0.14690983 0.7263267
0.13216403 -0.14690284 0.72631669
0.13231252 -0.14689535 0.72630596
0.13247167 -0.14688732 0.72629452
0.13264222 -0.1468787 0.72628218
0.13282503 -0.14686948 0.72626901
0.13302097 -0.14685959 0.72625482
0.13323095 -0.14684898 0.72623968
0.13345601 -0.14683762 0.72622341
0.13369718 -0.14682545 0.726206
0.13395563 -0.14681241 0.72618735
0.13423249 -0.14679843 0.72616738
0.13452904 -0.14678346 0.72614598
0.13484648 -0.14676744 0.72612303
0.13518611 -0.14675029 0.72609854
0.13554917 -0.14673197 0.72607231
0.13593692 -0.14671239 0.72604436
0.1363505 -0.14669152 0.72601449
0.13679104 -0.14666928 0.72598267
0.13725957 -0.14664564 0.72594887
0.13775699 -0.14662053 0.72591293
0.13828409 -0.14659391 0.7258749
0.13884151 -0.14656578 0.72583467
0.13942981 -0.1465361 0.72579217
0.14004932 -0.14650485 0.72574747
0.1407003 -0.14647208 0.72570056
0.14138277 -0.14643794 0.72565156
0.14209659 -0.146403 0.7256009
0.14284112 -0.14636898 0.72555006
0.14361446 -0.14634153 0.72550362
0.14485119 -0.14636378 0.72548306
0.14602509 -0.14685032 0.72584134
0.14643 -0.14793094 0.72670579
0.12816493 -0.14710471 0.72660542
0.12802638 -0.1471117 0.72661537
0.12787789 -0.14711919 0.7266261
0.12771875 -0.14712723 0.7266376
0.12754819 -0.14713584 0.72664994
0.12736538 -0.14714506 0.72666311
0.12716945 -0.14715496 0.72667724
0.12695946 -0.14716555 0.72669244
0.12673441 -0.14717691 0.72670865
0.12649323 -0.14718908 0.72672606
0.1262348 -0.14720213 0.72674471
0.12595792 -0.14721611 0.72676474
0.12566139 -0.14723107 0.72678614
0.12534393 -0.14724711 0.72680902
0.12500431 -0.14726424 0.72683358
0.12464125 -0.14728257 0.72685975
0.12425351 -0.14730214 0.72688776
0.12383992 -0.14732301 0.72691762
0.12339938 -0.14734526 0.72694939
0.12293085 -0.14736891 0.72698325
0.12243343 -0.14739402 0.72701913
0.12190633 -0.14742061 0.72705722
0.1213489 -0.14744876 0.72709745
0.12076061 -0.14747846 0.72713989
0.1201411 -0.14750975 0.72718465
0.11949015 -0.14754272 0.72723174
0.11880774 -0.14757748 0.72728127
0.11809415 -0.14761457 0.72733361
0.1173504 -0.1476557 0.72739023
0.11657956 -0.14770618 0.72745526
0.11536116 -0.14785236 0.72761196
0.11430541 -0.14845145 0.72813118
0.11413884 -0.14956091 0.72903687
0.13076583 -0.17100468 0.74592257
0.13062729 -0.17101167 0.74593258
0.1304788 -0.17101917 0.74594325
0.13031965 -0.1710272 0.74595475
0.1301491 -0.17103581 0.74596709
0.12996627 -0.17104504 0.74598026
0.12977035 -0.17105493 0.74599445
0.12956037 -0.17106552 0.74600959
0.12933531 -0.17107689 0.7460258
0.12909412 -0.17108907 0.74604326
0.12883569 -0.17110211 0.74606192
0.12855881 -0.17111608 0.74608189
0.12826228 -0.17113104 0.74610329
0.12794484 -0.17114708 0.74612617
0.12760521 -0.17116421 0.74615073
0.12724215 -0.17118254 0.74617696
0.1268544 -0.17120212 0.74620491
0.12644082 -0.171223 0.74623477
0.12600029 -0.17124523 0.7462666
0.12553175 -0.17126888 0.7463004
0.12503433 -0.17129399 0.74633628
0.12450723 -0.17132059 0.74637437
0.1239498 -0.17134874 0.7464146
0.12336151 -0.17137842 0.74645704
0.122742 -0.17140967 0.74650174
0.12209103 -0.17144243 0.74654865
0.12140854 -0.17147656 0.74659771
0.12069473 -0.17151152 0.74664837
0.1199502 -0.17154552 0.74669921
0.11917686 -0.17157298 0.74674565
0.11794012 -0.17155072 0.74676615
0.11676623 -0.1710642 0.74640793
0.11636132 -0.16998357 0.74554348
0.13460167 -0.17079338 0.74549818
0.13473925 -0.17078644 0.74548829
0.13488673 -0.17077899 0.74547762
0.13504477 -0.17077102 0.74546623
0.13521416 -0.17076246 0.74545395
0.13539572 -0.1707533 0.7454409
0.1355903 -0.17074348 0.74542683
0.13579884 -0.17073295 0.74541175
0.13602234 -0.17072167 0.74539566
0.13626187 -0.17070958 0.74537832
0.13651852 -0.17069662 0.74535984
0.13679349 -0.17068274 0.74533999
0.13708799 -0.17066787 0.74531871
0.13740325 -0.17065196 0.74529594
0.13774055 -0.17063494 0.74527162
0.13810112 -0.17061673 0.74524558
0.13848618 -0.1705973 0.7452178
0.13889693 -0.17057656 0.74518812
0.13933444 -0.17055447 0.74515653
0.13979974 -0.17053099 0.74512297
0.14029373 -0.17050606 0.74508727
0.14081721 -0.17047964 0.74504948
0.14137082 -0.17045169 0.74500954
0.14195505 -0.17042218 0.74496734
0.1425703 -0.17039111 0.74492294
0.14321677 -0.17035839 0.74487615
0.14389449 -0.17032386 0.74482697
0.14460318 -0.17028701 0.74477494
0.14534181 -0.17024618 0.74471873
0.14610735 -0.17019604 0.74465418
0.14731736 -0.17005086 0.74449855
0.14836586 -0.1694559 0.74398291
0.14853129 -0.16835406 0.74308348
0.13201866 -0.14705779 0.72631389
0.13215624 -0.14705084 0.72630394
0.13230371 -0.14704339 0.72629333
0.13246176 -0.14703542 0.72628188
0.13263115 -0.14702687 0.72626966
0.13281271 -0.1470177 0.72625655
0.13300729 -0.14700788 0.72624254
0.13321583 -0.14699736 0.72622746
0.13343933 -0.14698608 0.72621131
0.13367885 -0.14697398 0.72619402
0.13393551 -0.14696103 0.72617549
0.13421048 -0.14694715 0.72615564
0.13450497 -0.14693229 0.72613442
0.13482024 -0.14691637 0.72611165
0.13515753 -0.14689934 0.72608727
0.1355181 -0.14688115 0.72606128
0.13590316 -0.1468617 0.72603345
0.13631392 -0.14684097 0.72600383
0.13675143 -0.14681889 0.72597224
0.13721673 -0.14679541 0.72593862
0.13771072 -0.14677046 0.72590297
0.1382342 -0.14674404 0.72586519
0.13878781 -0.1467161 0.72582525
0.13937205 -0.14668661 0.72578305
0.1399873 -0.14665559 0.72573864
0.14063379 -0.14662305 0.72569209
0.14131157 -0.14658915 0.7256434
0.14202049 -0.14655444 0.72559309
0.14275989 -0.14652066 0.7255426
0.14352793 -0.14649339 0.72549647
0.14475615 -0.14651549 0.72547609
0.14592196 -0.14699869 0.72583187
0.14632408 -0.14807187 0.72669035
0.12818465 -0.14725132 0.72659069
0.12804705 -0.14725827 0.72660059
0.12789959 -0.1472657 0.72661126
0.12774155 -0.14727369 0.72662264
0.12757215 -0.14728224 0.72663486
0.12739059 -0.14729141 0.72664797
0.12719601 -0.14730123 0.72666204
0.12698747 -0.14731175 0.72667712
0.12676397 -0.14732303 0.72669321
0.12652445 -0.14733513 0.7267105
0.12626779 -0.14734808 0.72672904
0.12599282 -0.14736195 0.72674888
0.12569833 -0.14737682 0.72677016
0.12538306 -0.14739273 0.72679293
0.12504576 -0.14740977 0.72681725
0.1246852 -0.14742796 0.7268433
0.12430013 -0.14744739 0.72687107
0.12388939 -0.14746813 0.72690076
0.12345187 -0.14749022 0.72693235
0.12298657 -0.1475137 0.7269659
0.12249257 -0.14753863 0.72700155
0.1219691 -0.14756507 0.72703934
0.1214155 -0.14759301 0.72707933
0.12083126 -0.14762251 0.72712153
0.120216 -0.14765359 0.72716594
0.11956953 -0.14768632 0.72721267
0.11889182 -0.14772084 0.7272619
0.11818314 -0.14775768 0.72731388
0.1174445 -0.14779851 0.72737008
0.11667897 -0.14784865 0.72743469
0.11546894 -0.14799383 0.72759032
0.11442045 -0.14858879 0.72810596
0.11425503 -0.14969063 0.7290054
0.13076766 -0.17098691 0.74577498
0.13063006 -0.17099385 0.74578488
0.1304826 -0.1710013 0.74579555
0.13032456 -0.17100927 0.74580693
0.13015516 -0.17101783 0.74581921
0.12997361 -0.17102699 0.74583226
0.12977903 -0.17103681 0.74584633
0.12957048 -0.17104734 0.74586141
0.12934698 -0.17105862 0.7458775
0.12910746 -0.17107071 0.74589479
0.1288508 -0.17108367 0.74591333
0.12857583 -0.17109755 0.74593318
0.12828134 -0.17111242 0.74595445
0.12796608 -0.17112833 0.74597722
0.12762877 -0.17114535 0.74600154
0.12726821 -0.17116354 0.74602759
0.12688313 -0.17118299 0.74605536
0.1264724 -0.17120372 0.74608505
0.12603489 -0.1712258 0.74611664
0.12556958 -0.1712493 0.7461502
0.12507558 -0.17127423 0.7461859
0.12455211 -0.17130065 0.74622369
0.12399851 -0.17132859 0.74626362
0.12341427 -0.17135808 0.74630582
0.12279901 -0.1713891 0.74635017
0.12215252 -0.17142165 0.74639678
0.12147474 -0.17145555 0.74644548
0.12076582 -0.17149025 0.74649578
0.12002642 -0.17152403 0.74654627
0.11925839 -0.1715513 0.74659234
0.11803016 -0.1715292 0.74661279
0.11686435 -0.17104602 0.74625701
0.11646222 -0.16997282 0.74539852
0.13457736 -0.17076688 0.7453652
0.13471401 -0.17075998 0.74535531
0.13486046 -0.17075258 0.74534476
0.13501741 -0.17074467 0.74533343
0.13518563 -0.17073618 0.74532127
0.13536592 -0.17072707 0.74530828
0.13555916 -0.17071731 0.74529433
0.13576627 -0.17070687 0.74527937
0.13598822 -0.17069566 0.74526334
0.13622609 -0.17068365 0.74524617
0.13648097 -0.17067079 0.74522775
0.13675404 -0.17065701 0.74520802
0.1370465 -0.17064224 0.74518692
0.13735957 -0.17062645 0.74516433
0.13769454 -0.17060953 0.74514014
0.13805261 -0.17059146 0.74511433
0.13843502 -0.17057216 0.74508667
0.13884293 -0.17055157 0.74505723
0.13927741 -0.17052963 0.74502587
0.1397395 -0.17050631 0.74499255
0.14023007 -0.17048155 0.74495709
0.14074993 -0.17045531 0.7449196
0.14129971 -0.17042755 0.7448799
0.1418799 -0.17039825 0.744838
0.14249091 -0.17036739 0.74479389
0.14313291 -0.17033489 0.74474746
0.14380594 -0.1703006 0.74469864
0.14450972 -0.17026402 0.74464697
0.14524324 -0.17022346 0.74459112
0.14600348 -0.17017367 0.74452698
0.14720514 -0.17002951 0.74437243
0.14824638 -0.16943866 0.74386036
0.14841066 -0.16834444 0.74296713
0.13201222 -0.14719543 0.72631353
0.13214886 -0.14718853 0.7263037
0.1322953 -0.14718114 0.72629309
0.13245226 -0.14717321 0.72628176
0.13262048 -0.14716472 0.7262696
0.13280077 -0.14715563 0.72625661
0.13299401 -0.14714587 0.72624266
0.13320111 -0.14713541 0.7262277
0.13342308 -0.14712422 0.72621167
0.13366094 -0.14711221 0.7261945
0.13391583 -0.14709933 0.72617614
0.13418889 -0.14708555 0.72615641
0.13448134 -0.1470708 0.72613531
0.13479443 -0.14705499 0.72611272
0.13512939 -0.14703807 0.72608852
0.13548747 -0.14702 0.72606266
0.13586988 -0.1470007 0.72603506
0.13627777 -0.14698011 0.72600561
0.13671227 -0.14695817 0.72597426
0.13717435 -0.14693485 0.72594088
0.13766493 -0.14691009 0.72590548
0.13818479 -0.14688385 0.72586793
0.13873455 -0.1468561 0.72582829
0.13931476 -0.14682682 0.72578639
0.13992576 -0.146796 0.72574228
0.14056778 -0.1467637 0.72569603
0.14124088 -0.14673002 0.72564769
0.14194489 -0.14669555 0.72559774
0.14267918 -0.14666201 0.72554755
0.14344189 -0.14663494 0.72550178
0.14466164 -0.14665689 0.72548151
0.14581938 -0.14713673 0.72583485
0.14621873 -0.14820249 0.72668743
0.12820472 -0.14738762 0.72658843
0.12806809 -0.14739451 0.72659826
0.12792164 -0.14740191 0.72660881
0.12776469 -0.14740983 0.7266202
0.12759645 -0.14741832 0.7266323
0.12741616 -0.14742742 0.72664535
0.12722293 -0.14743717 0.7266593
0.12701583 -0.14744763 0.7266742
0.12679386 -0.14745884 0.72669023
0.12655599 -0.14747085 0.7267074
0.12630111 -0.14748371 0.72672582
0.12602805 -0.14749749 0.72674555
0.1257356 -0.14751226 0.72676665
0.12542251 -0.14752805 0.72678924
0.12508754 -0.14754497 0.72681344
0.12472947 -0.14756304 0.7268393
0.12434707 -0.14758234 0.7268669
0.12393916 -0.14760293 0.72689635
0.12350468 -0.14762487 0.7269277
0.12304259 -0.14764819 0.72696108
0.12255201 -0.14767295 0.72699648
0.12203216 -0.14769919 0.72703397
0.12148239 -0.14772695 0.72707367
0.12090218 -0.14775623 0.72711557
0.12029119 -0.14778711 0.72715968
0.11964919 -0.14781961 0.72720611
0.11897615 -0.1478539 0.72725499
0.11827238 -0.14789048 0.7273066
0.11753885 -0.14793102 0.72736245
0.1167786 -0.14798082 0.72742659
0.11557695 -0.14812499 0.72758114
0.11453571 -0.14871584 0.72809321
0.11437143 -0.14981006 0.72898644
0.13076986 -0.17095907 0.74564004
0.13063323 -0.17096597 0.74564987
0.13048679 -0.17097336 0.74566048
0.13032983 -0.17098129 0.74567181
0.13016161 -0.17098978 0.74568397
0.12998131 -0.17099887 0.74569696
0.12978807 -0.17100863 0.74571091
0.12958097 -0.17101908 0.74572587
0.12935902 -0.17103028 0.7457419
0.12912115 -0.17104229 0.74575907
0.12886627 -0.17105517 0.74577749
0.12859319 -0.17106895 0.74579716
0.12830074 -0.1710837 0.74581826
0.12798765 -0.17109951 0.74584091
0.1276527 -0.17111641 0.74586505
0.12729463 -0.17113449 0.74589092
0.12691222 -0.1711538 0.74591851
0.12650432 -0.17117439 0.74594796
0.12606983 -0.17119631 0.74597931
0.12560774 -0.17121965 0.74601269
0.12511715 -0.17124441 0.74604809
0.1245973 -0.17127064 0.74608564
0.12404753 -0.1712984 0.74612534
0.12346733 -0.17132768 0.74616718
0.12285633 -0.1713585 0.74621129
0.12221431 -0.1713908 0.74625754
0.12154121 -0.17142446 0.74630588
0.1208372 -0.17145894 0.74635583
0.1201029 -0.17149249 0.74640602
0.1193402 -0.17151956 0.7464518
0.11812046 -0.17149761 0.74647206
0.11696271 -0.17101777 0.74611872
0.11656336 -0.16995201 0.7452662
0.13455342 -0.17073213 0.74524254
0.13468911 -0.17072529 0.74523276
0.13483453 -0.17071794 0.74522221
0.13499039 -0.17071007 0.74521101
0.13515745 -0.17070164 0.74519891
0.13533649 -0.17069261 0.74518597
0.13552839 -0.17068291 0.74517214
0.13573404 -0.17067254 0.7451573
0.13595445 -0.1706614 0.74514139
0.13619067 -0.17064948 0.74512434
0.13644378 -0.17063671 0.74510604
0.13671495 -0.17062302 0.74508649
0.13700537 -0.17060836 0.74506551
0.13731629 -0.17059267 0.7450431
0.13764891 -0.17057587 0.74501908
0.1380045 -0.17055793 0.74499339
0.13838424 -0.17053875 0.74496597
0.13878931 -0.17051831 0.74493676
0.13922077 -0.17049654 0.74490559
0.13967964 -0.17047337 0.74487245
0.14016682 -0.17044878 0.74483728
0.14068305 -0.17042272 0.74480003
0.141229 -0.17039517 0.74476063
0.14180517 -0.17036606 0.74471903
0.14241192 -0.17033541 0.74467522
0.14304945 -0.17030315 0.74462909
0.1437178 -0.1702691 0.74458063
0.14441667 -0.17023276 0.74452931
0.1451451 -0.17019249 0.74447387
0.14590006 -0.17014305 0.74441016
0.14709337 -0.16999988 0.74425673
0.14812736 -0.16941313 0.74374819
0.1482905 -0.16832653 0.74286115
0.13200611 -0.14732461 0.72632343
0.1321418 -0.14731777 0.72631359
0.13228722 -0.14731042 0.7263031
0.13244309 -0.14730255 0.72629184
0.13261014 -0.14729412 0.7262798
0.13278918 -0.14728509 0.72626686
0.13298108 -0.1472754 0.72625303
0.13318673 -0.14726502 0.72623819
0.13340715 -0.14725389 0.72622228
0.13364336 -0.14724196 0.72620523
0.13389647 -0.14722919 0.72618693
0.13416764 -0.1472155 0.72616738
0.13445807 -0.14720084 0.7261464
0.13476896 -0.14718515 0.72612393
0.1351016 -0.14716835 0.72609991
0.13545719 -0.14715041 0.72607428
0.13583693 -0.14713125 0.72604686
0.13624199 -0.14711079 0.72601759
0.13667347 -0.14708902 0.72598648
0.13713233 -0.14706585 0.72595334
0.1376195 -0.14704126 0.72591817
0.13813575 -0.14701521 0.72588092
0.13868169 -0.14698765 0.72584146
0.13925786 -0.14695857 0.72579992
0.13986461 -0.14692797 0.72575611
0.14050217 -0.14689589 0.72571015
0.14117058 -0.14686245 0.72566217
0.14186969 -0.14682822 0.72561258
0.14259888 -0.14679492 0.72556275
0.14335629 -0.14676802 0.72551727
0.14456753 -0.14678982 0.72549719
0.14571725 -0.14726633 0.72584802
0.14611381 -0.14832468 0.72669464
0.12822509 -0.14751548 0.72659636
0.1280894 -0.14752232 0.72660613
0.12794398 -0.14752966 0.72661662
0.12778811 -0.14753753 0.72662789
0.12762105 -0.14754596 0.72663993
0.12744202 -0.14755499 0.72665286
0.12725012 -0.14756468 0.72666675
0.12704447 -0.14757507 0.72668159
0.12682405 -0.14758618 0.7266975
0.12658784 -0.14759812 0.72671455
0.12633473 -0.14761089 0.72673279
0.12606356 -0.14762458 0.7267524
0.12577313 -0.14763923 0.72677332
0.12546223 -0.14765494 0.72679579
0.1251296 -0.14767171 0.72681981
0.12477402 -0.14768967 0.7268455
0.12439427 -0.14770883 0.72687286
0.1239892 -0.14772928 0.72690213
0.12355773 -0.14775106 0.7269333
0.12309887 -0.14777422 0.72696638
0.12261169 -0.14779882 0.72700155
0.12209546 -0.14782488 0.72703886
0.12154951 -0.14785244 0.72707826
0.12097334 -0.14788152 0.72711986
0.1203666 -0.14791217 0.72716367
0.11972906 -0.14794445 0.72720975
0.11906071 -0.1479785 0.72725827
0.11836182 -0.14801483 0.72730958
0.11763339 -0.14805511 0.72736502
0.11687844 -0.14810455 0.72742873
0.11568514 -0.14824772 0.72758216
0.11465115 -0.14883445 0.72809064
0.11448801 -0.14992107 0.72897774
0.1307724 -0.17092298 0.74551547
0.13063671 -0.17092983 0.7455253
0.13049129 -0.17093718 0.74553579
0.13033542 -0.17094505 0.745547
0.13016836 -0.17095347 0.7455591
0.12998933 -0.17096251 0.74557203
0.12979743 -0.1709722 0.74558586
0.12959178 -0.17098258 0.7456007
0.12937136 -0.1709937 0.74561661
0.12913515 -0.17100562 0.74563366
0.12888204 -0.17101841 0.74565196
0.12861086 -0.17103209 0.74567151
0.12832044 -0.17104675 0.74569249
0.12800954 -0.17106244 0.7457149
0.1276769 -0.17107923 0.74573892
