# .PCD v0.7 - Point Cloud Data file format
VERSION 0.7
FIELDS x y z rgba
SIZE 4 4 4 4
TYPE F F F U
COUNT 1 1 1 1
WIDTH 1056
HEIGHT 1
VIEWPOINT 0 0 0 1 0 0 0
POINTS 1056
DATA ascii
0.14250869 -0.12129808 0.76100004 4294967295
0.14383434 -0.12129808 0.76100004 4294967295
0.1447785 -0.12097931 0.75900006 4294967295
0.14610069 -0.12097931 0.75900006 4294967295
0.14742288 -0.12097931 0.75900006 4294967295
0.14874505 -0.12097931 0.75900006 4294967295
0.15006723 -0.12097931 0.75900006 4294967295
0.15138941 -0.12097931 0.75900006 4294967295
0.15271157 -0.12097931 0.75900006 4294967295
0.15403377 -0.12097931 0.75900006 4294967295
0.15535595 -0.12097931 0.75900006 4294967295
0.15667811 -0.12097931 0.75900006 4294967295
0.15758395 -0.12066051 0.75700003 4294967295
0.15890265 -0.12066051 0.75700003 4294967295
0.10804147 -0.11997243 0.76100004 4294934169
0.10936712 -0.11997243 0.76100004 4294957218
0.11040188 -0.11965713 0.75900006 4294967253
0.11172406 -0.11965713 0.75900006 4294967295
0.11304624 -0.11965713 0.75900006 4294967295
0.11406704 -0.11934181 0.75700003 4294967295
0.11538574 -0.11934181 0.75700003 4294967295
0.11670443 -0.11934181 0.75700003 4294967295
0.11802313 -0.11934181 0.75700003 4294967295
0.11934181 -0.11934181 0.75700003 4294967295
0.12066051 -0.11934181 0.75700003 4294967295
0.1219792 -0.11934181 0.75700003 4294967295
0.1232979 -0.11934181 0.75700003 4294967295
0.12461659 -0.11934181 0.75700003 4294967295
0.12593529 -0.11934181 0.75700003 4294967295
0.12725399 -0.11934181 0.75700003 4294967295
0.12891237 -0.11965713 0.75900006 4294967295
0.12989138 -0.11934181 0.75700003 4294967295
0.13121006 -0.11934181 0.75700003 4294967295
0.13252877 -0.11934181 0.75700003 4294967295
0.13384746 -0.11934181 0.75700003 4294967295
0.13552327 -0.11965713 0.75900006 4294967295
0.13684544 -0.11965713 0.75900006 4294967295
0.13816762 -0.11965713 0.75900006 4294967295
0.1394898 -0.11965713 0.75900006 4294967295
0.14081198 -0.11965713 0.75900006 4294967295
0.14213416 -0.11965713 0.75900006 4294967295
0.14345634 -0.11965713 0.75900006 4294703094
0.1447785 -0.11965713 0.75900006 4293716199
0.14610069 -0.11965713 0.75900006 4294833645
0.14703439 -0.11934181 0.75700003 4294967295
0.1483531 -0.11934181 0.75700003 4294967295
0.15006723 -0.11965713 0.75900006 4294967295
0.15138941 -0.11965713 0.75900006 4294967295
0.15271157 -0.11965713 0.75900006 4294967295
0.15362787 -0.11934181 0.75700003 4294967295
0.15494657 -0.11934181 0.75700003 4294967295
0.15626526 -0.11934181 0.75700003 4294967295
0.15758395 -0.11934181 0.75700003 4294967295
0.15890265 -0.11934181 0.75700003 4294967295
0.10685603 -0.11880267 0.76200002 4288622132
0.10804147 -0.11864676 0.76100004 4292635762
0.10936712 -0.11864676 0.76100004 4293437023
0.11040188 -0.11833494 0.75900006 4294967226
0.11172406 -0.11833494 0.75900006 4294967295
0.11304624 -0.11833494 0.75900006 4294967295
0.11406704 -0.11802313 0.75700003 4294967295
0.11538574 -0.11802313 0.75700003 4294967295
0.11655027 -0.11786722 0.75600004 4294967295
0.11786722 -0.11786722 0.75600004 4294967295
0.11918417 -0.11786722 0.75600004 4294967295
0.12050112 -0.11786722 0.75600004 4294967295
0.12181807 -0.11786722 0.75600004 4294967295
0.12313503 -0.11786722 0.75600004 4294967295
0.12445197 -0.11786722 0.75600004 4294967295
0.12576893 -0.11786722 0.75600004 4294967295
0.12708588 -0.11786722 0.75600004 4294967290
0.12857267 -0.11802313 0.75700003 4294967295
0.12989138 -0.11802313 0.75700003 4294967295
0.13121006 -0.11802313 0.75700003 4294967295
0.13252877 -0.11802313 0.75700003 4294967295
0.13384746 -0.11802313 0.75700003 4294967295
0.13516615 -0.11802313 0.75700003 4294967295
0.13648485 -0.11802313 0.75700003 4294967295
0.13780354 -0.11802313 0.75700003 4294967295
0.13912223 -0.11802313 0.75700003 4294967295
0.14044093 -0.11802313 0.75700003 4294967295
0.14175962 -0.11802313 0.75700003 4294967295
0.14307831 -0.11802313 0.75700003 4294701014
0.14439701 -0.11802313 0.75700003 4292990652
0.14571571 -0.11802313 0.75700003 4293514175
0.14703439 -0.11802313 0.75700003 4294764242
0.1483531 -0.11802313 0.75700003 4294966766
0.14967178 -0.11802313 0.75700003 4294967291
0.15099049 -0.11802313 0.75700003 4294967295
0.15230916 -0.11802313 0.75700003 4294967295
0.15362787 -0.11802313 0.75700003 4294967295
0.15494657 -0.11802313 0.75700003 4294967295
0.15605883 -0.11786722 0.75600004 4294967295
0.15737578 -0.11786722 0.75600004 4294967295
0.15869273 -0.11786722 0.75600004 4294967295
0.10685603 -0.11747527 0.76200002 4288952912
0.10804147 -0.1173211 0.76100004 4289347670
0.10936712 -0.1173211 0.76100004 4291387464
0.11040188 -0.11701278 0.75900006 4294961103
0.11172406 -0.11701278 0.75900006 4294967295
0.11274835 -0.11670443 0.75700003 4294967295
0.11391636 -0.11655027 0.75600004 4294967295
0.11523331 -0.11655027 0.75600004 4294967295
0.11655027 -0.11655027 0.75600004 4294967295
0.11755539 -0.11624193 0.75400001 4294967295
0.11886886 -0.11624193 0.75400001 4294967295
0.12018233 -0.11624193 0.75400001 4294967295
0.12149581 -0.11624193 0.75400001 4294967295
0.12280927 -0.11624193 0.75400001 4294967295
0.12412273 -0.11624193 0.75400001 4294967295
0.1254362 -0.11624193 0.75400001 4294440690
0.12708588 -0.11655027 0.75600004 4294503106
0.12840284 -0.11655027 0.75600004 4294832070
0.12971978 -0.11655027 0.75600004 4294636784
0.13103674 -0.11655027 0.75600004 4294967295
0.13235369 -0.11655027 0.75600004 4294967295
0.13367064 -0.11655027 0.75600004 4294967295
0.13498759 -0.11655027 0.75600004 4294967295
0.13630454 -0.11655027 0.75600004 4294967295
0.13762151 -0.11655027 0.75600004 4294967295
0.13893846 -0.11655027 0.75600004 4294967295
0.14025541 -0.11655027 0.75600004 4294967295
0.14157236 -0.11655027 0.75600004 4294967291
0.14288931 -0.11655027 0.75600004 4294307012
0.14420626 -0.11655027 0.75600004 4293320117
0.14552321 -0.11655027 0.75600004 4293056216
0.14684017 -0.11655027 0.75600004 4293582560
0.14815712 -0.11655027 0.75600004 4294965470
0.14947407 -0.11655027 0.75600004 4294967281
0.15079102 -0.11655027 0.75600004 4294967295
0.15210798 -0.11655027 0.75600004 4294967295
0.15342493 -0.11655027 0.75600004 4294967295
0.15474187 -0.11655027 0.75600004 4294967295
0.15564597 -0.11624193 0.75400001 4294967295
0.15654311 -0.1159336 0.75200003 4294967295
0.1578531 -0.1159336 0.75200003 4294967295
0.10804147 -0.11599544 0.76100004 4289614158
0.1090797 -0.1156906 0.75900006 4291383040
0.11040188 -0.1156906 0.75900006 4294956149
0.11142965 -0.11538574 0.75700003 4294967295
0.11230153 -0.11492845 0.75400001 4294967295
0.11361499 -0.11492845 0.75400001 4294967295
0.11492845 -0.11492845 0.75400001 4294967295
0.11624193 -0.11492845 0.75400001 4294967295
0.11724358 -0.11462361 0.75200003 4294967295
0.11855356 -0.11462361 0.75200003 4294967295
0.11986355 -0.11462361 0.75200003 4294967295
0.12149581 -0.11492845 0.75400001 4294967295
0.12280927 -0.11492845 0.75400001 4294967295
0.12412273 -0.11492845 0.75400001 4294967295
0.1254362 -0.11492845 0.75400001 4292729554
0.12674968 -0.11492845 0.75400001 4293775998
0.12840284 -0.11523331 0.75600004 4293907584
0.12971978 -0.11523331 0.75600004 4293580972
0.13103674 -0.11523331 0.75600004 4294967265
0.13235369 -0.11523331 0.75600004 4294967295
0.13367064 -0.11523331 0.75600004 4294967295
0.13463049 -0.11492845 0.75400001 4294967295
0.13594395 -0.11492845 0.75400001 4294967295
0.13762151 -0.11523331 0.75600004 4294967295
0.13857087 -0.11492845 0.75400001 4294967295
0.13988435 -0.11492845 0.75400001 4294967295
0.14119782 -0.11492845 0.75400001 4294967293
0.14251128 -0.11492845 0.75400001 4294897879
0.14420626 -0.11523331 0.75600004 4293647812
0.14552321 -0.11523331 0.75600004 4293384656
0.1464517 -0.11492845 0.75400001 4294239709
0.14776517 -0.11492845 0.75400001 4294967024
0.14907864 -0.11492845 0.75400001 4294967294
0.1503921 -0.11492845 0.75400001 4294967295
0.15170556 -0.11492845 0.75400001 4294967295
0.15301904 -0.11492845 0.75400001 4294967295
0.1543325 -0.11492845 0.75400001 4294967295
0.15523313 -0.11462361 0.75200003 4294967295
0.15654311 -0.11462361 0.75200003 4294967295
0.1578531 -0.11462361 0.75200003 4294967295
0.10804147 -0.11466977 0.76100004 4290209359
0.1090797 -0.11436841 0.75900006 4291381770
0.11011096 -0.11406704 0.75700003 4294938190
0.11128246 -0.11391636 0.75600004 4294957255
0.11230153 -0.11361499 0.75400001 4294967289
0.11331363 -0.11331363 0.75200003 4294967295
0.11462361 -0.11331363 0.75200003 4294967295
0.1159336 -0.11331363 0.75200003 4294967295
0.11724358 -0.11331363 0.75200003 4294967295
0.11855356 -0.11331363 0.75200003 4294967295
0.11986355 -0.11331363 0.75200003 4294967295
0.12117354 -0.11331363 0.75200003 4294967295
0.12248352 -0.11331363 0.75200003 4294967295
0.1237935 -0.11331363 0.75200003 4294967292
0.12510349 -0.11331363 0.75200003 4292466116
0.12674968 -0.11361499 0.75400001 4293380958
0.12840284 -0.11391636 0.75600004 4293644130
0.12971978 -0.11391636 0.75600004 4293383843
0.13103674 -0.11391636 0.75600004 4294967265
0.13235369 -0.11391636 0.75600004 4294967295
0.13331701 -0.11361499 0.75400001 4294967295
0.13463049 -0.11361499 0.75400001 4294967295
0.13594395 -0.11361499 0.75400001 4294967295
0.13725741 -0.11361499 0.75400001 4294967295
0.13820334 -0.11331363 0.75200003 4294967295
0.13951331 -0.11331363 0.75200003 4294967295
0.14063603 -0.11316294 0.75100005 4294967295
0.14194427 -0.11316294 0.75100005 4294967295
0.14325252 -0.11316294 0.75100005 4294967295
0.14475325 -0.11331363 0.75200003 4294967295
0.14606324 -0.11331363 0.75200003 4294967295
0.14737321 -0.11331363 0.75200003 4294967295
0.14868321 -0.11331363 0.75200003 4294967295
0.14999318 -0.11331363 0.75200003 4294967295
0.15130317 -0.11331363 0.75200003 4294967295
0.15261315 -0.11331363 0.75200003 4294967295
0.15392312 -0.11331363 0.75200003 4294967295
0.1550267 -0.11316294 0.75100005 4294967295
0.15633494 -0.11316294 0.75100005 4294967295
0.15764318 -0.11316294 0.75100005 4294967295
0.1585281 -0.11286157 0.74900001 4294967295
0.15983286 -0.11286157 0.74900001 4294967295
0.16070735 -0.11256021 0.74700004 4294967293
0.1099655 -0.1125994 0.75600004 4291448097
0.11098806 -0.11230153 0.75400001 4294618746
0.11200365 -0.11200365 0.75200003 4294966987
0.11331363 -0.11200365 0.75200003 4294967295
0.11462361 -0.11200365 0.75200003 4294967295
0.11577943 -0.1118547 0.75100005 4294967295
0.11708767 -0.1118547 0.75100005 4294967295
0.11839592 -0.1118547 0.75100005 4294967295
0.11970416 -0.1118547 0.75100005 4294967295
0.1210124 -0.1118547 0.75100005 4294967295
0.12248352 -0.11200365 0.75200003 4294967295
0.1237935 -0.11200365 0.75200003 4294967295
0.12510349 -0.11200365 0.75200003 4293715934
0.12641346 -0.11200365 0.75200003 4294956970
0.12806314 -0.11230153 0.75400001 4294890406
0.12937661 -0.11230153 0.75400001 4293714109
0.13103674 -0.1125994 0.75600004 4294967283
0.13235369 -0.1125994 0.75600004 4294967295
0.13296339 -0.11200365 0.75200003 4294967295
0.13409483 -0.1118547 0.75100005 4294967295
0.13540307 -0.1118547 0.75100005 4294967295
0.13671131 -0.1118547 0.75100005 4294967295
0.13801955 -0.1118547 0.75100005 4294967295
0.13895674 -0.11155681 0.74900001 4294967295
0.1402615 -0.11155681 0.74900001 4294967295
0.14156626 -0.11155681 0.74900001 4294967295
0.14287102 -0.11155681 0.74900001 4294967295
0.14456075 -0.1118547 0.75100005 4294967295
0.145869 -0.1118547 0.75100005 4294967295
0.14717723 -0.1118547 0.75100005 4294967295
0.14848548 -0.1118547 0.75100005 4294967295
0.14979373 -0.1118547 0.75100005 4294967295
0.15110198 -0.1118547 0.75100005 4294967295
0.15241022 -0.1118547 0.75100005 4294967295
0.15371846 -0.1118547 0.75100005 4294967295
0.15461384 -0.11155681 0.74900001 4294967295
0.1559186 -0.11155681 0.74900001 4294967295
0.15722334 -0.11155681 0.74900001 4294967295
0.1585281 -0.11155681 0.74900001 4294967295
0.15940608 -0.11125894 0.74700004 4294967295
0.16070735 -0.11125894 0.74700004 4294967295
0.16179176 -0.11111 0.74600005 4293979391
0.11098806 -0.11098806 0.75400001 4291716218
0.1118547 -0.11054646 0.75100005 4294962175
0.11316294 -0.11054646 0.75100005 4294967295
0.11447118 -0.11054646 0.75100005 4294967295
0.11577943 -0.11054646 0.75100005 4294967295
0.11677585 -0.11025206 0.74900001 4294967295
0.11808061 -0.11025206 0.74900001 4294967295
0.11938537 -0.11025206 0.74900001 4294967295
0.12069012 -0.11025206 0.74900001 4294967295
0.12232064 -0.11054646 0.75100005 4294967295
0.12362888 -0.11054646 0.75100005 4294967295
0.12493712 -0.11054646 0.75100005 4294967295
0.12624536 -0.11054646 0.75100005 4294967295
0.12772344 -0.11069366 0.75200003 4294967295
0.12903345 -0.11069366 0.75200003 4294967295
0.1337377 -0.11025206 0.74900001 4294967295
0.13504246 -0.11025206 0.74900001 4294967295
0.13634722 -0.11025206 0.74900001 4294967295
0.13765198 -0.11025206 0.74900001 4294967295
0.13895674 -0.11025206 0.74900001 4294967295
0.1402615 -0.11025206 0.74900001 4294967295
0.14156626 -0.11025206 0.74900001 4294967295
0.14287102 -0.11025206 0.74900001 4294967295
0.14417577 -0.11025206 0.74900001 4294967295
0.14548053 -0.11025206 0.74900001 4294967295
0.14678529 -0.11025206 0.74900001 4294967295
0.14809005 -0.11025206 0.74900001 4294967295
0.1493948 -0.11025206 0.74900001 4294967295
0.15069956 -0.11025206 0.74900001 4294967295
0.15200432 -0.11025206 0.74900001 4294967295
0.15330908 -0.11025206 0.74900001 4294967295
0.15461384 -0.11025206 0.74900001 4294967295
0.1559186 -0.11025206 0.74900001 4294967295
0.15722334 -0.11025206 0.74900001 4294967295
0.15810481 -0.10995767 0.74700004 4294967295
0.15940608 -0.10995767 0.74700004 4294967295
0.16049223 -0.10981046 0.74600005 4294967295
0.16179176 -0.10981046 0.74600005 4294967295
0.16309129 -0.10981046 0.74600005 4288782237
0.11098806 -0.10967459 0.75400001 4292105728
0.1118547 -0.10923822 0.75100005 4294961539
0.11316294 -0.10923822 0.75100005 4294967295
0.11416633 -0.1089473 0.74900001 4294967295
0.11516277 -0.10865639 0.74700004 4294967295
0.11646404 -0.10865639 0.74700004 4294967295
0.11776531 -0.10865639 0.74700004 4294967295
0.11906658 -0.10865639 0.74700004 4294967295
0.12036786 -0.10865639 0.74700004 4294967295
0.12166914 -0.10865639 0.74700004 4294967295
0.12297041 -0.10865639 0.74700004 4294967295
0.12427168 -0.10865639 0.74700004 4294967295
0.13112818 -0.1089473 0.74900001 4294967295
0.13243294 -0.1089473 0.74900001 4294967295
0.13338061 -0.10865639 0.74700004 4294967295
0.13468188 -0.10865639 0.74700004 4294967295
0.13598314 -0.10865639 0.74700004 4294967295
0.13728441 -0.10865639 0.74700004 4294967295
0.1385857 -0.10865639 0.74700004 4294967295
0.1402615 -0.1089473 0.74900001 4294967295
0.14118825 -0.10865639 0.74700004 4294967295
0.14248951 -0.10865639 0.74700004 4294967295
0.14417577 -0.1089473 0.74900001 4294967295
0.14548053 -0.1089473 0.74900001 4294967295
0.14678529 -0.1089473 0.74900001 4294967295
0.14809005 -0.1089473 0.74900001 4294967295
0.1493948 -0.1089473 0.74900001 4294967295
0.15069956 -0.1089473 0.74900001 4294967295
0.15200432 -0.1089473 0.74900001 4294967295
0.15289971 -0.10865639 0.74700004 4294967295
0.15420099 -0.10865639 0.74700004 4294967295
0.15550226 -0.10865639 0.74700004 4294967295
0.15680353 -0.10865639 0.74700004 4294967295
0.15810481 -0.10865639 0.74700004 4294967295
0.1591927 -0.10851093 0.74600005 4294967295
0.16006194 -0.10822002 0.74400002 4294967295
0.161358 -0.10822002 0.74400002 4294967295
0.16265404 -0.10822002 0.74400002 4292400600
0.11069366 -0.10807369 0.75200003 4291447040
0.11155681 -0.10764254 0.74900001 4294947158
0.11256021 -0.10735512 0.74700004 4294964701
0.11386149 -0.10735512 0.74700004 4294967287
0.11500859 -0.1072114 0.74600005 4294967295
0.11630813 -0.1072114 0.74600005 4294967295
0.11760767 -0.1072114 0.74600005 4294967295
0.11890719 -0.1072114 0.74600005 4294967295
0.12020673 -0.1072114 0.74600005 4294967295
0.12150626 -0.1072114 0.74600005 4294967295
0.12280578 -0.1072114 0.74600005 4294967295
0.12410532 -0.1072114 0.74600005 4294967295
0.12540485 -0.1072114 0.74600005 4294967295
0.12687422 -0.10735512 0.74700004 4294967295
0.12817551 -0.10735512 0.74700004 4294967295
0.12947679 -0.10735512 0.74700004 4294967295
0.13077804 -0.10735512 0.74700004 4294967295
0.13207932 -0.10735512 0.74700004 4294967295
0.13338061 -0.10735512 0.74700004 4294967295
0.13468188 -0.10735512 0.74700004 4294967295
0.13598314 -0.10735512 0.74700004 4294967295
0.13728441 -0.10735512 0.74700004 4294967295
0.1385857 -0.10735512 0.74700004 4294967295
0.13988698 -0.10735512 0.74700004 4294967295
0.14118825 -0.10735512 0.74700004 4294967295
0.14248951 -0.10735512 0.74700004 4294967295
0.1437908 -0.10735512 0.74700004 4294967295
0.14509207 -0.10735512 0.74700004 4294967295
0.14639334 -0.10735512 0.74700004 4294967295
0.14769462 -0.10735512 0.74700004 4294967292
0.14899589 -0.10735512 0.74700004 4294967272
0.15029716 -0.10735512 0.74700004 4294967279
0.15159844 -0.10735512 0.74700004 4294967295
0.15289971 -0.10735512 0.74700004 4294967295
0.15420099 -0.10735512 0.74700004 4294967294
0.15550226 -0.10735512 0.74700004 4294967295
0.15659362 -0.1072114 0.74600005 4294967295
0.15789317 -0.1072114 0.74600005 4294967295
0.1591927 -0.1072114 0.74600005 4294967295
0.16006194 -0.10692397 0.74400002 4294967295
0.161358 -0.10692397 0.74400002 4294967295
0.16265404 -0.10692397 0.74400002 4294967295
0.16395009 -0.10692397 0.74400002 4291281381
0.11256021 -0.10605384 0.74700004 4294955951
0.11370906 -0.10591187 0.74600005 4294967265
0.11500859 -0.10591187 0.74600005 4294967295
0.11630813 -0.10591187 0.74600005 4294967295
0.11729235 -0.10562792 0.74400002 4294967295
0.1185884 -0.10562792 0.74400002 4294967295
0.11988445 -0.10562792 0.74400002 4294967295
0.1211805 -0.10562792 0.74400002 4294967295
0.12247654 -0.10562792 0.74400002 4294967295
0.1237726 -0.10562792 0.74400002 4294967295
0.12506865 -0.10562792 0.74400002 4294967295
0.12636469 -0.10562792 0.74400002 4294967295
0.12766074 -0.10562792 0.74400002 4294967295
0.12895678 -0.10562792 0.74400002 4294967295
0.13025284 -0.10562792 0.74400002 4294967295
0.13154888 -0.10562792 0.74400002 4294967295
0.13320205 -0.10591187 0.74600005 4294967295
0.13450158 -0.10591187 0.74600005 4294967295
0.13580112 -0.10591187 0.74600005 4294967295
0.13710064 -0.10591187 0.74600005 4294967295
0.13840018 -0.10591187 0.74600005 4294967295
0.13969971 -0.10591187 0.74600005 4294967295
0.14099923 -0.10591187 0.74600005 4294967295
0.14229877 -0.10591187 0.74600005 4294967295
0.1437908 -0.10605384 0.74700004 4294967295
0.14509207 -0.10605384 0.74700004 4294967295
0.14639334 -0.10605384 0.74700004 4294967295
0.14769462 -0.10605384 0.74700004 4293848033
0.14899589 -0.10605384 0.74700004 4294960347
0.15029716 -0.10605384 0.74700004 4294963945
0.15159844 -0.10605384 0.74700004 4294967275
0.15269503 -0.10591187 0.74600005 4294967277
0.15399456 -0.10591187 0.74600005 4294967295
0.15529409 -0.10591187 0.74600005 4294967295
0.15659362 -0.10591187 0.74600005 4294967295
0.15746985 -0.10562792 0.74400002 4294967295
0.1585525 -0.10548595 0.74300003 4294967295
0.15984681 -0.10548595 0.74300003 4294967295
0.16114111 -0.10548595 0.74300003 4294967295
0.16243543 -0.10548595 0.74300003 4294967295
0.16372973 -0.10548595 0.74300003 4294243071
0.16502404 -0.10548595 0.74300003 4281347388
0.11240954 -0.10461234 0.74600005 4293432453
0.11370906 -0.10461234 0.74600005 4294965481
0.11470026 -0.10433187 0.74400002 4294967295
0.11599631 -0.10433187 0.74400002 4294967295
0.11729235 -0.10433187 0.74400002 4294967295
0.1185884 -0.10433187 0.74400002 4294967295
0.11988445 -0.10433187 0.74400002 4294967295
0.12101763 -0.10419164 0.74300003 4294967295
0.12231193 -0.10419164 0.74300003 4294967295
0.12360624 -0.10419164 0.74300003 4294967295
0.12490054 -0.10419164 0.74300003 4294967295
0.12636469 -0.10433187 0.74400002 4294967295
0.12766074 -0.10433187 0.74400002 4294967295
0.12895678 -0.10433187 0.74400002 4294967295
0.13025284 -0.10433187 0.74400002 4294967269
0.13154888 -0.10433187 0.74400002 4294967278
0.13284492 -0.10433187 0.74400002 4294967295
0.13414098 -0.10433187 0.74400002 4294967295
0.13543703 -0.10433187 0.74400002 4294967295
0.13673308 -0.10433187 0.74400002 4294967295
0.13802911 -0.10433187 0.74400002 4294967295
0.13932517 -0.10433187 0.74400002 4294967295
0.14062122 -0.10433187 0.74400002 4294967295
0.14191727 -0.10433187 0.74400002 4294967295
0.1435983 -0.10461234 0.74600005 4294967295
0.14489785 -0.10461234 0.74600005 4294967295
0.14619736 -0.10461234 0.74600005 4293978842
0.14749689 -0.10461234 0.74600005 4291149743
0.14879644 -0.10461234 0.74600005 4291609038
0.15009597 -0.10461234 0.74600005 4291214280
0.1513955 -0.10461234 0.74600005 4292922821
0.15269503 -0.10461234 0.74600005 4294967290
0.15399456 -0.10461234 0.74600005 4294967295
0.15487775 -0.10433187 0.74400002 4294967295
0.1561738 -0.10433187 0.74400002 4294967295
0.15746985 -0.10433187 0.74400002 4294967295
0.1585525 -0.10419164 0.74300003 4294967295
0.15984681 -0.10419164 0.74300003 4294967295
0.16114111 -0.10419164 0.74300003 4294967295
0.16243543 -0.10419164 0.74300003 4294967295
0.16372973 -0.10419164 0.74300003 4294967295
0.16502404 -0.10419164 0.74300003 4293847033
0.11240954 -0.10331281 0.74600005 4292833792
0.11340421 -0.10303583 0.74400002 4294964853
0.11454609 -0.10289734 0.74300003 4294967295
0.11584041 -0.10289734 0.74300003 4294967295
0.11713471 -0.10289734 0.74300003 4294967295
0.11811023 -0.10262036 0.74100006 4294967295
0.11940105 -0.10262036 0.74100006 4294967295
0.12101763 -0.10289734 0.74300003 4294967295
0.12198269 -0.10262036 0.74100006 4294967295
0.12327351 -0.10262036 0.74100006 4294967295
0.12456434 -0.10262036 0.74100006 4294967295
0.12619485 -0.10289734 0.74300003 4294967295
0.12748915 -0.10289734 0.74300003 4294967295
0.12878346 -0.10289734 0.74300003 4294046191
0.13007776 -0.10289734 0.74300003 4294959530
0.13137208 -0.10289734 0.74300003 4294963899
0.13284492 -0.10303583 0.74400002 4294967255
0.13396069 -0.10289734 0.74300003 4294967258
0.13525499 -0.10289734 0.74300003 4294967295
0.13654929 -0.10289734 0.74300003 4294967295
0.13784359 -0.10289734 0.74300003 4294967295
0.13913791 -0.10289734 0.74300003 4294967295
0.14043221 -0.10289734 0.74300003 4294967295
0.14172652 -0.10289734 0.74300003 4294967295
0.14302082 -0.10289734 0.74300003 4294967295
0.14431514 -0.10289734 0.74300003 4294967295
0.14580542 -0.10303583 0.74400002 4293979616
0.14710146 -0.10303583 0.74400002 4291545532
0.14839751 -0.10303583 0.74400002 4291613124
0.14969355 -0.10303583 0.74400002 4291086780
0.15078667 -0.10289734 0.74300003 4292464024
0.15208097 -0.10289734 0.74300003 4294967257
0.15337527 -0.10289734 0.74300003 4294967295
0.15466958 -0.10289734 0.74300003 4294967295
0.15596388 -0.10289734 0.74300003 4294967295
0.1572582 -0.10289734 0.74300003 4294967295
0.1585525 -0.10289734 0.74300003 4294967295
0.15984681 -0.10289734 0.74300003 4294967295
0.16070737 -0.10262036 0.74100006 4294967287
0.16199818 -0.10262036 0.74100006 4294967294
0.16372973 -0.10289734 0.74300003 4294967295
0.16502404 -0.10289734 0.74300003 4294967295
0.11240954 -0.10201328 0.74600005 4290914048
0.11340421 -0.10173978 0.74400002 4294948493
0.11454609 -0.10160303 0.74300003 4294967284
0.11552858 -0.10132954 0.74100006 4294967295
0.11681941 -0.10132954 0.74100006 4294967295
0.11811023 -0.10132954 0.74100006 4294967295
0.11940105 -0.10132954 0.74100006 4294967295
0.12069188 -0.10132954 0.74100006 4294967295
0.12198269 -0.10132954 0.74100006 4294967295
0.12327351 -0.10132954 0.74100006 4294967295
0.12456434 -0.10132954 0.74100006 4294967295
0.12619485 -0.10160303 0.74300003 4294967295
0.12748915 -0.10160303 0.74300003 4294967295
0.12878346 -0.10160303 0.74300003 4290887350
0.13007776 -0.10160303 0.74300003 4292585782
0.13137208 -0.10160303 0.74300003 4292585782
0.13266638 -0.10160303 0.74300003 4293046367
0.13396069 -0.10160303 0.74300003 4294962074
0.13525499 -0.10160303 0.74300003 4294967283
0.13654929 -0.10160303 0.74300003 4294967285
0.13784359 -0.10160303 0.74300003 4294967295
0.13913791 -0.10160303 0.74300003 4294967295
0.14043221 -0.10160303 0.74300003 4294967294
0.14172652 -0.10160303 0.74300003 4294967295
0.14263585 -0.10132954 0.74100006 4294967295
0.14392667 -0.10132954 0.74100006 4294967295
0.14521749 -0.10132954 0.74100006 4294967295
0.14650832 -0.10132954 0.74100006 4294967295
0.14779913 -0.10132954 0.74100006 4294967277
0.14908996 -0.10132954 0.74100006 4294900455
0.15038079 -0.10132954 0.74100006 4294966516
0.1516716 -0.10132954 0.74100006 4294967295
0.15296243 -0.10132954 0.74100006 4294967295
0.15425324 -0.10132954 0.74100006 4294967295
0.15554407 -0.10132954 0.74100006 4294967295
0.1568349 -0.10132954 0.74100006 4294967295
0.15812571 -0.10132954 0.74100006 4294967295
0.15941654 -0.10132954 0.74100006 4294967295
0.16070737 -0.10132954 0.74100006 4294967295
0.16199818 -0.10132954 0.74100006 4294967295
0.163289 -0.10132954 0.74100006 4294967295
0.16457982 -0.10132954 0.74100006 4294967294
0.16587065 -0.10132954 0.74100006 4294966522
0.11210816 -0.10044373 0.74400002 4291441408
0.11325179 -0.10030873 0.74300003 4294940241
0.11423776 -0.10003872 0.74100006 4294960328
0.11552858 -0.10003872 0.74100006 4294967279
0.11681941 -0.10003872 0.74100006 4294967295
0.11779144 -0.099768706 0.73900002 4294967295
0.11907879 -0.099768706 0.73900002 4294967295
0.12036612 -0.099768706 0.73900002 4294967295
0.12165345 -0.099768706 0.73900002 4294967295
0.12294079 -0.099768706 0.73900002 4294967295
0.12422813 -0.099768706 0.73900002 4294967295
0.12585516 -0.10003872 0.74100006 4294967295
0.12714598 -0.10003872 0.74100006 4294967295
0.12878346 -0.10030873 0.74300003 4291939266
0.13007776 -0.10030873 0.74300003 4293962381
0.13137208 -0.10030873 0.74300003 4293764746
0.13266638 -0.10030873 0.74300003 4292583168
0.13396069 -0.10030873 0.74300003 4294967119
0.13525499 -0.10030873 0.74300003 4294967295
0.13618174 -0.10003872 0.74100006 4294967294
0.13747256 -0.10003872 0.74100006 4294967295
0.13876338 -0.10003872 0.74100006 4294967295
0.14005421 -0.10003872 0.74100006 4294967295
0.14134502 -0.10003872 0.74100006 4294967295
0.14263585 -0.10003872 0.74100006 4294967295
0.14353821 -0.099768706 0.73900002 4294967295
0.14482555 -0.099768706 0.73900002 4294967295
0.14611287 -0.099768706 0.73900002 4294967295
0.14740022 -0.099768706 0.73900002 4294967295
0.14868754 -0.099768706 0.73900002 4294967295
0.1499749 -0.099768706 0.73900002 4294967295
0.1516716 -0.10003872 0.74100006 4294967295
0.15254956 -0.099768706 0.73900002 4294967295
0.15383691 -0.099768706 0.73900002 4294967295
0.15512423 -0.099768706 0.73900002 4294967294
0.15641159 -0.099768706 0.73900002 4294967295
0.15812571 -0.10003872 0.74100006 4294967295
0.15941654 -0.10003872 0.74100006 4294967295
0.1602736 -0.099768706 0.73900002 4294967294
0.16156092 -0.099768706 0.73900002 4294967295
0.16284828 -0.099768706 0.73900002 4294967295
0.16413561 -0.099768706 0.73900002 4294967295
0.16542295 -0.099768706 0.73900002 4294966780
0.11210816 -0.099147677 0.74400002 4291776044
0.11325179 -0.099014416 0.74300003 4292170802
0.11423776 -0.098747894 0.74100006 4293104520
0.11552858 -0.098747894 0.74100006 4294964713
0.1165041 -0.098481365 0.73900002 4294967295
0.11779144 -0.098481365 0.73900002 4294967295
0.11907879 -0.098481365 0.73900002 4294967295
0.12020324 -0.098348111 0.73800004 4294967295
0.12148884 -0.098348111 0.73800004 4294967295
0.12277443 -0.098348111 0.73800004 4294967295
0.12406003 -0.098348111 0.73800004 4294967295
0.12585516 -0.098747894 0.74100006 4294967295
0.12714598 -0.098747894 0.74100006 4294967295
0.1284368 -0.098747894 0.74100006 4294967295
0.12972763 -0.098747894 0.74100006 4294967295
0.13101844 -0.098747894 0.74100006 4294440438
0.13230927 -0.098747894 0.74100006 4294963685
0.13360009 -0.098747894 0.74100006 4294967295
0.13489093 -0.098747894 0.74100006 4294967295
0.13581418 -0.098481365 0.73900002 4294967295
0.1371015 -0.098481365 0.73900002 4294967295
0.13838886 -0.098481365 0.73900002 4294967295
0.13967618 -0.098481365 0.73900002 4294967295
0.14096352 -0.098481365 0.73900002 4294967295
0.14205837 -0.098348111 0.73800004 4294967295
0.14334397 -0.098348111 0.73800004 4294967295
0.14462957 -0.098348111 0.73800004 4294967295
0.14591515 -0.098348111 0.73800004 4294967295
0.14720076 -0.098348111 0.73800004 4294967295
0.14848636 -0.098348111 0.73800004 4294967295
0.14977196 -0.098348111 0.73800004 4294967295
0.15126224 -0.098481365 0.73900002 4294967295
0.15254956 -0.098481365 0.73900002 4294967295
0.15383691 -0.098481365 0.73900002 4294967295
0.15512423 -0.098481365 0.73900002 4294967295
0.15641159 -0.098481365 0.73900002 4294967295
0.15769891 -0.098481365 0.73900002 4294967295
0.15898626 -0.098481365 0.73900002 4294967295
0.1602736 -0.098481365 0.73900002 4294967295
0.16156092 -0.098481365 0.73900002 4294967295
0.16284828 -0.098481365 0.73900002 4294967295
0.1639135 -0.098348111 0.73800004 4294967295
0.16519912 -0.098348111 0.73800004 4294967293
0.1664847 -0.098348111 0.73800004 4294964463
0.11325179 -0.097720116 0.74300003 4289212443
0.11423776 -0.097457074 0.74100006 4292042240
0.11552858 -0.097457074 0.74100006 4294963072
0.1165041 -0.097194031 0.73900002 4294967295
0.11779144 -0.097194031 0.73900002 4294967295
0.11891765 -0.097062506 0.73800004 4294967295
0.12020324 -0.097062506 0.73800004 4294967295
0.12148884 -0.097062506 0.73800004 4294967295
0.12277443 -0.097062506 0.73800004 4294967295
0.12406003 -0.097062506 0.73800004 4294967295
0.12551548 -0.097194031 0.73900002 4294967295
0.1268028 -0.097194031 0.73900002 4294967295
0.12809014 -0.097194031 0.73900002 4294967295
0.12937748 -0.097194031 0.73900002 4294967295
0.13066481 -0.097194031 0.73900002 4294967295
0.13195217 -0.097194031 0.73900002 4294967287
0.13323949 -0.097194031 0.73900002 4294967295
0.13452683 -0.097194031 0.73900002 4294967295
0.13563038 -0.097062506 0.73800004 4294967295
0.13691598 -0.097062506 0.73800004 4294967295
0.13820159 -0.097062506 0.73800004 4294967295
0.13948719 -0.097062506 0.73800004 4294967295
0.14077277 -0.097062506 0.73800004 4294967295
0.14205837 -0.097062506 0.73800004 4294967295
0.14334397 -0.097062506 0.73800004 4294967295
0.14462957 -0.097062506 0.73800004 4294967295
0.14551973 -0.09679947 0.73600006 4294967295
0.14680184 -0.09679947 0.73600006 4294967295
0.14808397 -0.09679947 0.73600006 4294967295
0.14936607 -0.09679947 0.73600006 4294967295
0.15105754 -0.097062506 0.73800004 4294967295
0.15234314 -0.097062506 0.73800004 4294967295
0.15362874 -0.097062506 0.73800004 4294967295
0.15491433 -0.097062506 0.73800004 4294967295
0.15619993 -0.097062506 0.73800004 4294967295
0.15748553 -0.097062506 0.73800004 4294967294
0.15877113 -0.097062506 0.73800004 4294967295
0.16005673 -0.097062506 0.73800004 4294967295
0.16134231 -0.097062506 0.73800004 4294967295
0.16262791 -0.097062506 0.73800004 4294967295
0.1639135 -0.097062506 0.73800004 4294967295
0.16519912 -0.097062506 0.73800004 4294967295
0.16603354 -0.09679947 0.73600006 4294966007
0.16731563 -0.09679947 0.73600006 4294964207
0.11294693 -0.096166253 0.74100006 4287043328
0.11423776 -0.096166253 0.74100006 4289527808
0.11521676 -0.09590669 0.73900002 4294946465
0.1165041 -0.09590669 0.73900002 4294967268
0.11763204 -0.095776916 0.73800004 4294967278
0.11891765 -0.095776916 0.73800004 4294967295
0.11987749 -0.09551736 0.73600006 4294967295
0.1211596 -0.09551736 0.73600006 4294967295
0.12244172 -0.09551736 0.73600006 4294967295
0.12406003 -0.095776916 0.73800004 4294967295
0.12534562 -0.095776916 0.73800004 4294967295
0.1268028 -0.09590669 0.73900002 4294967295
0.12791681 -0.095776916 0.73800004 4294967295
0.12920241 -0.095776916 0.73800004 4294967295
0.13048801 -0.095776916 0.73800004 4294967295
0.13177361 -0.095776916 0.73800004 4294967295
0.1330592 -0.095776916 0.73800004 4294967295
0.1343448 -0.095776916 0.73800004 4294967295
0.13526285 -0.09551736 0.73600006 4294967295
0.13654494 -0.09551736 0.73600006 4294967295
0.13782707 -0.09551736 0.73600006 4294967295
0.13910916 -0.09551736 0.73600006 4294967295
0.14039129 -0.09551736 0.73600006 4294967295
0.14167339 -0.09551736 0.73600006 4294967295
0.14295551 -0.09551736 0.73600006 4294967295
0.14423761 -0.09551736 0.73600006 4294967295
0.14532201 -0.095387571 0.73500001 4294967295
0.14660238 -0.095387571 0.73500001 4294967295
0.14808397 -0.09551736 0.73600006 4294967295
0.14936607 -0.09551736 0.73600006 4294967295
0.15064819 -0.09551736 0.73600006 4294967295
0.15193029 -0.09551736 0.73600006 4294967295
0.15321241 -0.09551736 0.73600006 4294967295
0.15449451 -0.09551736 0.73600006 4294967295
0.15577663 -0.09551736 0.73600006 4294967295
0.15705873 -0.09551736 0.73600006 4294967295
0.15834086 -0.09551736 0.73600006 4294967295
0.15962297 -0.09551736 0.73600006 4294967295
0.16090509 -0.09551736 0.73600006 4294967295
0.16218719 -0.09551736 0.73600006 4294967295
0.16346931 -0.09551736 0.73600006 4294967295
0.16475141 -0.09551736 0.73600006 4294967295
0.16603354 -0.09551736 0.73600006 4294967295
0.16731563 -0.09551736 0.73600006 4294967032
0.11294693 -0.094875433 0.74100006 4287569921
0.11392943 -0.094619349 0.73900002 4290251520
0.11521676 -0.094619349 0.73900002 4294939511
0.11634645 -0.094491318 0.73800004 4294961091
0.11731327 -0.094235249 0.73600006 4294967269
0.11859537 -0.094235249 0.73600006 4294967295
0.11971461 -0.094107203 0.73500001 4294967295
0.12099498 -0.094107203 0.73500001 4294967295
0.12227535 -0.094107203 0.73500001 4294967295
0.12372382 -0.094235249 0.73600006 4294967295
0.12500595 -0.094235249 0.73600006 4294967295
0.12628804 -0.094235249 0.73600006 4294967295
0.12757017 -0.094235249 0.73600006 4294967295
0.12885226 -0.094235249 0.73600006 4294967295
0.13013439 -0.094235249 0.73600006 4294967295
0.1314165 -0.094235249 0.73600006 4294967295
0.13269863 -0.094235249 0.73600006 4294967295
0.13398072 -0.094235249 0.73600006 4294967295
0.13507906 -0.094107203 0.73500001 4294967295
0.13635942 -0.094107203 0.73500001 4294967295
0.13763979 -0.094107203 0.73500001 4294967295
0.13892016 -0.094107203 0.73500001 4294967295
0.14020053 -0.094107203 0.73500001 4294967295
0.14148089 -0.094107203 0.73500001 4294967295
0.14276126 -0.094107203 0.73500001 4294967295
0.14404163 -0.094107203 0.73500001 4294967295
0.14532201 -0.094107203 0.73500001 4294967295
0.14660238 -0.094107203 0.73500001 4294967295
0.14788274 -0.094107203 0.73500001 4294967295
0.14916311 -0.094107203 0.73500001 4294967295
0.15044349 -0.094107203 0.73500001 4294967295
0.15172386 -0.094107203 0.73500001 4294967295
0.15300423 -0.094107203 0.73500001 4294967295
0.1542846 -0.094107203 0.73500001 4294967295
0.15556498 -0.094107203 0.73500001 4294967295
0.15684533 -0.094107203 0.73500001 4294967295
0.1581257 -0.094107203 0.73500001 4294967295
0.15940608 -0.094107203 0.73500001 4294967295
0.16068645 -0.094107203 0.73500001 4294967295
0.16196682 -0.094107203 0.73500001 4294967295
0.16324718 -0.094107203 0.73500001 4294967295
0.16475141 -0.094235249 0.73600006 4294967295
0.16603354 -0.094235249 0.73600006 4294964985
0.16731563 -0.094235249 0.73600006 4294173613
0.11392943 -0.093332015 0.73900002 4290189568
0.11506085 -0.09320572 0.73800004 4294400303
0.11634645 -0.09320572 0.73800004 4294421393
0.11731327 -0.092953131 0.73600006 4294967268
0.11843424 -0.092826836 0.73500001 4294967295
0.11938886 -0.092574246 0.73300004 4294967295
0.12066574 -0.092574246 0.73300004 4294967295
0.12194262 -0.092574246 0.73300004 4294967295
0.12321951 -0.092574246 0.73300004 4294967295
0.12483608 -0.092826836 0.73500001 4294967295
0.12611645 -0.092826836 0.73500001 4294967295
0.12739682 -0.092826836 0.73500001 4294967295
0.12867719 -0.092826836 0.73500001 4294967295
0.12995757 -0.092826836 0.73500001 4294967295
0.13123794 -0.092826836 0.73500001 4294967295
0.13251831 -0.092826836 0.73500001 4294967295
0.13379867 -0.092826836 0.73500001 4294967295
0.13471149 -0.092574246 0.73300004 4294967295
0.13598838 -0.092574246 0.73300004 4294967295
0.13726525 -0.092574246 0.73300004 4294967295
0.13854215 -0.092574246 0.73300004 4294967295
0.13981903 -0.092574246 0.73300004 4294967295
0.14109592 -0.092574246 0.73300004 4294967295
0.14237282 -0.092574246 0.73300004 4294967295
0.14364968 -0.092574246 0.73300004 4294967295
0.14492658 -0.092574246 0.73300004 4294967295
0.14620346 -0.092574246 0.73300004 4294967295
0.14748035 -0.092574246 0.73300004 4294967295
0.14875725 -0.092574246 0.73300004 4294967295
0.15044349 -0.092826836 0.73500001 4294967295
0.15172386 -0.092826836 0.73500001 4294967269
0.15258789 -0.092574246 0.73300004 4294701266
0.15386479 -0.092574246 0.73300004 4294108893
0.15514167 -0.092574246 0.73300004 4293121998
0.15684533 -0.092826836 0.73500001 4292266689
0.1581257 -0.092826836 0.73500001 4291542965
0.15940608 -0.092826836 0.73500001 4290228148
0.16068645 -0.092826836 0.73500001 4288846495
0.16196682 -0.092826836 0.73500001 4287398797
0.16324718 -0.092826836 0.73500001 4285688435
0.16475141 -0.092953131 0.73600006 4284174942
0.16603354 -0.092953131 0.73600006 4279240724
0.16731563 -0.092953131 0.73600006 4278190080
0.16859776 -0.092953131 0.73600006 4290556850
0.11392943 -0.092044674 0.73900002 4290126848
0.11506085 -0.091920123 0.73800004 4289666304
0.11603115 -0.09167102 0.73600006 4293361920
0.11715387 -0.091546461 0.73500001 4294967163
0.11811198 -0.091297358 0.73300004 4294967295
0.11938886 -0.091297358 0.73300004 4294967295
0.12066574 -0.091297358 0.73300004 4294967295
0.1216099 -0.091048248 0.73100001 4294967295
0.1228833 -0.091048248 0.73100001 4294967295
0.12483608 -0.091546461 0.73500001 4294967295
0.12611645 -0.091546461 0.73500001 4294967295
0.12739682 -0.091546461 0.73500001 4294967295
0.12832706 -0.091297358 0.73300004 4294967295
0.12960395 -0.091297358 0.73300004 4294967295
0.13088083 -0.091297358 0.73300004 4294967295
0.13179712 -0.091048248 0.73100001 4294967295
0.13307053 -0.091048248 0.73100001 4294967295
0.13434392 -0.091048248 0.73100001 4294967295
0.13561733 -0.091048248 0.73100001 4294967295
0.13689072 -0.091048248 0.73100001 4294967295
0.13816412 -0.091048248 0.73100001 4294967295
0.13943753 -0.091048248 0.73100001 4294967295
0.14051844 -0.090923697 0.73000002 4294967295
0.14179011 -0.090923697 0.73000002 4294967295
0.14325774 -0.091048248 0.73100001 4294967295
0.14453113 -0.091048248 0.73100001 4294967295
0.14580454 -0.091048248 0.73100001 4294967295
0.14707795 -0.091048248 0.73100001 4294967295
0.14835134 -0.091048248 0.73100001 4294967295
0.14962475 -0.091048248 0.73100001 4294767863
0.15089814 -0.091048248 0.73100001 4292927448
0.15217155 -0.091048248 0.73100001 4291480002
0.15344496 -0.091048248 0.73100001 4290164402
0.15514167 -0.091297358 0.73300004 4289506728
0.15684533 -0.091546461 0.73500001 4288454801
0.1581257 -0.091546461 0.73500001 4286481268
0.15940608 -0.091546461 0.73500001 4283789160
0.16068645 -0.091546461 0.73500001 4279644202
0.16196682 -0.091546461 0.73500001 4278657304
0.16324718 -0.091546461 0.73500001 4278190080
0.16475141 -0.09167102 0.73600006 4278190080
0.16603354 -0.09167102 0.73600006 4278190080
0.16731563 -0.09167102 0.73600006 4278191872
0.16859776 -0.09167102 0.73600006 4290763455
0.11474904 -0.090388909 0.73600006 4288090368
0.11587349 -0.090266094 0.73500001 4289924889
0.11715387 -0.090266094 0.73500001 4294950342
0.11811198 -0.09002047 0.73300004 4294967270
0.11938886 -0.09002047 0.73300004 4294967274
0.1203365 -0.089774847 0.73100001 4294967295
0.12144355 -0.089652039 0.73000002 4294967295
0.1227152 -0.089652039 0.73000002 4294967295
0.12483608 -0.090266094 0.73500001 4294967295
0.12577328 -0.09002047 0.73300004 4294967295
0.12705018 -0.09002047 0.73300004 4294967295
0.12832706 -0.09002047 0.73300004 4294967295
0.12925032 -0.089774847 0.73100001 4294967295
0.13052371 -0.089774847 0.73100001 4294967295
0.13161682 -0.089652039 0.73000002 4294967295
0.13288848 -0.089652039 0.73000002 4294967287
0.13416013 -0.089652039 0.73000002 4294572507
0.1354318 -0.089652039 0.73000002 4294833899
0.13670346 -0.089652039 0.73000002 4294109919
0.13797513 -0.089652039 0.73000002 4293187804
0.13924679 -0.089652039 0.73000002 4292266702
0.14051844 -0.089652039 0.73000002 4291148991
0.14179011 -0.089652039 0.73000002 4290162096
0.14306176 -0.089652039 0.73000002 4289305515
0.14433342 -0.089652039 0.73000002 4288187034
0.14560507 -0.089652039 0.73000002 4286607739
0.14707795 -0.089774847 0.73100001 4284765535
0.14835134 -0.089774847 0.73100001 4282859348
0.14962475 -0.089774847 0.73100001 4280096042
0.15089814 -0.089774847 0.73100001 4278190080
0.15217155 -0.089774847 0.73100001 4278190080
0.15344496 -0.089774847 0.73100001 4278190080
0.15556498 -0.090266094 0.73500001 4278190080
0.15684533 -0.090266094 0.73500001 4278190080
0.1581257 -0.090266094 0.73500001 4278190848
0.15962297 -0.090388909 0.73600006 4278193152
0.16090509 -0.090388909 0.73600006 4278194432
0.16218719 -0.090388909 0.73600006 4278196480
0.16346931 -0.090388909 0.73600006 4278197760
0.16475141 -0.090388909 0.73600006 4278196992
0.16603354 -0.090388909 0.73600006 4278191104
0.16731563 -0.090388909 0.73600006 4278787391
0.16859776 -0.090388909 0.73600006 4293261823
0.11474904 -0.089106798 0.73600006 4287630336
0.11587349 -0.088985719 0.73500001 4290253568
0.11683508 -0.08874359 0.73300004 4294947982
0.11778969 -0.088501446 0.73100001 4294966759
0.1190631 -0.088501446 0.73100001 4294967291
0.12017188 -0.088380374 0.73000002 4294967295
0.12144355 -0.088380374 0.73000002 4294967295
0.1227152 -0.088380374 0.73000002 4294967295
0.1241567 -0.088501446 0.73100001 4294967295
0.12543011 -0.088501446 0.73100001 4294967295
0.1267035 -0.088501446 0.73100001 4294967295
0.12780185 -0.088380374 0.73000002 4294967295
0.1290735 -0.088380374 0.73000002 4294967295
0.13034517 -0.088380374 0.73000002 4294967295
0.13161682 -0.088380374 0.73000002 4294967295
0.13288848 -0.088380374 0.73000002 4294308595
0.13416013 -0.088380374 0.73000002 4292532441
0.1354318 -0.088380374 0.73000002 4291086791
0.13670346 -0.088380374 0.73000002 4290560447
0.13797513 -0.088380374 0.73000002 4289572783
0.13924679 -0.088380374 0.73000002 4288717730
0.14051844 -0.088380374 0.73000002 4285762951
0.14179011 -0.088380374 0.73000002 4282802265
0.14306176 -0.088380374 0.73000002 4282929236
0.14433342 -0.088380374 0.73000002 4278191112
0.14560507 -0.088380374 0.73000002 4278190080
0.14707795 -0.088501446 0.73100001 4278190080
0.14835134 -0.088501446 0.73100001 4278190080
0.14962475 -0.088501446 0.73100001 4278190080
0.15089814 -0.088501446 0.73100001 4278190080
0.15258789 -0.08874359 0.73300004 4278190080
0.15386479 -0.08874359 0.73300004 4278190080
0.15556498 -0.088985719 0.73500001 4278190080
0.15684533 -0.088985719 0.73500001 4278192128
0.1581257 -0.088985719 0.73500001 4278523136
0.15962297 -0.089106798 0.73600006 4279312640
0.16090509 -0.089106798 0.73600006 4279641600
0.16218719 -0.089106798 0.73600006 4280298259
0.16346931 -0.089106798 0.73600006 4280429588
0.16475141 -0.089106798 0.73600006 4278263808
0.16603354 -0.089106798 0.73600006 4278190080
0.1677703 -0.089348935 0.73800004 4282988131
0.16905589 -0.089348935 0.73800004 4294965759
0.11474904 -0.087824687 0.73600006 4288750877
0.11587349 -0.087705351 0.73500001 4289929984
0.11683508 -0.087466702 0.73300004 4294930490
0.11778969 -0.087228045 0.73100001 4294958362
0.1190631 -0.087228045 0.73100001 4294965043
0.11984265 -0.086870067 0.72800004 4294963678
0.12111082 -0.086870067 0.72800004 4293317312
0.122379 -0.086870067 0.72800004 4291807166
0.12364718 -0.086870067 0.72800004 4291017651
0.12491535 -0.086870067 0.72800004 4289899689
0.12618352 -0.086870067 0.72800004 4288846745
0.12780185 -0.087108716 0.73000002 4287397764
0.1290735 -0.087108716 0.73000002 4285555816
0.13034517 -0.087108716 0.73000002 4283383895
0.13161682 -0.087108716 0.73000002 4280291625
0.13288848 -0.087108716 0.73000002 4278190354
0.13416013 -0.087108716 0.73000002 4278190086
0.1354318 -0.087108716 0.73000002 4278190080
0.13670346 -0.087108716 0.73000002 4278190080
0.13797513 -0.087108716 0.73000002 4278190080
0.13924679 -0.087108716 0.73000002 4278190080
0.14051844 -0.087108716 0.73000002 4278191104
0.14179011 -0.087108716 0.73000002 4278192128
0.14306176 -0.087108716 0.73000002 4278194688
0.14433342 -0.087108716 0.73000002 4278195968
0.14560507 -0.087108716 0.73000002 4278198784
0.14707795 -0.087228045 0.73100001 4278200320
0.14835134 -0.087228045 0.73100001 4279118346
0.14962475 -0.087228045 0.73100001 4279776275
0.15131101 -0.087466702 0.73300004 4280694314
0.15258789 -0.087466702 0.73300004 4280760107
0.15386479 -0.087466702 0.73300004 4280694816
0.15556498 -0.087705351 0.73500001 4280760609
0.15684533 -0.087705351 0.73500001 4280955934
0.1581257 -0.087705351 0.73500001 4280758812
0.15962297 -0.087824687 0.73600006 4280758812
0.16090509 -0.087824687 0.73600006 4281021728
0.16218719 -0.087824687 0.73600006 4281021732
0.16346931 -0.087824687 0.73600006 4280429338
0.16475141 -0.087824687 0.73600006 4278197513
0.1664847 -0.088063337 0.73800004 4278201882
0.1677703 -0.088063337 0.73800004 4286280093
0.16905589 -0.088063337 0.73800004 4294967295
0.11459313 -0.086424977 0.73500001 4289543210
0.11524289 -0.085954636 0.73100001 4289737728
0.11651628 -0.085954636 0.73100001 4294014260
0.11762856 -0.085837059 0.73000002 4290939229
0.11857446 -0.085601889 0.72800004 4293965963
0.11967804 -0.085484304 0.72700006 4291543747
0.12094446 -0.085484304 0.72700006 4290491058
0.122379 -0.085601889 0.72800004 4286815375
0.12364718 -0.085601889 0.72800004 4283328346
0.12491535 -0.085601889 0.72800004 4283191879
0.12618352 -0.085601889 0.72800004 4278191616
0.12780185 -0.085837059 0.73000002 4278190080
0.1290735 -0.085837059 0.73000002 4278190080
0.13034517 -0.085837059 0.73000002 4278190080
0.13161682 -0.085837059 0.73000002 4278190080
0.13288848 -0.085837059 0.73000002 4278190080
0.13416013 -0.085837059 0.73000002 4278190080
0.1354318 -0.085837059 0.73000002 4278190080
0.13670346 -0.085837059 0.73000002 4278190080
0.13797513 -0.085837059 0.73000002 4278190080
0.13924679 -0.085837059 0.73000002 4278191360
0.14051844 -0.085837059 0.73000002 4278324992
0.14179011 -0.085837059 0.73000002 4279048960
0.14306176 -0.085837059 0.73000002 4279706374
0.14433342 -0.085837059 0.73000002 4280232718
0.14580454 -0.085954636 0.73100001 4280758812
0.14707795 -0.085954636 0.73100001 4280890141
0.14835134 -0.085954636 0.73100001 4280890141
0.14962475 -0.085954636 0.73100001 4280955934
0.15131101 -0.086189814 0.73300004 4281087525
0.15258789 -0.086189814 0.73300004 4281153318
0.15386479 -0.086189814 0.73300004 4280694816
0.15556498 -0.086424977 0.73500001 4280694816
0.15684533 -0.086424977 0.73500001 4281021728
0.1581257 -0.086424977 0.73500001 4281021728
0.15962297 -0.086542569 0.73600006 4280955934
0.16090509 -0.086542569 0.73600006 4281087521
0.16262791 -0.086777739 0.73800004 4281021732
0.1639135 -0.086777739 0.73800004 4279574030
0.16519912 -0.086777739 0.73800004 4278195200
0.1664847 -0.086777739 0.73800004 4282016332
0.1677703 -0.086777739 0.73800004 4289173178
0.16905589 -0.086777739 0.73800004 4294967295
0.11459313 -0.085144617 0.73500001 4290202643
0.11524289 -0.084681235 0.73100001 4289611557
0.11651628 -0.084681235 0.73100001 4287176960
0.11762856 -0.084565401 0.73000002 4285202432
0.11857446 -0.08433371 0.72800004 4283170816
0.11967804 -0.084217876 0.72700006 4278190080
0.12094446 -0.084217876 0.72700006 4278190080
0.122379 -0.08433371 0.72800004 4278190080
0.12364718 -0.08433371 0.72800004 4278190080
0.12491535 -0.08433371 0.72800004 4278191616
0.12618352 -0.08433371 0.72800004 4278192640
0.1274517 -0.08433371 0.72800004 4278196992
0.12871988 -0.08433371 0.72800004 4278200070
0.13034517 -0.084565401 0.73000002 4279118346
0.13161682 -0.084565401 0.73000002 4279776275
0.13288848 -0.084565401 0.73000002 4280300056
0.13416013 -0.084565401 0.73000002 4280300056
0.1354318 -0.084565401 0.73000002 4280562977
0.13670346 -0.084565401 0.73000002 4280694564
0.13797513 -0.084565401 0.73000002 4281021728
0.13924679 -0.084565401 0.73000002 4281021728
0.14051844 -0.084565401 0.73000002 4281087521
0.14179011 -0.084565401 0.73000002 4281087521
0.14306176 -0.084565401 0.73000002 4281021728
0.14453113 -0.084681235 0.73100001 4281021728
0.14580454 -0.084681235 0.73100001 4281087521
0.14707795 -0.084681235 0.73100001 4281021728
