# .PCD v0.7 - Point Cloud Data file format
VERSION 0.7
FIELDS x y z
SIZE 4 4 4
TYPE F F F
COUNT 1 1 1
WIDTH 1321
HEIGHT 1
VIEWPOINT 0 0 0 1 0 0 0
POINTS 1321
DATA ascii
0.090014517 -0.0033981828 0.69749427
0.090530634 -0.0041756807 0.69640583
0.090547666 -0.0044945199 0.69603622
0.082609266 -0.016981492 0.68495774
0.082689725 -0.016964868 0.68494487
0.08277595 -0.016947052 0.68493116
0.082868367 -0.016927958 0.68491638
0.082967423 -0.016907493 0.68490064
0.083073579 -0.016885558 0.68488371
0.083187357 -0.01686205 0.68486553
0.083309308 -0.016836854 0.6848461
0.083439998 -0.016809851 0.68482524
0.083580054 -0.016780915 0.68480295
0.083730131 -0.016749905 0.68477899
0.083890922 -0.016716685 0.68475336
0.08406312 -0.016681105 0.68472588
0.08424747 -0.016643018 0.6846965
0.084444702 -0.016602267 0.68466508
0.084655538 -0.016558705 0.68463147
0.084880702 -0.016512183 0.68459553
0.085120879 -0.016462559 0.68455726
0.085376717 -0.016409701 0.68451649
0.085648797 -0.016353484 0.6844731
0.085937656 -0.016293803 0.68442702
0.086243756 -0.016230559 0.68437821
0.086567469 -0.016163673 0.68432659
0.0869091 -0.016093085 0.68427217
0.087268859 -0.016018737 0.68421477
0.087646879 -0.015940577 0.68415457
0.088043176 -0.015858507 0.68409163
0.088457584 -0.01577224 0.6840263
0.088889532 -0.015680853 0.68395984
0.089598395 -0.015517912 0.68386555
0.090295613 -0.015274618 0.68386734
0.090770081 -0.014292452 0.68479788
0.090771928 -0.013969712 0.68516445
0.080375351 -0.017393311 0.6853705
0.080295555 -0.0174098 0.6853832
0.08021003 -0.017427469 0.68539685
0.080118366 -0.017446408 0.68541145
0.08002013 -0.017466705 0.68542713
0.079914831 -0.017488461 0.68544394
0.079801984 -0.017511778 0.68546194
0.079681039 -0.017536767 0.68548119
0.079551414 -0.017563548 0.68550187
0.079412498 -0.017592249 0.68552405
0.079263642 -0.017623005 0.68554777
0.07910417 -0.017655954 0.68557316
0.078933381 -0.017691242 0.6856004
0.078750536 -0.01772902 0.68562955
0.078554921 -0.017769437 0.68566078
0.078345805 -0.017812643 0.6856941
0.078122474 -0.017858785 0.68572968
0.077884264 -0.017908003 0.68576771
0.07763052 -0.017960429 0.68580812
0.07736066 -0.018016186 0.68585116
0.077074163 -0.01807538 0.68589687
0.076770566 -0.018138107 0.68594527
0.076449499 -0.018204443 0.68599647
0.076110661 -0.018274447 0.68605047
0.075753838 -0.018348156 0.6861074
0.075378902 -0.018425567 0.68616724
0.074985839 -0.01850659 0.68623012
0.074574791 -0.018590877 0.6862964
0.074146271 -0.018677292 0.68636715
0.073442422 -0.01880637 0.68649799
0.072746277 -0.018851774 0.68672097
0.07223437 -0.018080631 0.68780059
0.072217479 -0.017764397 0.68816715
0.080091007 -0.0053794691 0.69915509
0.080011211 -0.0053959563 0.69916785
0.079925686 -0.0054136268 0.69918144
0.079834022 -0.0054325657 0.6991961
0.079735786 -0.0054528639 0.69921172
0.079630487 -0.0054746186 0.69922853
0.07951764 -0.0054979348 0.69924653
0.079396695 -0.005522924 0.69926584
0.07926707 -0.0055497061 0.69928646
0.079128154 -0.0055784076 0.69930863
0.078979298 -0.0056091626 0.69933236
0.078819826 -0.0056421114 0.69935781
0.078649037 -0.0056774002 0.69938505
0.078466192 -0.0057151774 0.69941419
0.078270577 -0.0057555945 0.69944537
0.078061461 -0.0057988008 0.69947869
0.077838138 -0.0058449428 0.69951433
0.07759992 -0.0058941608 0.6995523
0.077346176 -0.0059465873 0.69959277
0.077076316 -0.0060023437 0.6996358
0.076789819 -0.0060615381 0.69968146
0.076486222 -0.0061242655 0.69972986
0.076165155 -0.0061906027 0.69978106
0.075826317 -0.0062606162 0.69983506
0.075469494 -0.006334356 0.69989192
0.075094566 -0.0064118765 0.69995165
0.07470151 -0.006493276 0.70001411
0.074290484 -0.0065788394 0.7000789
0.073862068 -0.0066694785 0.70014483
0.073158994 -0.0068310881 0.70023835
0.072467476 -0.0070723938 0.70023656
0.071996883 -0.0080465339 0.69931364
0.07199505 -0.0083666369 0.69895005
0.082314588 -0.0049200482 0.69880056
0.082394391 -0.004903561 0.69878787
0.082479917 -0.0048858905 0.69877422
0.082571574 -0.0048669521 0.69875962
0.082669817 -0.0048466539 0.69874394
0.082775109 -0.0048248991 0.69872713
0.082887962 -0.004801583 0.69870913
0.083008908 -0.0047765933 0.69868988
0.083138533 -0.0047498117 0.6986692
0.083277449 -0.0047211102 0.69864702
0.083426297 -0.0046903552 0.6986233
0.083585769 -0.0046574064 0.69859791
0.083756566 -0.0046221176 0.69857067
0.083939411 -0.0045843404 0.69854152
0.084135026 -0.0045439233 0.69851029
0.084344141 -0.0045007169 0.69847697
0.084567465 -0.004454575 0.69844139
0.084805682 -0.0044053569 0.69840336
0.085059427 -0.0043529305 0.69836295
0.085329287 -0.004297174 0.69831991
0.085615784 -0.0042379797 0.6982742
0.085919373 -0.0041752537 0.6982258
0.086240448 -0.0041089174 0.6981746
0.086579286 -0.0040389136 0.69812059
0.086936109 -0.0039652046 0.69806367
0.087311044 -0.003887793 0.69800383
0.087704107 -0.0038067703 0.69794095
0.088115156 -0.0037224833 0.69787467
0.088543676 -0.003636067 0.69780391
0.089247517 -0.0035069895 0.69767308
0.08994367 -0.0034615854 0.6974501
0.090455569 -0.0042327293 0.69637048
0.090472467 -0.0045489632 0.69600391
0.082598932 -0.01693389 0.68501598
0.082678735 -0.016917404 0.68500322
0.08276426 -0.016899733 0.68498963
0.082855918 -0.016880793 0.68497497
0.082954161 -0.016860496 0.68495935
0.083059452 -0.016838741 0.68494254
0.083172306 -0.016815426 0.68492454
0.083293252 -0.016790437 0.68490529
0.083422877 -0.016763654 0.68488461
0.083561793 -0.016734952 0.68486243
0.083710641 -0.016704198 0.68483871
0.083870113 -0.016671248 0.68481326
0.08404091 -0.01663596 0.68478608
0.084223755 -0.016598182 0.68475688
0.08441937 -0.016557766 0.6847257
0.084628485 -0.01651456 0.68469238
0.084851809 -0.016468417 0.68465674
0.085090026 -0.016419198 0.68461877
0.085343771 -0.016366772 0.6845783
0.085613623 -0.016311016 0.68453526
0.085900128 -0.016251821 0.68448961
0.086203717 -0.016189095 0.68444121
0.086524785 -0.016122757 0.68439001
0.08686363 -0.016052743 0.68433601
0.087220453 -0.015979003 0.68427914
0.087595381 -0.015901484 0.68421942
0.087988436 -0.015820084 0.68415695
0.088399455 -0.01573452 0.68409216
0.088827878 -0.015643882 0.68402624
0.089530952 -0.015482272 0.68393272
0.090222463 -0.015240966 0.68393451
0.090693057 -0.014266826 0.68485743
0.090694889 -0.013946723 0.68522102
0.080383345 -0.01734191 0.68542582
0.080304205 -0.017358262 0.68543845
0.080219388 -0.017375786 0.68545198
0.080128476 -0.017394569 0.68546647
0.080031045 -0.0174147 0.68548203
0.079926617 -0.017436275 0.68549865
0.079814702 -0.0174594 0.68551654
0.079694748 -0.017484182 0.68553567
0.079566196 -0.017510744 0.68555611
0.079428427 -0.017539209 0.68557811
0.079280801 -0.01756971 0.68560165
0.07912264 -0.017602388 0.68562686
0.078953251 -0.017637385 0.68565387
0.078771919 -0.017674852 0.68568277
0.078577913 -0.017714936 0.68571371
0.078370519 -0.017757786 0.68574679
0.078149036 -0.017803548 0.68578207
0.077912785 -0.01785236 0.68581975
0.077661134 -0.017904354 0.68585986
0.077393502 -0.017959651 0.68590254
0.077109359 -0.018018357 0.68594784
0.076808266 -0.018080566 0.68599588
0.076489851 -0.018146357 0.68604666
0.0761538 -0.018215783 0.68610024
0.07579992 -0.018288884 0.68615669
0.075428076 -0.018365659 0.686216
0.075038247 -0.018446013 0.6862784
0.074630588 -0.018529605 0.68634409
0.0742056 -0.018615309 0.68641424
0.073507555 -0.018743323 0.686544
0.072817139 -0.018788353 0.68676519
0.072309464 -0.018023565 0.68783587
0.072292708 -0.017709937 0.6881994
0.080101341 -0.0054270839 0.69909686
0.080022201 -0.0054434352 0.69910944
0.079937384 -0.0054609603 0.69912297
0.079846479 -0.0054797428 0.69913745
0.079749048 -0.0054998738 0.69915301
0.07964462 -0.0055214493 0.69916964
0.079532698 -0.0055445731 0.69918752
0.079412751 -0.0055693565 0.69920665
0.079284191 -0.0055959178 0.69922715
0.079146422 -0.0056243828 0.69924909
0.078998797 -0.005654884 0.69927263
0.078840643 -0.0056875618 0.69929785
0.078671254 -0.0057225595 0.69932485
0.078489922 -0.0057600252 0.69935375
0.078295916 -0.0058001094 0.69938469
0.078088522 -0.0058429595 0.69941777
0.077867039 -0.005888721 0.69945312
0.077630788 -0.0059375335 0.69949073
0.077379137 -0.0059895283 0.6995309
0.077111498 -0.0060448251 0.69957358
0.076827362 -0.0061035315 0.69961888
0.076526269 -0.0061657415 0.69966686
0.076207846 -0.0062315324 0.69971764
0.075871803 -0.006300969 0.69977123
0.075517915 -0.0063741007 0.69982761
0.075146079 -0.0064509823 0.69988686
0.074756265 -0.0065317112 0.69994879
0.074348629 -0.0066165691 0.70001304
0.073923737 -0.0067064613 0.70007843
0.073226459 -0.0068667387 0.70017111
0.072540648 -0.007106056 0.70016938
0.072073929 -0.0080721667 0.69925404
0.072072111 -0.0083896313 0.69889349
0.082306601 -0.0049714497 0.69874525
0.082385741 -0.0049550985 0.69873261
0.082470559 -0.0049375733 0.69871908
0.082561463 -0.0049187909 0.6987046
0.082658902 -0.0048986604 0.69868904
0.082763322 -0.0048770844 0.69867241
0.082875244 -0.0048539606 0.69865453
0.082995191 -0.0048291772 0.69863546
0.083123751 -0.0048026158 0.69861495
0.08326152 -0.0047741509 0.69859296
0.083409145 -0.0047436496 0.69856942
0.083567299 -0.0047109723 0.6985442
0.083736688 -0.0046759741 0.6985172
0.083918028 -0.0046385084 0.6984883
0.084112026 -0.0045984243 0.69845736
0.08431942 -0.0045555742 0.69842428
0.084540904 -0.0045098127 0.69838899
0.084777161 -0.0044610002 0.69835132
0.085028812 -0.0044090054 0.69831121
0.085296445 -0.0043537086 0.69826853
0.08558058 -0.0042950022 0.69822323
0.085881673 -0.0042327931 0.69817519
0.086200096 -0.004167004 0.69812441
0.086536147 -0.0040975772 0.69807082
0.086890027 -0.0040244758 0.69801438
0.087261871 -0.0039477022 0.69795507
0.087651692 -0.0038673475 0.69789267
0.088059358 -0.0037837548 0.69782698
0.088484347 -0.0036980512 0.69775683
0.089182392 -0.0035700367 0.69762707
0.0898728 -0.0035250073 0.69740587
0.090380482 -0.0042897956 0.6963352
0.090397239 -0.0046034227 0.69597167
0.082588598 -0.016886275 0.68507421
0.082667738 -0.016869925 0.68506163
0.082752556 -0.016852399 0.6850481
0.082843468 -0.016833616 0.68503362
0.082940899 -0.016813487 0.68501806
0.083045326 -0.01679191 0.68500143
0.083157241 -0.016768787 0.68498355
0.083277196 -0.016744003 0.68496442
0.083405748 -0.016717441 0.68494391
0.083543517 -0.016688976 0.68492198
0.083691142 -0.016658476 0.68489844
0.083849303 -0.016625799 0.68487322
0.084018692 -0.0165908 0.68484622
0.084200025 -0.016553335 0.68481731
0.08439403 -0.016513251 0.68478638
0.084601425 -0.016470401 0.6847533
0.084822908 -0.016424639 0.68471801
0.085059159 -0.016375827 0.68468034
0.085310809 -0.016323831 0.68464017
0.085578442 -0.016268535 0.68459749
0.085862584 -0.016209828 0.68455219
0.086163677 -0.016147619 0.68450421
0.0864821 -0.016081827 0.68445343
0.086818144 -0.016012391 0.68439984
0.087172024 -0.01593926 0.68434346
0.087543868 -0.015862377 0.68428421
0.087933682 -0.015781648 0.68422228
0.088341318 -0.01569679 0.68415803
0.088766202 -0.015606899 0.68409264
0.08946348 -0.015446621 0.68399996
0.090149298 -0.015207304 0.68400168
0.09061601 -0.014241193 0.68491703
0.090617828 -0.013923729 0.68527758
0.08039134 -0.017290492 0.68548119
0.080312856 -0.017306708 0.68549371
0.080228738 -0.017324086 0.68550712
0.080138594 -0.017342713 0.68552148
0.080041967 -0.017362677 0.68553692
0.079938412 -0.017384073 0.68555343
0.07982742 -0.017407004 0.68557113
0.079708472 -0.017431581 0.68559009
0.079580985 -0.017457923 0.68561041
0.079444356 -0.017486151 0.68563223
0.07929796 -0.017516399 0.68565553
0.079141118 -0.017548803 0.68568057
0.078973137 -0.017583512 0.68570733
0.07879331 -0.017620666 0.685736
0.078600921 -0.017660417 0.6857667
0.078395247 -0.017702909 0.68579948
0.078175604 -0.017748291 0.68583447
0.077941321 -0.017796699 0.68587184
0.077691756 -0.017848261 0.68591166
0.077426352 -0.017903097 0.68595397
0.077144571 -0.017961316 0.68599892
0.076845981 -0.018023008 0.68604648
0.076530211 -0.018088249 0.68609685
0.076196954 -0.0181571 0.68615001
0.075846016 -0.018229594 0.68620598
0.075477265 -0.018305728 0.68626481
0.075090677 -0.018385416 0.68632668
0.074686408 -0.018468315 0.68639183
0.074264951 -0.018553305 0.68646139
0.07357271 -0.018680254 0.68659008
0.072888032 -0.018724911 0.68680942
0.072384574 -0.017966479 0.68787122
0.072367959 -0.01765546 0.68823171
0.080111682 -0.005474715 0.69903857
0.080033198 -0.0054909303 0.69905108
0.079949088 -0.0055083092 0.69906449
0.079858936 -0.0055269357 0.69907886
0.07976231 -0.005546899 0.69909424
0.079658754 -0.0055682953 0.69911075
0.079547763 -0.0055912272 0.69912845
0.079428814 -0.0056158048 0.69914746
0.079301327 -0.0056421449 0.69916779
0.079164699 -0.0056703733 0.69918954
0.079018302 -0.0057006213 0.69921291
0.07886146 -0.0057330271 0.69923788
0.078693479 -0.0057677338 0.69926471
0.078513652 -0.0058048884 0.69929338
0.078321263 -0.0058446391 0.69932401
0.07811559 -0.0058871331 0.69935679
0.077895947 -0.0059325141 0.69939184
0.077661663 -0.005980921 0.69942921
0.077412099 -0.0060324832 0.69946897
0.077146694 -0.0060873204 0.69951129
0.076864913 -0.0061455388 0.69955623
0.076566324 -0.0062072314 0.69960386
0.076250553 -0.0062724757 0.69965416
0.075917296 -0.0063413344 0.69970733
0.075566359 -0.0064138584 0.69976324
0.075197607 -0.0064901011 0.69982201
0.074811034 -0.006570159 0.6998834
0.074406788 -0.006654311 0.69994718
0.073985435 -0.0067434562 0.70001197
0.073293954 -0.0069024013 0.70010394
0.072613835 -0.0071397289 0.70010221
0.072150998 -0.0080978088 0.69919449
0.072149202 -0.008412634 0.69883686
0.082298607 -0.005022868 0.69868988
0.082377091 -0.0050066528 0.69867736
0.082461201 -0.0049892734 0.69866395
0.082551353 -0.0049706469 0.69864959
0.082647979 -0.0049506836 0.69863415
0.082751535 -0.0049292874 0.69861764
0.082862519 -0.0049063554 0.69859993
0.082981475 -0.0048817783 0.69858098
0.083108962 -0.0048554377 0.69856066
0.083245583 -0.0048272097 0.6985389
0.083391987 -0.0047969618 0.69851553
0.083548829 -0.004764556 0.6984905
0.08371681 -0.0047298488 0.69846374
0.083896637 -0.0046926946 0.69843507
0.084089026 -0.0046529439 0.69840437
0.084294699 -0.00461045 0.69837159
0.084514342 -0.0045650685 0.6983366
0.084748626 -0.0045166621 0.69829923
0.084998183 -0.0044650994 0.69825941
0.085263595 -0.0044102627 0.69821709
0.085545368 -0.0043520438 0.69817221
0.085843958 -0.0042903516 0.69812459
0.086159736 -0.0042251097 0.69807422
0.086492985 -0.0041562594 0.69802111
0.08684393 -0.0040837657 0.69796509
0.087212682 -0.004007631 0.69790626
0.087599263 -0.0039279438 0.69784439
0.088003539 -0.003845046 0.69777924
0.088424996 -0.0037600552 0.69770968
0.089117236 -0.0036331052 0.69758099
0.089801908 -0.0035884499 0.69736165
0.090305373 -0.0043468801 0.69629985
0.090321988 -0.0046579004 0.69593936
0.082578264 -0.016838646 0.6851325
0.082656741 -0.016822429 0.68511999
0.082740858 -0.016805051 0.68510658
0.08283101 -0.016786424 0.68509221
0.082927629 -0.016766461 0.68507683
0.083031185 -0.016745064 0.68506032
0.083142176 -0.016722133 0.68504262
0.083261132 -0.016697556 0.68502367
0.083388619 -0.016671214 0.68500334
0.08352524 -0.016642986 0.68498152
0.083671644 -0.016612738 0.68495816
0.083828487 -0.016580334 0.68493319
0.083996467 -0.016545625 0.68490642
0.084176287 -0.016508471 0.68487769
0.084368683 -0.016468721 0.68484706
0.084574349 -0.016426228 0.68481427
0.084793992 -0.016380847 0.68477923
0.085028283 -0.016332438 0.68474185
0.08527784 -0.016280876 0.6847021
0.085543253 -0.01622604 0.68465978
0.085825026 -0.016167821 0.68461484
0.086123616 -0.016106129 0.68456721
0.086439393 -0.016040884 0.68451691
0.086772643 -0.015972026 0.68446374
0.087123588 -0.015899502 0.68440783
0.087492332 -0.015823258 0.68434906
0.087878913 -0.015743202 0.68428767
0.088283151 -0.015659049 0.68422395
0.088704512 -0.015569904 0.6841591
0.089395992 -0.015410959 0.68406713
0.090076104 -0.015173631 0.68406892
0.090538941 -0.014215551 0.68497664
0.090540744 -0.013900726 0.68533421
0.080399334 -0.017239058 0.68553656
0.080321513 -0.017255137 0.68554902
0.080238104 -0.01727237 0.68556231
0.080148704 -0.01729084 0.68557656
0.080052897 -0.017310636 0.68559182
0.079950206 -0.017331854 0.68560821
0.079840146 -0.017354593 0.68562573
0.079722188 -0.017378964 0.68564457
0.079595774 -0.017405083 0.68566471
0.079460293 -0.017433075 0.68568629
0.079315126 -0.017463069 0.68570948
0.079159595 -0.017495204 0.68573427
0.078993022 -0.01752962 0.6857608
0.078814708 -0.017566463 0.68578923
0.078623928 -0.01760588 0.68581969
0.078419983 -0.017648017 0.68585217
0.078202181 -0.017693019 0.68588692
0.077969857 -0.017741019 0.68592393
0.077722393 -0.017792149 0.68596339
0.077459209 -0.017846527 0.68600535
0.077179797 -0.017904257 0.68604994
0.076883711 -0.01796543 0.68609715
0.076570585 -0.018030126 0.68614703
0.076240122 -0.018098399 0.68619978
0.075892128 -0.018170284 0.68625528
0.075526468 -0.018245781 0.68631363
0.075143121 -0.0183248 0.68637496
0.074742243 -0.018407002 0.68643957
0.074324317 -0.018491281 0.6865086
0.07363788 -0.018617166 0.68663615
0.072958946 -0.018661447 0.68685365
0.072459713 -0.017909376 0.68790656
0.072443232 -0.017600965 0.68826407
0.080122024 -0.0055223601 0.69898027
0.080044203 -0.0055384394 0.69899267
0.079960793 -0.005555673 0.69900596
0.079871394 -0.005574143 0.69902021
0.079775587 -0.0055939392 0.69903547
0.079672895 -0.0056151561 0.69905186
0.079562835 -0.0056378953 0.69906938
0.079444878 -0.0056622671 0.69908822
0.079318464 -0.0056883865 0.69910836
0.079182982 -0.0057163779 0.69913
0.079037815 -0.005746372 0.69915313
0.078882284 -0.0057785064 0.69917792
0.078715712 -0.005812922 0.6992045
0.078537397 -0.0058497651 0.69923294
0.078346618 -0.0058891824 0.69926333
0.078142673 -0.0059313201 0.69929582
0.07792487 -0.0059763207 0.69933057
0.077692546 -0.0060243215 0.69936764
0.077445082 -0.0060754516 0.6994071
0.077181898 -0.0061298287 0.69944906
0.076902486 -0.0061875591 0.69949359
0.0766064 -0.0062487349 0.69954079
0.076293275 -0.0063134315 0.69959074
0.075962812 -0.0063817133 0.69964343
0.075614817 -0.0064536287 0.69969887
0.075249158 -0.006529232 0.6997571
0.074865825 -0.0066086189 0.69981802
0.074464969 -0.0066920649 0.69988126
0.074047148 -0.0067804633 0.69994551
0.073361464 -0.0069380756 0.7000367
0.072687052 -0.0071734129 0.70003498
0.072228096 -0.0081234584 0.69913483
0.072226308 -0.0084356442 0.6987803
0.082290612 -0.0050743022 0.69863451
0.082368433 -0.0050582229 0.69862205
0.082451843 -0.0050409897 0.69860876
0.082541235 -0.0050225193 0.69859451
0.082637049 -0.0050027231 0.69857925
0.082739741 -0.0049815066 0.69856286
0.082849793 -0.004958767 0.69854534
0.082967751 -0.0049343957 0.6985265
0.083094172 -0.0049082763 0.69850636
0.083229646 -0.0048802844 0.69848478
0.083374821 -0.0048502903 0.69846159
0.083530344 -0.0048181564 0.6984368
0.083696917 -0.0047837403 0.69841027
0.083875239 -0.0047468971 0.69838184
0.084066018 -0.0047074803 0.69835138
0.084269963 -0.0046653426 0.6983189
0.084487766 -0.004620342 0.69828415
0.084720083 -0.0045723408 0.69824713
0.084967554 -0.0045212111 0.69820768
0.085230738 -0.0044668335 0.69816571
0.08551015 -0.0044091032 0.69812113
0.085806236 -0.0043479288 0.69807392
0.086119361 -0.0042832335 0.69802403
0.086449817 -0.0042149615 0.69797128
0.086797819 -0.0041430751 0.69791579
0.087163478 -0.0040675784 0.69785744
0.087546818 -0.0039885598 0.69779611
0.087947704 -0.0039063571 0.69773149
0.088365629 -0.0038220789 0.69766247
0.089052059 -0.0036961937 0.69753492
0.089730993 -0.0036519123 0.69731742
0.090230234 -0.0044039832 0.69626451
0.090246707 -0.0047123954 0.69590706
0.082567923 -0.016790999 0.6851908
0.082645744 -0.016774921 0.6851784
0.082729153 -0.016757688 0.68516511
0.082818545 -0.016739218 0.68515086
0.08291436 -0.016719421 0.6851356
0.083017051 -0.016698204 0.68511921
0.083127104 -0.016675465 0.68510169
0.083245061 -0.016651094 0.68508285
0.083371483 -0.016624974 0.68506271
0.083506957 -0.016596982 0.68504107
0.083652131 -0.016566988 0.68501794
0.083807662 -0.016534854 0.68499315
0.083974227 -0.016500438 0.68496662
0.08415255 -0.016463595 0.68493813
0.084343329 -0.016424177 0.68490773
0.084547274 -0.01638204 0.68487525
0.084765077 -0.016337039 0.6848405
0.084997393 -0.016289039 0.68480349
0.085244864 -0.016237909 0.68476403
0.085508049 -0.016183531 0.68472207
0.08578746 -0.0161258 0.68467748
0.086083546 -0.016064625 0.68463027
0.086396672 -0.015999928 0.68458033
0.086727127 -0.015931647 0.6845277
0.087075129 -0.015859731 0.6844722
0.087440789 -0.015784128 0.68441397
0.087824121 -0.015704742 0.68435305
0.088224977 -0.015621295 0.68428987
0.088642798 -0.015532897 0.68422556
0.089328483 -0.015375284 0.68413442
0.090002894 -0.015139948 0.68413609
0.09046185 -0.014189901 0.68503624
0.090463631 -0.013877716 0.68539077
0.080407336 -0.017187607 0.685592
0.080330171 -0.017203549 0.68560427
0.080247462 -0.017220637 0.68561751
0.08015883 -0.01723895 0.68563163
0.080063827 -0.017258579 0.68564677
0.079962008 -0.017279616 0.68566298
0.079852879 -0.017302163 0.68568039
0.07973592 -0.017326329 0.68569905
0.079610571 -0.017352227 0.68571901
0.079476237 -0.017379982 0.68574047
0.079332292 -0.017409723 0.68576342
0.07917808 -0.017441586 0.68578798
0.079012923 -0.017475709 0.68581432
0.078836113 -0.017512241 0.68584251
0.078646943 -0.017551325 0.68587267
0.078444727 -0.017593106 0.68590492
0.078228764 -0.017637726 0.68593937
0.077998407 -0.01768532 0.68597609
0.077753037 -0.017736018 0.68601519
0.077492081 -0.017789936 0.68605679
0.077215031 -0.017847177 0.68610096
0.076921448 -0.017907834 0.68614781
0.076610968 -0.017971983 0.68619728
0.076283306 -0.018039677 0.68624955
0.075938255 -0.018110955 0.68630457
0.075575687 -0.018185813 0.68636245
0.075195588 -0.018264163 0.68642324
0.074798092 -0.018345671 0.68648732
0.074383706 -0.018429236 0.68655574
0.07370308 -0.018554056 0.68668228
0.073029891 -0.018597964 0.68689793
0.072534874 -0.017852254 0.68794191
0.072518535 -0.017546451 0.68829638
0.080132373 -0.0055700219 0.69892192
0.080055207 -0.0055859652 0.69893426
0.079972498 -0.0056030531 0.69894743
0.079883859 -0.0056213671 0.69896156
0.079788856 -0.0056409957 0.6989767
0.079687037 -0.0056620329 0.69899291
0.079577915 -0.0056845802 0.69901031
0.079460956 -0.0057087452 0.69902897
0.079335608 -0.0057346439 0.69904894
0.079201274 -0.0057623987 0.69907039
0.079057328 -0.0057921391 0.69909334
0.078903116 -0.0058240015 0.6991179
0.078737959 -0.0058581261 0.69914424
0.078561142 -0.0058946572 0.69917244
0.078371979 -0.0059337411 0.6992026
0.078169763 -0.0059755221 0.69923484
0.077953801 -0.0060201422 0.69926929
0.077723444 -0.006067737 0.69930601
0.077478074 -0.0061184345 0.69934511
0.07721711 -0.006172352 0.69938678
0.076940067 -0.0062295939 0.69943094
0.076646484 -0.0062902523 0.69947773
0.076336004 -0.0063544014 0.6995272
0.076008342 -0.0064221057 0.69957948
0.075663291 -0.0064934134 0.69963449
0.075300723 -0.0065683764 0.69969219
0.074920632 -0.0066470914 0.69975263
0.074523166 -0.0067298324 0.69981527
0.074108876 -0.0068174824 0.69987899
0.073428996 -0.0069737616 0.69996941
0.072760291 -0.0072071077 0.69996774
0.072305217 -0.0081491172 0.69907522
0.072303444 -0.0084586618 0.69872361
0.08228261 -0.0051257545 0.69857907
0.082359776 -0.0051098112 0.69856679
0.082442477 -0.0050927233 0.69855362
0.082531117 -0.0050744093 0.69853944
0.082626119 -0.0050547807 0.6985243
0.082727939 -0.0050337436 0.69850808
0.082837068 -0.0050111962 0.69849068
0.082954027 -0.0049870312 0.69847202
0.083079375 -0.0049611325 0.69845206
0.083213709 -0.0049333777 0.6984306
0.083357647 -0.0049036373 0.69840765
0.083511859 -0.0048717749 0.69838309
0.083677024 -0.0048376503 0.69835675
0.083853833 -0.0048011192 0.69832855
0.084042996 -0.0047620353 0.69829839
0.08424522 -0.0047202539 0.69826615
0.084461175 -0.0046756342 0.6982317
0.084691532 -0.0046280394 0.69819498
0.084936909 -0.004577342 0.69815588
0.085197866 -0.0045234244 0.69811428
0.085474916 -0.0044661826 0.69807011
0.085768498 -0.0044055255 0.69802326
0.086078972 -0.0043413774 0.69797379
0.086406641 -0.0042736828 0.69792151
0.086751692 -0.004202405 0.6978665
0.08711426 -0.0041275467 0.69780862
0.087494358 -0.0040491964 0.69774783
0.087891854 -0.0039676889 0.69768375
0.088306241 -0.0038841236 0.69761533
0.088986866 -0.0037593034 0.69748878
0.089660056 -0.0037153966 0.69727314
0.090155073 -0.0044611059 0.69622916
0.090171404 -0.0047669089 0.69587469
0.082557574 -0.016743338 0.68524915
0.08263474 -0.016727395 0.68523687
0.082717441 -0.016710307 0.68522364
0.082806081 -0.016691992 0.68520951
0.082901083 -0.016672364 0.68519437
0.083002903 -0.016651327 0.68517816
0.083112031 -0.016628779 0.68516076
0.08322899 -0.016604615 0.6851421
0.083354339 -0.016578715 0.68512213
0.083488673 -0.016550962 0.68510067
0.083632611 -0.016521221 0.68507773
0.083786823 -0.016489359 0.68505317
0.083951987 -0.016455233 0.68502682
0.084128797 -0.016418703 0.68499863
0.08431796 -0.016379619 0.68496847
0.084520184 -0.016337838 0.68493623
0.084736139 -0.016293218 0.68490177
0.084966503 -0.016245622 0.68486506
0.085211873 -0.016194925 0.68482596
0.08547283 -0.016141009 0.68478435
0.085749879 -0.016083766 0.68474013
0.086043462 -0.016023109 0.68469334
0.086353943 -0.015958959 0.68464386
0.086681604 -0.015891254 0.68459159
0.087026656 -0.015819946 0.68453658
0.087389223 -0.015744984 0.68447888
0.087769315 -0.015666269 0.68441844
0.088166773 -0.015583527 0.6843558
0.088581063 -0.015495878 0.68429208
0.089260951 -0.015339598 0.68420166
0.089929655 -0.015106252 0.68420339
0.090384729 -0.014164243 0.68509585
0.090386495 -0.013854698 0.68544745
0.080415338 -0.017136138 0.68564743
0.080338828 -0.017151944 0.68565959
0.080256835 -0.017168887 0.6856727
0.080168948 -0.017187044 0.68568671
0.080074757 -0.017206505 0.68570173
0.079973809 -0.017227363 0.68571782
0.079865612 -0.017249718 0.68573505
0.079749651 -0.017273676 0.68575352
0.079625368 -0.017299354 0.68577337
0.079492189 -0.017326871 0.68579459
0.079349473 -0.017356358 0.68581736
0.079196572 -0.017387949 0.68584174
0.079032823 -0.017421782 0.68586785
0.078857519 -0.017458001 0.6858958
0.078669973 -0.017496752 0.68592572
0.078469478 -0.017538177 0.68595767
0.078255363 -0.017582417 0.68599182
0.078026973 -0.017629605 0.68602824
0.077783689 -0.01767987 0.68606699
0.07752496 -0.017733326 0.68610823
0.077250272 -0.017790079 0.68615204
0.0769592 -0.01785022 0.68619847
0.076651372 -0.01791382 0.68624753
0.076326504 -0.017980937 0.68629932
0.075984396 -0.018051608 0.68635392
0.07562492 -0.018125826 0.68641132
0.075248063 -0.018203508 0.68647158
0.074853964 -0.018284319 0.68653512
0.074443117 -0.018367171 0.68660295
0.073768295 -0.018490927 0.68672836
0.07310085 -0.018534459 0.68694222
0.072610058 -0.017795114 0.68797725
0.07259386 -0.01749192 0.68832868
0.080142714 -0.0056176991 0.69886357
0.080066212 -0.0056335065 0.69887578
0.07998421 -0.0056504481 0.69888884
0.079896331 -0.0056686061 0.69890285
0.079802141 -0.0056880671 0.69891787
0.079701185 -0.005708925 0.69893396
0.079592995 -0.0057312795 0.69895124
0.079477035 -0.0057552387 0.69896972
0.079352751 -0.0057809162 0.69898951
0.079219565 -0.005808434 0.69901079
0.079076856 -0.0058379206 0.69903356
0.078923956 -0.005869511 0.69905794
0.078760207 -0.0059033446 0.69908404
0.078584902 -0.0059395642 0.69911194
0.078397356 -0.0059783142 0.69914186
0.078196861 -0.006019739 0.69917387
0.077982746 -0.0060639782 0.69920796
0.077754349 -0.0061111669 0.69924438
0.077511072 -0.0061614313 0.69928318
0.077252343 -0.0062148888 0.69932443
0.076977655 -0.0062716422 0.69936824
0.076686583 -0.0063317828 0.69941467
0.076378755 -0.0063953847 0.69946373
0.076053888 -0.0064625111 0.69951552
0.075711779 -0.0065332097 0.69957006
0.075352304 -0.0066075339 0.69962728
0.074975461 -0.0066855773 0.69968718
0.074581385 -0.0067676115 0.69974929
0.074170634 -0.0068545132 0.69981247
0.07349655 -0.0070094592 0.69990212
0.072833553 -0.0072408142 0.69990045
0.072382368 -0.0081747845 0.69901556
0.07238061 -0.0084816869 0.69866699
0.082274608 -0.0051772231 0.69852364
0.082351118 -0.0051614158 0.69851148
0.082433112 -0.0051444736 0.69849837
0.082520999 -0.0051263161 0.69848436
0.082615189 -0.0051068552 0.69846934
0.082716137 -0.0050859973 0.69845325
0.082824335 -0.0050636427 0.69843602
0.082940295 -0.0050396835 0.69841754
0.083064571 -0.005014006 0.6983977
0.083197758 -0.0049864883 0.69837648
0.083340473 -0.0049570012 0.69835371
0.083493367 -0.0049254112 0.69832933
0.083657123 -0.0048915776 0.69830322
0.08383242 -0.004855358 0.69827527
0.084019974 -0.0048166076 0.69824541
0.084220469 -0.0047751833 0.6982134
0.084434584 -0.0047309441 0.69817924
0.084662974 -0.0046837553 0.69814283
0.084906258 -0.0046334905 0.69810408
0.085164987 -0.0045800335 0.69806284
0.085439667 -0.0045232801 0.69801903
0.085730746 -0.0044631409 0.6979726
0.086038575 -0.0043995399 0.69792354
0.086363442 -0.0043324232 0.69787174
0.086705551 -0.0042617531 0.69781715
0.087065026 -0.0041875341 0.69775981
0.087441877 -0.0041098529 0.69769949
0.087835982 -0.0040290407 0.69763595
0.08824683 -0.0039461884 0.69756812
0.088921651 -0.0038224333 0.69744271
0.089589097 -0.0037789014 0.69722885
0.090079889 -0.0045182463 0.69619381
0.090096079 -0.0048214397 0.69584239
0.082547225 -0.016695661 0.6853075
0.082623735 -0.016679853 0.68529528
0.082705729 -0.016662912 0.68528223
0.082793616 -0.016644754 0.68526822
0.082887806 -0.016625293 0.6852532
0.082988754 -0.016604435 0.68523711
0.083096951 -0.016582081 0.68521982
0.083212912 -0.016558122 0.68520135
0.083337188 -0.016532443 0.68518156
0.083470374 -0.016504927 0.68516028
0.08361309 -0.016475439 0.68513757
0.083765984 -0.016443849 0.68511319
0.08392974 -0.016410016 0.68508703
0.084105045 -0.016373796 0.68505913
0.084292591 -0.016335046 0.68502921
0.084493086 -0.016293621 0.68499726
0.084707201 -0.016249381 0.68496311
0.084935591 -0.016202193 0.68492669
0.085178874 -0.016151929 0.68488789
0.085437603 -0.016098471 0.68484664
0.085712291 -0.016041718 0.68480283
0.086003363 -0.015981577 0.68475646
0.086311191 -0.015917975 0.68470734
0.086636059 -0.015850849 0.68465555
0.086978167 -0.015780151 0.68460101
0.087337635 -0.015705826 0.68454379
0.087714486 -0.015627783 0.68448389
0.088108554 -0.015545748 0.68442178
0.088519312 -0.015458846 0.6843586
0.089193396 -0.0153039 0.68426895
0.089856394 -0.015072546 0.68427062
0.090307578 -0.014138576 0.68515551
0.090309337 -0.013831673 0.68550408
0.08042334 -0.017084651 0.68570286
0.080347493 -0.017100321 0.68571496
0.0802662 -0.017117118 0.68572789
0.080179073 -0.017135119 0.68574178
0.080085695 -0.017154412 0.68575668
0.079985611 -0.017175091 0.68577266
0.079878353 -0.017197253 0.68578976
0.07976339 -0.017221006 0.68580806
0.07964018 -0.017246462 0.68582773
0.079508141 -0.017273743 0.68584877
0.079366654 -0.017302977 0.6858713
0.079215072 -0.017334294 0.6858955
0.079052731 -0.017367836 0.68592137
0.078878939 -0.017403744 0.68594909
0.078693002 -0.017442161 0.68597871
0.078494236 -0.017483229 0.68601042
0.078281961 -0.017527087 0.68604428
0.078055538 -0.017573869 0.6860804
0.077814355 -0.017623702 0.68611884
0.077557854 -0.017676698 0.68615973
0.077285528 -0.017732963 0.68620312
0.07699696 -0.017792584 0.68624914
0.076691784 -0.017855637 0.68629783
0.076369718 -0.017922176 0.68634915
0.076030552 -0.017992238 0.68640327
0.075674176 -0.018065818 0.68646014
0.075300559 -0.018142831 0.68651992
0.074909858 -0.018222947 0.68658292
0.074502543 -0.018305086 0.68665016
0.073833533 -0.018427774 0.68677449
0.073171839 -0.018470932 0.68698651
0.072685272 -0.017737953 0.68801266
0.072669216 -0.01743737 0.68836105
0.08015307 -0.0056653931 0.69880521
0.080077223 -0.005681064 0.69881731
0.07999593 -0.0056978599 0.69883025
0.079908803 -0.0057158615 0.69884419
0.079815425 -0.0057351547 0.69885904
0.079715341 -0.0057558329 0.69887501
0.079608075 -0.0057779951 0.69889212
0.079493113 -0.005801748 0.69891047
0.07936991 -0.0058272043 0.69893008
0.079237871 -0.0058544851 0.69895113
0.079096384 -0.0058837184 0.69897372
0.078944802 -0.0059150364 0.69899786
0.078782462 -0.0059485785 0.69902378
0.078608669 -0.0059844861 0.69905144
0.078422733 -0.0060229027 0.69908112
0.078223966 -0.0060639707 0.69911283
0.078011692 -0.006107829 0.69914663
0.077785268 -0.0061546112 0.69918275
0.077544086 -0.0062044435 0.69922119
0.077287577 -0.0062574404 0.69926208
0.077015258 -0.0063137049 0.69930553
0.07672669 -0.0063733277 0.69935155
0.076421514 -0.006436382 0.69940019
0.076099448 -0.0065029301 0.69945157
0.075760283 -0.0065730205 0.69950563
0.075403906 -0.0066467044 0.69956237
0.075030304 -0.0067240754 0.69962174
0.074639626 -0.0068054041 0.69968331
0.074232407 -0.006891557 0.69974595
0.073564127 -0.0070451684 0.69983482
0.072906837 -0.0072745318 0.69983315
0.072459534 -0.0082004601 0.69895589
0.072457798 -0.0085047204 0.69861031
0.082266606 -0.0052287094 0.69846821
0.082342453 -0.0052130381 0.69845611
0.082423747 -0.0051962421 0.69844317
0.082510866 -0.0051782406 0.69842929
0.082604252 -0.0051589473 0.69841439
0.082704328 -0.0051382692 0.69839841
0.082811594 -0.0051161069 0.69838136
0.082926556 -0.0050923545 0.69836301
0.083049767 -0.0050668977 0.69834334
0.083181806 -0.005039617 0.6983223
0.083323292 -0.0050103841 0.69829977
0.083474867 -0.0049790656 0.69827557
0.083637215 -0.0049455236 0.6982497
0.083811007 -0.004909616 0.69822198
0.083996937 -0.0048711994 0.69819236
0.084195711 -0.0048301313 0.69816065
0.084407978 -0.004786273 0.69812679
0.084634408 -0.0047394908 0.69809067
0.084875591 -0.004689659 0.69805223
0.085132092 -0.0046366621 0.69801134
0.085404411 -0.0045803972 0.69796795
0.085692979 -0.0045207758 0.69792193
0.085998163 -0.0044577224 0.69787323
0.086320229 -0.0043911831 0.69782192
0.086659394 -0.0043211221 0.69776779
0.08701577 -0.004247542 0.69771093
0.08738938 -0.0041705295 0.69765115
0.087780088 -0.0040904135 0.69758815
0.088187404 -0.0040082741 0.69752091
0.088856407 -0.0038855847 0.69739658
0.089518107 -0.0038424281 0.69718456
0.090004675 -0.0045754067 0.69615841
0.090020731 -0.0048759896 0.69581002
0.082536876 -0.016647967 0.68536586
0.082612723 -0.016632296 0.68535376
0.082694016 -0.016615501 0.68534082
0.082781143 -0.016597498 0.68532693
0.082874522 -0.016578205 0.68531203
0.082974605 -0.016557528 0.68529606
0.083081864 -0.016535364 0.68527895
0.083196826 -0.016511612 0.68526065
0.083320037 -0.016486155 0.68524098
0.083452076 -0.016458875 0.68521994
0.083593562 -0.016429642 0.68519735
0.083745144 -0.016398324 0.68517321
0.083907485 -0.016364781 0.68514735
0.084081277 -0.016328873 0.68511963
0.084267214 -0.016290458 0.68508995
0.084465981 -0.016249388 0.6850583
0.084678248 -0.016205531 0.68502444
0.084904678 -0.016158748 0.68498832
0.085145861 -0.016108917 0.68494987
0.085402362 -0.016055919 0.68490899
0.085674681 -0.015999654 0.68486553
0.085963249 -0.015940033 0.68481952
0.086268432 -0.015876979 0.68477088
0.086590499 -0.01581043 0.6847195
0.086929664 -0.015740339 0.68466544
0.08728604 -0.015666656 0.6846087
0.087659642 -0.015589285 0.68454933
0.088050321 -0.015507956 0.68448776
0.08845754 -0.015421803 0.68442512
0.089125812 -0.015268192 0.68433625
0.089783102 -0.015038828 0.68433791
0.090230405 -0.0141129 0.68521518
0.090232149 -0.01380864 0.68556076
0.08043135 -0.017033147 0.68575829
0.080356158 -0.017048681 0.68577027
0.080275573 -0.017065331 0.68578315
0.080189206 -0.017083177 0.68579692
0.08009664 -0.017102303 0.68581164
0.079997428 -0.017122801 0.68582749
0.079891093 -0.017144771 0.68584442
0.079777129 -0.017168317 0.6858626
0.079654992 -0.017193552 0.68588209
0.0795241 -0.017220596 0.68590295
0.079383843 -0.017249575 0.6859253
0.079233579 -0.017280621 0.68594927
0.079072647 -0.017313872 0.68597496
0.078900367 -0.017349467 0.68600237
0.078716047 -0.01738755 0.68603182
0.078519009 -0.017428262 0.68606323
0.078308575 -0.017471738 0.68609679
0.078084119 -0.017518114 0.68613255
0.07784503 -0.017567514 0.6861707
0.077590756 -0.017620049 0.68621123
0.077320799 -0.017675826 0.68625426
0.077034742 -0.01773493 0.68629986
0.076732211 -0.017797435 0.68634808
0.076412939 -0.017863395 0.68639904
0.076076724 -0.017932849 0.68645263
0.075723447 -0.018005788 0.68650901
0.075353079 -0.018082133 0.68656826
0.074965768 -0.018161552 0.68663073
0.074561991 -0.018242978 0.68669736
0.0738988 -0.018364601 0.68682063
0.073242851 -0.018407384 0.68703079
0.072760507 -0.017680774 0.68804801
0.072744593 -0.017382801 0.68839341
0.080163427 -0.0057131029 0.69874686
0.080088235 -0.0057286378 0.69875884
0.08000765 -0.005745288 0.69877166
0.079921283 -0.0057631331 0.69878542
0.079828717 -0.0057822587 0.69880021
0.079729505 -0.0058027571 0.698816
0.07962317 -0.005824727 0.69883299
0.079509206 -0.0058482732 0.69885117
0.079387069 -0.0058735088 0.6988706
0.079256177 -0.0059005525 0.69889152
0.07911592 -0.0059295315 0.69891387
0.078965656 -0.0059605776 0.69893783
0.078804724 -0.0059938282 0.69896346
0.078632444 -0.0060294238 0.69899094
0.078448124 -0.006067507 0.69902033
0.078251086 -0.0061082179 0.69905174
0.078040652 -0.0061516953 0.6990853
0.077816196 -0.0061980709 0.69912112
0.077577107 -0.0062474702 0.6991592
0.077322833 -0.0063000065 0.69919974
0.077052876 -0.0063557825 0.69924277
0.076766819 -0.006414887 0.69928843
0.076464288 -0.0064773941 0.69933665
0.076145023 -0.0065433639 0.69938755
0.075808801 -0.0066128448 0.69944113
0.075455524 -0.0066858884 0.6994974
0.075085171 -0.0067625879 0.69955623
0.074697882 -0.0068432093 0.69961733
0.074294202 -0.0069286143 0.69967937
0.073631734 -0.0070808907 0.69976753
0.072980151 -0.0073082615 0.69976586
0.072536737 -0.0082261451 0.69889623
0.072535008 -0.0085277613 0.69855362
0.082258597 -0.0052802134 0.69841278
0.082333788 -0.0052646785 0.6984008
0.082414374 -0.0052480283 0.69838792
0.082500741 -0.0052301832 0.69837415
0.082593307 -0.0052110576 0.69835943
0.082692519 -0.0051905592 0.69834358
0.082798854 -0.0051685893 0.69832665
0.082912818 -0.0051450431 0.69830847
0.083034955 -0.005119808 0.69828898
0.083165847 -0.0050927638 0.69826812
0.083306104 -0.0050637852 0.69824576
0.083456367 -0.0050327391 0.6982218
0.0836173 -0.0049994881 0.69819611
0.08378958 -0.0049638925 0.69816869
0.083973899 -0.0049258098 0.69813931
0.084170938 -0.0048850984 0.69810784
0.084381364 -0.0048416215 0.69807434
0.084605828 -0.0047952454 0.69803852
0.084844917 -0.0047458466 0.69800043
0.08509919 -0.0046933098 0.69795984
0.08536914 -0.0046375343 0.69791681
0.085655205 -0.0045784307 0.69787121
0.085957728 -0.0045159259 0.69782299
0.086277001 -0.0044499645 0.69777209
0.086613223 -0.0043805121 0.69771844
0.0869665 -0.0043075709 0.69766206
0.087336868 -0.004231228 0.69760281
0.087724179 -0.0041518081 0.69754034
0.088127948 -0.0040703826 0.6974737
0.088791147 -0.0039487588 0.69735044
0.089447096 -0.0039059769 0.69714028
0.089929432 -0.0046325871 0.69612306
0.089945354 -0.0049305586 0.69577765
0.08252652 -0.016600257 0.68542421
0.082601711 -0.016584722 0.68541223
0.082682297 -0.016568072 0.68539941
0.082768664 -0.016550226 0.68538564
0.08286123 -0.0165311 0.68537086
0.082960442 -0.016510602 0.68535507
0.083066776 -0.016488632 0.68533808
0.08318074 -0.016465086 0.6853199
0.083302878 -0.016439851 0.68530047
0.08343377 -0.016412808 0.68527961
0.083574027 -0.016383829 0.6852572
0.08372429 -0.016352782 0.68523324
0.083885223 -0.016319532 0.68520761
0.084057502 -0.016283937 0.68518013
0.084241822 -0.016245853 0.68515074
0.08443886 -0.016205141 0.68511933
0.084649287 -0.016161665 0.68508577
0.084873751 -0.016115289 0.68505001
0.08511284 -0.01606589 0.68501186
0.085367113 -0.016013354 0.68497133
0.085637063 -0.015957577 0.6849283
0.085923128 -0.015898474 0.68488264
0.086225651 -0.015835965 0.68483442
0.086544923 -0.015769996 0.68478352
0.086881138 -0.015700515 0.68472993
0.087234423 -0.015627472 0.68467367
0.087604776 -0.015550772 0.68461484
0.087992057 -0.015470151 0.68455374
0.088395737 -0.015384746 0.68449169
0.089058213 -0.015232469 0.6844036
0.089709789 -0.015005099 0.68440521
0.09015321 -0.014087215 0.68527484
0.090154931 -0.013785599 0.68561745
0.080439359 -0.016981624 0.68581378
0.080364831 -0.016997023 0.68582565
0.080284953 -0.017013527 0.6858384
0.080199338 -0.017031215 0.68585205
0.080107585 -0.017050173 0.68586665
0.080009237 -0.017070493 0.68588233
0.079903841 -0.017092269 0.68589914
0.079790875 -0.01711561 0.68591714
0.079669811 -0.017140623 0.68593645
0.079540066 -0.01716743 0.68595713
0.079401039 -0.017196154 0.68597931
0.079252094 -0.017226929 0.68600309
0.07909257 -0.017259888 0.68602848
0.078921795 -0.017295172 0.68605572
0.078739092 -0.017332921 0.68608487
0.078543782 -0.017373275 0.68611598
0.078335196 -0.017416371 0.68614924
0.078112707 -0.017462339 0.68618476
0.077875718 -0.017511306 0.68622255
0.077623673 -0.017563382 0.68626273
0.077356085 -0.017618669 0.6863054
0.077072531 -0.017677253 0.68635058
0.076772653 -0.01773921 0.68639839
0.076456182 -0.017804593 0.68644887
0.076122917 -0.017873436 0.68650204
0.075772732 -0.017945739 0.68655789
0.075405613 -0.018021412 0.68661666
0.075021699 -0.018100135 0.68667853
0.074621461 -0.018180847 0.68674463
0.073964082 -0.018301405 0.68686682
0.073313884 -0.018343812 0.68707508
0.072835773 -0.017623572 0.68808341
0.07282 -0.017328214 0.68842578
0.080173783 -0.0057608299 0.69868845
0.080099255 -0.0057762288 0.69870031
0.080019377 -0.0057927328 0.69871306
0.079933763 -0.0058104214 0.69872671
0.079842009 -0.0058293794 0.69874132
0.079743668 -0.0058496986 0.69875699
0.079638265 -0.0058714757 0.6987738
0.079525299 -0.0058948151 0.6987918
0.079404235 -0.0059198295 0.69881111
0.07927449 -0.0059466362 0.6988318
0.079135463 -0.005975361 0.69885397
0.078986518 -0.0060061351 0.69887775
0.078826994 -0.0060390942 0.69890314
0.078656226 -0.0060743778 0.69893038
0.078473523 -0.0061121266 0.69895953
0.078278206 -0.0061524808 0.6989907
0.078069627 -0.0061955769 0.6990239
0.077847138 -0.006241546 0.69905943
0.077610143 -0.0062905122 0.69909722
0.077358097 -0.006342588 0.69913739
0.077090509 -0.0063978746 0.69918007
0.076806955 -0.0064564613 0.69922525
0.076507084 -0.0065184203 0.69927305
0.076190613 -0.0065838117 0.69932353
0.075857341 -0.0066526835 0.69937664
0.075507164 -0.0067250868 0.69943243
0.075140052 -0.006801113 0.69949073
0.07475616 -0.0068810284 0.69955128
0.074356019 -0.0069656842 0.6996128
0.073699363 -0.0071166256 0.69970018
0.073053494 -0.0073420028 0.69969851
0.072613962 -0.0082518384 0.69883651
0.072612256 -0.0085508106 0.69849694
0.082250588 -0.0053317361 0.69835728
0.082325116 -0.0053163371 0.69834542
0.082404993 -0.0052998331 0.69833267
0.082490608 -0.0052821445 0.69831902
0.082582362 -0.0052631865 0.69830441
0.082680702 -0.0052428679 0.69828874
0.082786106 -0.0052210907 0.69827193
0.082899071 -0.0051977509 0.69825393
0.083020136 -0.0051727369 0.69823462
0.08314988 -0.0051459298 0.69821393
0.083288908 -0.0051172054 0.69819176
0.083437853 -0.0050864313 0.69816798
0.083597377 -0.0050534722 0.69814259
0.083768144 -0.0050181886 0.69811535
0.083950847 -0.0049804393 0.6980862
0.084146164 -0.0049400856 0.69805509
0.084354743 -0.0048969891 0.69802183
0.084577233 -0.0048510199 0.6979863
0.084814228 -0.0048020543 0.69794852
0.085066274 -0.0047499784 0.69790834
0.085333861 -0.0046946914 0.69786566
0.085617416 -0.0046361061 0.69782048
0.085917287 -0.0045741494 0.69777268
0.086233757 -0.0045087668 0.6977222
0.086567029 -0.004439923 0.69766903
0.086917214 -0.0043676216 0.69761318
0.087284334 -0.0042919475 0.69755441
0.087668248 -0.0042132242 0.69749254
0.088068478 -0.004132512 0.69742644
0.088725865 -0.0040119551 0.69730425
0.089376062 -0.0039695483 0.69709599
0.089854173 -0.004689788 0.69608766
0.089869946 -0.0049851467 0.69574529
0.082516156 -0.01655253 0.68548262
0.082590692 -0.016537132 0.68547076
0.082670569 -0.016520627 0.685458
0.082756177 -0.016502939 0.68544436
0.082847938 -0.016483981 0.68542975
0.082946278 -0.016463662 0.68541408
0.083051682 -0.016441885 0.68539727
0.08316464 -0.016418545 0.68537927
0.083285712 -0.016393531 0.68535995
0.083415456 -0.016366724 0.68533927
0.083554484 -0.016337998 0.6853171
0.083703429 -0.016307225 0.68529332
0.083862945 -0.016274266 0.68526793
0.08403372 -0.016238982 0.68524069
0.084216423 -0.016201233 0.68521154
0.084411733 -0.016160879 0.68518043
0.084620319 -0.016117783 0.68514717
0.084842809 -0.016071813 0.68511164
0.085079804 -0.016022848 0.68507385
0.08533185 -0.015970772 0.68503368
0.085599437 -0.015915485 0.684991
0.085882984 -0.015856899 0.68494582
0.086182863 -0.01579494 0.68489802
0.086499333 -0.015729548 0.68484753
0.086832605 -0.015660677 0.68479443
0.087182783 -0.015588273 0.68473864
0.087549895 -0.015512247 0.68468034
0.087933779 -0.015432332 0.68461978
0.08833392 -0.015347676 0.68455827
0.088990584 -0.015196734 0.68447095
0.089636452 -0.014971358 0.68447256
0.090075977 -0.014061522 0.68533456
0.090077691 -0.013762549 0.68567413
0.080447368 -0.016930083 0.68586928
0.080373503 -0.016945345 0.68588102
0.080294326 -0.016961703 0.68589365
0.080209471 -0.016979234 0.68590719
0.080118529 -0.016998025 0.68592167
0.080021061 -0.017018164 0.68593723
0.079916589 -0.017039748 0.68595392
0.079804629 -0.017062882 0.68597174
0.07968463 -0.017087674 0.68599087
0.079556033 -0.017114244 0.68601137
0.079418235 -0.017142715 0.68603337
0.079270609 -0.017173216 0.68605691
0.0791125 -0.017205885 0.68608212
0.078943238 -0.017240856 0.68610907
0.078762151 -0.017278271 0.68613797
0.07856857 -0.017318267 0.68616885
0.078361832 -0.017360982 0.68620181
0.078141309 -0.017406546 0.68623698
0.077906415 -0.017455077 0.68627441
0.077656597 -0.017506693 0.68631423
0.077391379 -0.01756149 0.68635654
0.077110335 -0.017619558 0.68640131
0.076813117 -0.017680965 0.68644875
0.07649944 -0.017745771 0.68649876
0.076169118 -0.017814005 0.68655145
0.075822033 -0.017885666 0.68660682
0.075458169 -0.017960671 0.68666506
0.075077645 -0.018038698 0.68672639
0.074680954 -0.018118694 0.6867919
0.074029393 -0.018238185 0.68691301
0.073384948 -0.018280217 0.68711942
0.072911069 -0.017566351 0.68811882
0.07289543 -0.017273605 0.68845814
0.080184147 -0.0058085751 0.69863003
0.080110274 -0.0058238376 0.69864178
0.080031104 -0.0058401953 0.69865441
0.07994625 -0.0058577275 0.69866794
0.079855308 -0.0058765179 0.69868243
0.079757832 -0.0058966568 0.69869798
0.079653367 -0.0059182411 0.69871461
0.0795414 -0.0059413747 0.6987325
0.079421408 -0.0059661674 0.69875163
0.079292811 -0.0059927371 0.69877213
0.079155013 -0.0060212077 0.69879413
0.079007387 -0.0060517094 0.69881761
0.078849278 -0.0060843769 0.69884282
0.078680016 -0.0061193481 0.69886982
0.07849893 -0.0061567631 0.69889873
0.078305341 -0.0061967601 0.69892955
0.07809861 -0.0062394748 0.69896251
0.077878088 -0.0062850374 0.69899768
0.077643186 -0.00633357 0.69903517
0.077393375 -0.0063851853 0.69907498
0.077128157 -0.0064399829 0.69911724
0.076847114 -0.0064980504 0.69916207
0.076549888 -0.0065594609 0.69920945
0.076236218 -0.006624274 0.69925946
0.075905897 -0.0066925366 0.69931215
0.075558819 -0.0067642992 0.6993674
0.075194955 -0.006839653 0.69942522
0.074814461 -0.0069188606 0.69948524
0.074417867 -0.0070027676 0.69954622
0.073767014 -0.0071523739 0.69963276
0.07312686 -0.0073757563 0.69963115
0.072691217 -0.008277542 0.69877678
0.072689526 -0.0085738683 0.69844019
0.082242571 -0.0053832778 0.69830179
0.082316443 -0.0053680153 0.69829005
0.082395613 -0.005351657 0.69827741
0.082480468 -0.0053341249 0.69826388
0.082571417 -0.0053153345 0.6982494
0.082668886 -0.0052951956 0.69823384
0.082773358 -0.0052736113 0.69821715
0.082885318 -0.0052504782 0.69819933
0.083005317 -0.0052256854 0.6981802
0.083133914 -0.0051991157 0.69815969
0.083271705 -0.0051706452 0.6981377
0.083419338 -0.0051401434 0.69811416
0.083577447 -0.0051074759 0.69808894
0.083746701 -0.0050725043 0.698062
0.083927795 -0.0050350893 0.69803309
0.084121376 -0.0049950923 0.69800222
0.084328115 -0.0049523776 0.69796926
0.084548637 -0.004906815 0.69793409
0.084783532 -0.0048582824 0.69789666
0.08503335 -0.0048066676 0.69785684
0.085298568 -0.0047518699 0.69781452
0.085579611 -0.0046938024 0.69776976
0.08587683 -0.0046323938 0.69772232
0.086190499 -0.0045675896 0.69767231
0.086520821 -0.0044993553 0.69761962
0.086867906 -0.0044276938 0.69756424
0.087231778 -0.0043526893 0.69750601
0.087612294 -0.0042746621 0.69744468
0.088008985 -0.0041946648 0.69737917
0.088660553 -0.0040751742 0.69725811
0.089304999 -0.0040331427 0.69705164
