# .PCD v0.7 - Point Cloud Data file format
VERSION 0.7
FIELDS x y z rgba
SIZE 4 4 4 4
TYPE F F F U
COUNT 1 1 1 1
WIDTH 1037
HEIGHT 1
VIEWPOINT 0 0 0 1 0 0 0
POINTS 1037
DATA ascii
0.045858156 0.0028307503 0.65000004 4281008128
0.047062747 0.0028351052 0.65100002 4282714117
0.048196789 0.0028351052 0.65100002 4286971904
0.049255054 0.0028307503 0.65000004 4288482821
0.050387356 0.0028307503 0.65000004 4289469207
0.051519655 0.0028307503 0.65000004 4289535001
0.052570954 0.0028263954 0.64900005 4291039497
0.053701513 0.0028263954 0.64900005 4292092442
0.054832067 0.0028263954 0.64900005 4292292131
0.05596263 0.0028263954 0.64900005 4292160545
0.057093184 0.0028263954 0.64900005 4292420137
0.058223747 0.0028263954 0.64900005 4292156709
0.059354302 0.0028263954 0.64900005 4292349225
0.060484864 0.0028263954 0.64900005 4291297304
0.061615419 0.0028263954 0.64900005 4292214810
0.062745981 0.0028263954 0.64900005 4293198889
0.063581266 0.0028133302 0.64600003 4292739102
0.064706594 0.0028133302 0.64600003 4292411417
0.065831929 0.0028133302 0.64600003 4292542480
0.066957258 0.0028133302 0.64600003 4292476943
0.068082593 0.0028133302 0.64600003 4292542464
0.069315054 0.0028176853 0.64700001 4292542464
0.070442133 0.0028176853 0.64700001 4292608000
0.071569204 0.0028176853 0.64700001 4292673536
0.072921 0.0028263954 0.64900005 4292608000
0.074051559 0.0028263954 0.64900005 4292673536
0.074950427 0.0028176853 0.64700001 4292739344
0.076077498 0.0028176853 0.64700001 4293002260
0.077085249 0.0028133302 0.64600003 4292740098
0.078210585 0.0028133302 0.64600003 4291756032
0.079458728 0.0028176853 0.64700001 4292149248
0.08083491 0.0028263954 0.64900005 4292673536
0.081965461 0.0028263954 0.64900005 4291887872
0.083096027 0.0028263954 0.64900005 4292019456
0.084226578 0.0028263954 0.64900005 4291887872
0.085357144 0.0028263954 0.64900005 4291887872
0.086221173 0.0028176853 0.64700001 4291887370
0.087348245 0.0028176853 0.64700001 4291887370
0.088475317 0.0028176853 0.64700001 4291952657
0.089602388 0.0028176853 0.64700001 4291821582
0.09072946 0.0028176853 0.64700001 4292018184
0.091856539 0.0028176853 0.64700001 4291821574
0.092983618 0.0028176853 0.64700001 4292214784
0.094401605 0.0028263954 0.64900005 4291887104
0.095532164 0.0028263954 0.64900005 4291690496
0.096662723 0.0028263954 0.64900005 4292347392
0.097491905 0.0028176853 0.64700001 4291583528
0.043593556 0.0039630504 0.65000004 4290421375
0.044725854 0.0039630504 0.65000004 4278452224
0.045858156 0.0039630504 0.65000004 4278321152
0.046990458 0.0039630504 0.65000004 4280027142
0.048122756 0.0039630504 0.65000004 4283170816
0.049255054 0.0039630504 0.65000004 4283236352
0.050387356 0.0039630504 0.65000004 4284350464
0.051519655 0.0039630504 0.65000004 4284612608
0.052570954 0.0039569535 0.64900005 4285530112
0.053701513 0.0039569535 0.64900005 4285661184
0.054832067 0.0039569535 0.64900005 4286775296
0.05596263 0.0039569535 0.64900005 4287955201
0.057093184 0.0039569535 0.64900005 4288937984
0.058223747 0.0039569535 0.64900005 4290252294
0.059354302 0.0039569535 0.64900005 4290185489
0.060484864 0.0039569535 0.64900005 4289724938
0.061615419 0.0039569535 0.64900005 4291564032
0.06245593 0.0039386624 0.64600003 4292156166
0.063581266 0.0039386624 0.64600003 4292547862
0.064706594 0.0039386624 0.64600003 4292284433
0.06573002 0.0039325655 0.64500004 4292479518
0.066853613 0.0039325655 0.64500004 4291953174
0.068082593 0.0039386624 0.64600003 4292280320
0.069207922 0.0039386624 0.64600003 4292214784
0.070442133 0.0039447597 0.64700001 4292542464
0.071569204 0.0039447597 0.64700001 4292345856
0.072921 0.0039569535 0.64900005 4292476928
0.073709257 0.0039386624 0.64600003 4292608000
0.074834585 0.0039386624 0.64600003 4292476928
0.075959921 0.0039386624 0.64600003 4292673536
0.077085249 0.0039386624 0.64600003 4292346112
0.078210585 0.0039386624 0.64600003 4291297280
0.079335913 0.0039386624 0.64600003 4291493888
0.0805858 0.0039447597 0.64700001 4292149257
0.081712872 0.0039447597 0.64700001 4291887370
0.082839943 0.0039447597 0.64700001 4291821576
0.083967015 0.0039447597 0.64700001 4291887111
0.085094094 0.0039447597 0.64700001 4291887111
0.086087905 0.0039386624 0.64600003 4291887370
0.087213241 0.0039386624 0.64600003 4291821576
0.088338569 0.0039386624 0.64600003 4291887128
0.089602388 0.0039447597 0.64700001 4291887128
0.09072946 0.0039447597 0.64700001 4292083728
0.091714568 0.0039386624 0.64600003 4291821580
0.092839897 0.0039386624 0.64600003 4292280832
0.093965232 0.0039386624 0.64600003 4291821568
0.095090561 0.0039386624 0.64600003 4291690496
0.096215896 0.0039386624 0.64600003 4294916658
0.043593556 0.0050953506 0.65000004 4289238886
0.044725854 0.0050953506 0.65000004 4278321152
0.045858156 0.0050953506 0.65000004 4278190080
0.046990458 0.0050953506 0.65000004 4278388740
0.048122756 0.0050953506 0.65000004 4278192384
0.049255054 0.0050953506 0.65000004 4278190592
0.050387356 0.0050953506 0.65000004 4278190080
0.051519655 0.0050953506 0.65000004 4278190080
0.052651957 0.0050953506 0.65000004 4278190080
0.053701513 0.0050875116 0.64900005 4278190080
0.054832067 0.0050875116 0.64900005 4280745984
0.05596263 0.0050875116 0.64900005 4281073664
0.057093184 0.0050875116 0.64900005 4284612608
0.058223747 0.0050875116 0.64900005 4286123268
0.059171394 0.0050718333 0.64700001 4288026127
0.060205266 0.0050639943 0.64600003 4288026127
0.061330598 0.0050639943 0.64600003 4290318874
0.06245593 0.0050639943 0.64600003 4292358201
0.063482843 0.0050561554 0.64500004 4292159528
0.064606428 0.0050561554 0.64500004 4292356906
0.06573002 0.0050561554 0.64500004 4292620342
0.066853613 0.0050561554 0.64500004 4291896875
0.067977205 0.0050561554 0.64500004 4292483354
0.069207922 0.0050639943 0.64600003 4292154132
0.070333257 0.0050639943 0.64600003 4292478725
0.071458586 0.0050639943 0.64600003 4292215297
0.072471559 0.0050561554 0.64500004 4292411392
0.073595151 0.0050561554 0.64500004 4292345856
0.074602902 0.0050483169 0.64400005 4292411393
0.075724751 0.0050483169 0.64400005 4292673542
0.076965928 0.0050561554 0.64500004 4292149248
0.078089513 0.0050561554 0.64500004 4291100672
0.079213105 0.0050561554 0.64500004 4291297280
0.080461249 0.0050639943 0.64600003 4292018176
0.081586577 0.0050639943 0.64600003 4291821571
0.082711913 0.0050639943 0.64600003 4291821571
0.083837241 0.0050639943 0.64600003 4291756034
0.084831052 0.0050561554 0.64500004 4291821571
0.085954644 0.0050561554 0.64500004 4291887117
0.087078236 0.0050561554 0.64500004 4291887117
0.088201828 0.0050561554 0.64500004 4291887125
0.089325421 0.0050561554 0.64500004 4291690515
0.090589233 0.0050639943 0.64600003 4292149255
0.091714568 0.0050639943 0.64600003 4292083718
0.092839897 0.0050639943 0.64600003 4292346887
0.093965232 0.0050639943 0.64600003 4291493888
0.095090561 0.0050639943 0.64600003 4291756811
0.096215896 0.0050639943 0.64600003 4294917958
0.097190544 0.0050561554 0.64500004 4291521853
0.043660622 0.0062372317 0.65100002 4287922772
0.044794664 0.0062372317 0.65100002 4278255616
0.045928705 0.0062372317 0.65100002 4278190080
0.047062747 0.0062372317 0.65100002 4279507475
0.048196789 0.0062372317 0.65100002 4279311879
0.049330831 0.0062372317 0.65100002 4279311879
0.050464876 0.0062372317 0.65100002 4278982915
0.051519655 0.0062276507 0.65000004 4278982915
0.052651957 0.0062276507 0.65000004 4278982411
0.053701513 0.0062180697 0.64900005 4278587909
0.054832067 0.0062180697 0.64900005 4279702027
0.05596263 0.0062180697 0.64900005 4279109633
0.057093184 0.0062180697 0.64900005 4281466880
0.058044314 0.0061989073 0.64700001 4281729024
0.059171394 0.0061989073 0.64700001 4283301888
0.060205266 0.0061893268 0.64600003 4283236352
0.061330598 0.0061893268 0.64600003 4284809216
0.062359251 0.0061797458 0.64500004 4285071360
0.063482843 0.0061797458 0.64500004 4286644224
0.064606428 0.0061797458 0.64500004 4287037440
0.06573002 0.0061797458 0.64500004 4288610304
0.066853613 0.0061797458 0.64500004 4289988358
0.067871809 0.0061701648 0.64400005 4290446860
0.068993658 0.0061701648 0.64400005 4290512653
0.070115514 0.0061701648 0.64400005 4291764224
0.071237363 0.0061701648 0.64400005 4291698432
0.072359204 0.0061701648 0.64400005 4292349952
0.073366947 0.0061605833 0.64300001 4292415744
0.074487053 0.0061605833 0.64300001 4292414727
0.075724751 0.0061701648 0.64400005 4292480520
0.0768466 0.0061701648 0.64400005 4291956992
0.078089513 0.0061797458 0.64500004 4290314240
0.079213105 0.0061797458 0.64500004 4291362825
0.080461249 0.0061893268 0.64600003 4292149270
0.081586577 0.0061893268 0.64600003 4291690496
0.082583874 0.0061797458 0.64500004 4291624960
0.083707467 0.0061797458 0.64500004 4291690506
0.084831052 0.0061797458 0.64500004 4291690506
0.085821383 0.0061701648 0.64400005 4291756051
0.08680822 0.0061605833 0.64300001 4291756051
0.087928332 0.0061605833 0.64300001 4291887108
0.089186929 0.0061701648 0.64400005 4291821571
0.090308778 0.0061701648 0.64400005 4292083721
0.091430627 0.0061701648 0.64400005 4292214796
0.092696182 0.0061797458 0.64500004 4292412930
0.093819775 0.0061797458 0.64500004 4291690496
0.094943367 0.0061797458 0.64500004 4291297282
0.096066959 0.0061797458 0.64500004 4294921554
0.097190544 0.0061797458 0.64500004 4292447332
0.044794664 0.0073712738 0.65100002 4278190080
0.045928705 0.0073712738 0.65100002 4278190080
0.047062747 0.0073712738 0.65100002 4279311373
0.048196789 0.0073712738 0.65100002 4279246336
0.049330831 0.0073712738 0.65100002 4279180544
0.050464876 0.0073712738 0.65100002 4278917121
0.051598914 0.0073712738 0.65100002 4278982915
0.052651957 0.0073599513 0.65000004 4279048460
0.053701513 0.0073486278 0.64900005 4278982411
0.054832067 0.0073486278 0.64900005 4278195972
0.05596263 0.0073486278 0.64900005 4278194432
0.057093184 0.0073486278 0.64900005 4278194688
0.058044314 0.0073259817 0.64700001 4278194432
0.059171394 0.0073259817 0.64700001 4278192128
0.060205266 0.0073146592 0.64600003 4278190592
0.061330598 0.0073146592 0.64600003 4278190080
0.062359251 0.0073033357 0.64500004 4278190080
0.063482843 0.0073033357 0.64500004 4278452224
0.064606428 0.0073033357 0.64500004 4279173120
0.065831929 0.0073146592 0.64600003 4283891712
0.066853613 0.0073033357 0.64500004 4284678144
0.067871809 0.0072920131 0.64400005 4287954944
0.068993658 0.0072920131 0.64400005 4290125586
0.070115514 0.0072920131 0.64400005 4290320139
0.071237363 0.0072920131 0.64400005 4290451726
0.072246842 0.0072806897 0.64300001 4291761412
0.073366947 0.0072806897 0.64300001 4292682514
0.074487053 0.0072806897 0.64300001 4292815658
0.075607158 0.0072806897 0.64300001 4292815658
0.076727271 0.0072806897 0.64300001 4292027928
0.077968448 0.0072920131 0.64400005 4289988352
0.079213105 0.0073033357 0.64500004 4291297290
0.080336697 0.0073033357 0.64500004 4292085525
0.08146029 0.0073033357 0.64500004 4291821568
0.082583874 0.0073033357 0.64500004 4291690496
0.083577693 0.0072920131 0.64400005 4291559440
0.084699541 0.0072920131 0.64400005 4291559440
0.085688114 0.0072806897 0.64300001 4291559448
0.08680822 0.0072806897 0.64300001 4291559448
0.087928332 0.0072806897 0.64300001 4291821597
0.08904843 0.0072806897 0.64300001 4291756059
0.090168543 0.0072806897 0.64300001 4292149260
0.091288641 0.0072806897 0.64300001 4292542994
0.092408754 0.0072806897 0.64300001 4292346887
0.093674324 0.0072920131 0.64400005 4291428352
0.094796166 0.0072920131 0.64400005 4291035136
0.095918015 0.0072920131 0.64400005 4294927203
0.04486347 0.0085183801 0.65200001 4278190080
0.045999255 0.0085183801 0.65200001 4278190080
0.04713504 0.0085183801 0.65200001 4279246350
0.048270825 0.0085183801 0.65200001 4279245830
0.049330831 0.0085053155 0.65100002 4279180037
0.050464876 0.0085053155 0.65100002 4278982915
0.051598914 0.0085053155 0.65100002 4278982915
0.052732959 0.0085053155 0.65100002 4279048708
0.053784255 0.0084922509 0.65000004 4279048708
0.054916557 0.0084922509 0.65000004 4278656260
0.05596263 0.0084791863 0.64900005 4278656260
0.057093184 0.0084791863 0.64900005 4279049216
0.058223747 0.0084791863 0.64900005 4279049216
0.059171394 0.0084530553 0.64700001 4279049216
0.060205266 0.0084399907 0.64600003 4279180544
0.061330598 0.0084399907 0.64600003 4278917121
0.062359251 0.0084269261 0.64500004 4278522368
0.063482843 0.0084269261 0.64500004 4279111168
0.064606428 0.0084269261 0.64500004 4278848256
0.065831929 0.0084399907 0.64600003 4281270272
0.066853613 0.0084269261 0.64500004 4281401344
0.067871809 0.0084138615 0.64400005 4283170816
0.068993658 0.0084138615 0.64400005 4283367424
0.070115514 0.0084138615 0.64400005 4284809216
0.071237363 0.0084138615 0.64400005 4285005824
0.072022125 0.0083746659 0.64100003 4286185472
0.073138744 0.0083746659 0.64100003 4286382080
0.07425537 0.0083746659 0.64100003 4288151552
0.075371996 0.0083746659 0.64100003 4289725968
0.076488614 0.0083746659 0.64100003 4289527808
0.077847369 0.008400796 0.64300001 4289462272
0.078967482 0.008400796 0.64300001 4290710287
0.080212146 0.0084138615 0.64400005 4291960097
0.08146029 0.0084269261 0.64500004 4291827205
0.082455836 0.0084138615 0.64400005 4291563776
0.083577693 0.0084138615 0.64400005 4291692314
0.084568009 0.008400796 0.64300001 4291494935
0.085688114 0.008400796 0.64300001 4291624992
0.086538211 0.0083746659 0.64100003 4291624992
0.087654836 0.0083746659 0.64100003 4291624997
0.088771462 0.0083746659 0.64100003 4291624997
0.089888081 0.0083746659 0.64100003 4292019969
0.091288641 0.008400796 0.64300001 4292019969
0.092408754 0.008400796 0.64300001 4292214801
0.093528859 0.008400796 0.64300001 4291297283
0.094648965 0.008400796 0.64300001 4290580736
0.09576907 0.008400796 0.64300001 4294931812
0.046140358 0.0096837794 0.65400004 4278191104
0.04727963 0.0096837794 0.65400004 4279050506
0.048418898 0.0096837794 0.65400004 4278984976
0.049406607 0.0096541652 0.65200001 4278918927
0.050464876 0.0096393581 0.65100002 4278722309
0.051598914 0.0096393581 0.65100002 4278656260
0.052732959 0.0096393581 0.65100002 4278722309
0.053784255 0.0096245511 0.65000004 4278722309
0.054916557 0.0096245511 0.65000004 4278722309
0.056048859 0.0096245511 0.65000004 4278656260
0.057181153 0.0096245511 0.65000004 4278656768
0.058223747 0.0096097449 0.64900005 4278656768
0.059354302 0.0096097449 0.64900005 4279049216
0.060484864 0.0096097449 0.64900005 4279049216
0.061330598 0.0095653227 0.64600003 4278917121
0.06245593 0.0095653227 0.64600003 4278917121
0.063581266 0.0095653227 0.64600003 4278522624
0.064706594 0.0095653227 0.64600003 4278193408
0.065831929 0.0095653227 0.64600003 4278191616
0.066853613 0.0095505165 0.64500004 4278190080
0.067871809 0.0095357094 0.64400005 4278190080
0.068993658 0.0095357094 0.64400005 4278190080
0.070115514 0.0095357094 0.64400005 4278190080
0.071237363 0.0095357094 0.64400005 4278190080
0.072022125 0.0094912881 0.64100003 4278190080
0.073138744 0.0094912881 0.64100003 4278190080
0.07425537 0.0094912881 0.64100003 4283105280
0.075371996 0.0094912881 0.64100003 4283957248
0.076488614 0.0094912881 0.64100003 4287102976
0.077847369 0.0095209014 0.64300001 4288414721
0.078967482 0.0095209014 0.64300001 4290385942
0.08008758 0.0095209014 0.64300001 4292425781
0.081333987 0.0095357094 0.64400005 4291899433
0.082327798 0.0095209014 0.64300001 4291504675
0.083447903 0.0095209014 0.64300001 4291963430
0.084304973 0.0094912881 0.64100003 4291437085
0.085421592 0.0094912881 0.64100003 4291696148
0.086538211 0.0094912881 0.64100003 4291235597
0.087654836 0.0094912881 0.64100003 4291757858
0.088771462 0.0094912881 0.64100003 4291823651
0.089888081 0.0094912881 0.64100003 4291889166
0.091004699 0.0094912881 0.64100003 4291691531
0.092121325 0.0094912881 0.64100003 4291952648
0.093528859 0.0095209014 0.64300001 4291100672
0.094648965 0.0095209014 0.64300001 4290653214
0.09576907 0.0095209014 0.64300001 4294940553
0.047351919 0.010839596 0.65500003 4279051017
0.048492931 0.010839596 0.65500003 4278984976
0.049558163 0.010823047 0.65400004 4278721805
0.050542392 0.010789949 0.65200001 4278656260
0.051678177 0.010789949 0.65200001 4278524673
0.052813962 0.010789949 0.65200001 4278917121
0.053867001 0.0107734 0.65100002 4279048708
0.055001043 0.0107734 0.65100002 4278982915
0.056048859 0.010756851 0.65000004 4278982915
0.057181153 0.010756851 0.65000004 4278982915
0.058313459 0.010756851 0.65000004 4278982915
0.059445754 0.010756851 0.65000004 4278917121
0.060578056 0.010756851 0.65000004 4278917121
0.061330598 0.010690655 0.64600003 4278785031
0.06245593 0.010690655 0.64600003 4278785031
0.063581266 0.010690655 0.64600003 4278327552
0.064706594 0.010690655 0.64600003 4278261760
0.065831929 0.010690655 0.64600003 4278719488
0.066957258 0.010690655 0.64600003 4278588160
0.067977205 0.010674107 0.64500004 4278261760
0.069100797 0.010674107 0.64500004 4278195712
0.070115514 0.010657557 0.64400005 4278588160
0.071237363 0.010657557 0.64400005 4278719488
0.072246842 0.010641008 0.64300001 4279111168
0.073138744 0.01060791 0.64100003 4278650624
0.07425537 0.01060791 0.64100003 4280877056
0.075371996 0.01060791 0.64100003 4280942592
0.076488614 0.01060791 0.64100003 4283236352
0.077847369 0.010641008 0.64300001 4283629568
0.078967482 0.010641008 0.64300001 4285005824
0.08008758 0.010641008 0.64300001 4285333504
0.081333987 0.010657557 0.64400005 4286578688
0.082327798 0.010641008 0.64300001 4287561728
0.083188348 0.01060791 0.64100003 4288876032
0.084304973 0.01060791 0.64100003 4289862912
0.085421592 0.01060791 0.64100003 4289861888
0.086403206 0.010591362 0.64000005 4289796096
0.087518089 0.010591362 0.64000005 4291175698
0.088632971 0.010591362 0.64000005 4291175698
0.089747854 0.010591362 0.64000005 4291893273
0.090862729 0.010591362 0.64000005 4291761944
0.092121325 0.01060791 0.64100003 4291889664
0.093237944 0.01060791 0.64100003 4291297536
0.09435457 0.01060791 0.64100003 4291385166
0.095471196 0.01060791 0.64100003 4294944413
0.045345139 0.01205377 0.65900004 4278910976
0.046493113 0.01205377 0.65900004 4278192896
0.047496505 0.012017188 0.65700001 4278919429
0.048566964 0.011998896 0.65600002 4278918927
0.049709719 0.011998896 0.65600002 4278721805
0.050774951 0.011980606 0.65500003 4278722309
0.051915962 0.011980606 0.65500003 4278656260
0.052975968 0.011962316 0.65400004 4278982915
0.053949747 0.011925733 0.65200001 4278982915
0.055001043 0.011907442 0.65100002 4278982915
0.056135088 0.011907442 0.65100002 4278982915
0.057269122 0.011907442 0.65100002 4278590467
0.058313459 0.011889151 0.65000004 4278327552
0.059445754 0.011889151 0.65000004 4278916617
0.060578056 0.011889151 0.65000004 4278719238
0.061615419 0.01187086 0.64900005 4278719238
0.062552609 0.011834278 0.64700001 4278587909
0.063679688 0.011834278 0.64700001 4278588160
0.064806759 0.011834278 0.64700001 4278588160
0.065933838 0.011834278 0.64700001 4278195712
0.066957258 0.011815988 0.64600003 4278195712
0.067977205 0.011797696 0.64500004 4278195712
0.069100797 0.011797696 0.64500004 4278261760
0.070224389 0.011797696 0.64500004 4278719488
0.071347974 0.011797696 0.64500004 4278719488
0.072359204 0.011779406 0.64400005 4278588416
0.073366947 0.011761114 0.64300001 4278720000
0.074487053 0.011761114 0.64300001 4278192384
0.075607158 0.011761114 0.64300001 4278191616
0.076727271 0.011761114 0.64300001 4278194432
0.077847369 0.011761114 0.64300001 4278191872
0.078967482 0.011761114 0.64300001 4278190080
0.08008758 0.011761114 0.64300001 4278190080
0.081333987 0.011779406 0.64400005 4279762944
0.082327798 0.011761114 0.64300001 4280418304
0.083188348 0.011724533 0.64100003 4284416000
0.084304973 0.011724533 0.64100003 4285596928
0.085421592 0.011724533 0.64100003 4287763456
0.086403206 0.011706241 0.64000005 4289605645
0.087518089 0.011706241 0.64000005 4289997859
0.088632971 0.011706241 0.64000005 4289800737
0.089747854 0.011706241 0.64000005 4291632663
0.090862729 0.011706241 0.64000005 4291830299
0.091977611 0.011706241 0.64000005 4292092416
0.093237944 0.011724533 0.64100003 4292552960
0.09435457 0.011724533 0.64100003 4292112996
0.095471196 0.011724533 0.64100003 4294944921
0.044197161 0.013201748 0.65900004 4283180820
0.045345139 0.013201748 0.65900004 4278910976
0.046493113 0.013201748 0.65900004 4278193664
0.047641091 0.013201748 0.65900004 4278985476
0.048641 0.013161682 0.65700001 4278722309
0.049785491 0.013161682 0.65700001 4278722309
0.050929986 0.013161682 0.65700001 4278722309
0.051995222 0.013141649 0.65600002 4278722309
0.055254504 0.013101583 0.65400004 4278982915
0.056221314 0.013061517 0.65200001 4278982915
0.057357095 0.013061517 0.65200001 4278590467
0.058403168 0.013041484 0.65100002 4278590467
0.059537213 0.013041484 0.65100002 4278655762
0.060671255 0.013041484 0.65100002 4278523919
0.061805293 0.013041484 0.65100002 4278327047
0.062842652 0.013021451 0.65000004 4278327047
0.063974962 0.013021451 0.65000004 4278588416
0.065107264 0.013021451 0.65000004 4278588416
0.066239558 0.013021451 0.65000004 4278195712
0.067268208 0.013001419 0.64900005 4278195712
0.068082593 0.012941319 0.64600003 4278195712
0.069207922 0.012941319 0.64600003 4278195712
0.070333257 0.012941319 0.64600003 4278785536
0.071347974 0.012921287 0.64500004 4278785536
0.072359204 0.012901254 0.64400005 4278785536
0.073481053 0.012901254 0.64400005 4278785536
0.074487053 0.01288122 0.64300001 4278785536
0.075607158 0.01288122 0.64300001 4278982915
0.076727271 0.01288122 0.64300001 4279180544
0.077847369 0.01288122 0.64300001 4278785792
0.079090297 0.012901254 0.64400005 4278195972
0.080212146 0.012901254 0.64400005 4278194432
0.081333987 0.012901254 0.64400005 4279438598
0.082455836 0.012901254 0.64400005 4279109633
0.083188348 0.012841155 0.64100003 4281401344
0.084304973 0.012841155 0.64100003 4281532416
0.085421592 0.012841155 0.64100003 4283367424
0.086538211 0.012841155 0.64100003 4283498496
0.087518089 0.012821122 0.64000005 4284743680
0.088632971 0.012821122 0.64000005 4285005824
0.089747854 0.012821122 0.64000005 4286119936
0.090862729 0.012821122 0.64000005 4286119936
0.091977611 0.012821122 0.64000005 4286447616
0.093092494 0.012821122 0.64000005 4292035650
0.09435457 0.012841155 0.64100003 4291265143
0.095471196 0.012841155 0.64100003 4294225828
0.044264227 0.014371501 0.66000003 4282457090
0.045413945 0.014371501 0.66000003 4278910976
0.046563666 0.014371501 0.66000003 4278193920
0.047713384 0.014371501 0.66000003 4278788354
0.048863105 0.014371501 0.66000003 4278722309
0.050012823 0.014371501 0.66000003 4278919431
0.051162545 0.014371501 0.66000003 4278590467
0.052233003 0.014349726 0.65900004 4278656260
0.053380981 0.014349726 0.65900004 4278656768
0.054528963 0.014349726 0.65900004 4278722560
0.058403168 0.014175527 0.65100002 4278327552
0.059537213 0.014175527 0.65100002 4278524928
0.060671255 0.014175527 0.65100002 4278524928
0.061805293 0.014175527 0.65100002 4278524673
0.062939338 0.014175527 0.65100002 4278327552
0.063974962 0.014153751 0.65000004 4278785792
0.065107264 0.014153751 0.65000004 4278785792
0.066239558 0.014153751 0.65000004 4278719488
0.06737186 0.014153751 0.65000004 4278785536
0.068398766 0.014131976 0.64900005 4278719488
0.069315054 0.014088427 0.64700001 4278785536
0.070333257 0.014066652 0.64600003 4278588160
0.071347974 0.014044877 0.64500004 4278785536
0.072471559 0.014044877 0.64500004 4278720000
0.073481053 0.014023103 0.64400005 4278720000
0.074602902 0.014023103 0.64400005 4278785536
0.075724751 0.014023103 0.64400005 4278982915
0.0768466 0.014023103 0.64400005 4278982915
0.077968448 0.014023103 0.64400005 4279048708
0.079090297 0.014023103 0.64400005 4278785031
0.080212146 0.014023103 0.64400005 4278719238
0.081333987 0.014023103 0.64400005 4278456066
0.082455836 0.014023103 0.64400005 4278258688
0.083188348 0.013957777 0.64100003 4278191616
0.084304973 0.013957777 0.64100003 4278190592
0.085421592 0.013957777 0.64100003 4278190080
0.086538211 0.013957777 0.64100003 4278190080
0.087654836 0.013957777 0.64100003 4278190080
0.088632971 0.013936003 0.64000005 4278190080
0.089747854 0.013936003 0.64000005 4278190080
0.090862729 0.013936003 0.64000005 4278190080
0.091977611 0.013936003 0.64000005 4280287232
0.093092494 0.013936003 0.64000005 4288046179
0.094207376 0.013936003 0.64000005 4290615408
0.095322251 0.013936003 0.64000005 4294299816
0.044264227 0.015521223 0.66000003 4281533440
0.045482755 0.015544738 0.66100001 4279304192
0.046634216 0.015544738 0.66100001 4278195200
0.047713384 0.015521223 0.66000003 4278723072
0.048863105 0.015521223 0.66000003 4278722309
0.050012823 0.015521223 0.66000003 4278919431
0.051162545 0.015521223 0.66000003 4278722560
0.052312266 0.015521223 0.66000003 4278656768
0.053461984 0.015521223 0.66000003 4278656768
0.054611705 0.015521223 0.66000003 4278590720
0.055676941 0.015497705 0.65900004 4278459403
0.058492877 0.015333085 0.65200001 4278191872
0.059628662 0.015333085 0.65200001 4278191104
0.060764447 0.015333085 0.65200001 4278392070
0.061900232 0.015333085 0.65200001 4278261760
0.063036017 0.015333085 0.65200001 4278327552
0.064073384 0.015309568 0.65100002 4278719488
0.065207422 0.015309568 0.65100002 4278917121
0.06634146 0.015309568 0.65100002 4278524673
0.067475505 0.015309568 0.65100002 4278524673
0.068504155 0.015286052 0.65000004 4278459403
0.069529325 0.015262535 0.64900005 4278261767
0.070659883 0.015262535 0.64900005 4278261760
0.071458586 0.015191984 0.64600003 4278195712
0.072583921 0.015191984 0.64600003 4278588160
0.073595151 0.015168467 0.64500004 4278522368
0.074718744 0.015168467 0.64500004 4279111936
0.075842336 0.015168467 0.64500004 4279309569
0.0768466 0.01514495 0.64400005 4278917121
0.077968448 0.01514495 0.64400005 4278719488
0.079090297 0.01514495 0.64400005 4278917121
0.080212146 0.01514495 0.64400005 4278719488
0.081333987 0.01514495 0.64400005 4278261760
0.082455836 0.01514495 0.64400005 4278524673
0.083577693 0.01514495 0.64400005 4278785536
0.084304973 0.015074399 0.64100003 4278719488
0.085421592 0.015074399 0.64100003 4278719488
0.086538211 0.015074399 0.64100003 4278719488
0.087654836 0.015074399 0.64100003 4278719238
0.088632971 0.015050882 0.64000005 4278521860
0.089747854 0.015050882 0.64000005 4278784277
0.090862729 0.015050882 0.64000005 4278190080
0.091977611 0.015050882 0.64000005 4279894016
0.093092494 0.015050882 0.64000005 4288312172
0.094207376 0.015050882 0.64000005 4290616412
0.095322251 0.015050882 0.64000005 4294563992
0.04433129 0.0166962 0.66100001 4280811520
0.045482755 0.0166962 0.66100001 4279697408
0.046634216 0.0166962 0.66100001 4278324992
0.047785677 0.0166962 0.66100001 4279180289
0.048937138 0.0166962 0.66100001 4278722309
0.050088599 0.0166962 0.66100001 4278722309
0.051240064 0.0166962 0.66100001 4278656768
0.052391525 0.0166962 0.66100001 4278656768
0.053542987 0.0166962 0.66100001 4278656260
0.054611705 0.016670942 0.66000003 4278656260
0.055761427 0.016670942 0.66000003 4278590467
0.056911148 0.016670942 0.66000003 4278524673
0.058060866 0.016670942 0.66000003 4278195200
0.059811577 0.016519388 0.65400004 4278190080
0.060950845 0.016519388 0.65400004 4278586884
0.062090114 0.016519388 0.65400004 4278261760
0.063229382 0.016519388 0.65400004 4278261760
0.064171799 0.01646887 0.65200001 4278719488
0.065307587 0.01646887 0.65200001 4278917121
0.066443369 0.01646887 0.65200001 4278524673
0.06757915 0.01646887 0.65200001 4278524673
0.068609551 0.016443612 0.65100002 4278327047
0.069636457 0.016418351 0.65000004 4278327047
0.070768759 0.016418351 0.65000004 4278261760
0.071790442 0.016393093 0.64900005 4278195712
0.072921 0.016393093 0.64900005 4278522368
0.073823355 0.016342575 0.64700001 4278588160
0.074834585 0.016317315 0.64600003 4279111936
0.075959921 0.016317315 0.64600003 4279440899
0.076965928 0.016292058 0.64500004 4279112704
0.078089513 0.016292058 0.64500004 4278981376
0.079090297 0.016266799 0.64400005 4278917121
0.080212146 0.016266799 0.64400005 4278719488
0.08146029 0.016292058 0.64500004 4278719488
0.082455836 0.016266799 0.64400005 4278785536
0.083577693 0.016266799 0.64400005 4278917376
0.084568009 0.016241537 0.64300001 4278917376
0.085421592 0.016191021 0.64100003 4278917121
0.086538211 0.016191021 0.64100003 4278917121
0.087654836 0.016191021 0.64100003 4278917121
0.088771462 0.016191021 0.64100003 4278719488
0.089747854 0.016165763 0.64000005 4278784527
0.090862729 0.016165763 0.64000005 4278190080
0.091977611 0.016165763 0.64000005 4278190080
0.093092494 0.016165763 0.64000005 4287662209
0.094207376 0.016165763 0.64000005 4290747761
0.04433129 0.017847663 0.66100001 4278321152
0.045482755 0.017847663 0.66100001 4278321152
0.046634216 0.017847663 0.66100001 4278195200
0.047785677 0.017847663 0.66100001 4278657280
0.048937138 0.017847663 0.66100001 4278722309
0.050088599 0.017847663 0.66100001 4278722309
0.051317587 0.017874664 0.66200006 4278656768
0.052470788 0.017874664 0.66200006 4278590720
0.053542987 0.017847663 0.66100001 4278524673
0.054694451 0.017847663 0.66100001 4278590467
0.055930402 0.017874664 0.66200006 4278524673
0.056997374 0.017847663 0.66100001 4278524673
0.058148835 0.017847663 0.66100001 4278195461
0.059210587 0.017820662 0.66000003 4278193408
0.062279992 0.017712658 0.65600002 4278588160
0.063326061 0.017685656 0.65500003 4278588160
0.06436865 0.017658656 0.65400004 4278719488
0.065507919 0.017658656 0.65400004 4278719488
0.066647187 0.017658656 0.65400004 4278719488
0.067786455 0.017658656 0.65400004 4278785536
0.068714932 0.017604653 0.65200001 4278327552
0.069743596 0.017577652 0.65100002 4278327552
0.070877627 0.017577652 0.65100002 4278327552
0.071901061 0.017550653 0.65000004 4278261760
0.072921 0.017523652 0.64900005 4278588160
0.073823355 0.017469648 0.64700001 4278785536
0.074950427 0.017469648 0.64700001 4278785792
0.076077498 0.017469648 0.64700001 4278785792
0.077085249 0.017442647 0.64600003 4278785536
0.078210585 0.017442647 0.64600003 4278785536
0.079213105 0.017415646 0.64500004 4278982411
0.080336697 0.017415646 0.64500004 4278785031
0.08146029 0.017415646 0.64500004 4278785792
0.082455836 0.017388646 0.64400005 4278785792
0.083577693 0.017388646 0.64400005 4278917376
0.084568009 0.017361645 0.64300001 4278983168
0.085688114 0.017361645 0.64300001 4278917121
0.08680822 0.017361645 0.64300001 4278982915
0.087928332 0.017361645 0.64300001 4278917121
0.088771462 0.017307643 0.64100003 4278917121
0.089888081 0.017307643 0.64100003 4278981659
0.090862729 0.017280644 0.64000005 4278190080
0.091977611 0.017280644 0.64000005 4278648832
0.093092494 0.017280644 0.64000005 4289238412
0.09435457 0.017307643 0.64100003 4290617473
0.045482755 0.018999124 0.66100001 4278583296
0.046634216 0.018999124 0.66100001 4278195972
0.047785677 0.018999124 0.66100001 4278722316
0.048937138 0.018999124 0.66100001 4278722309
0.050164383 0.01902787 0.66200006 4278788102
0.051317587 0.01902787 0.66200006 4278656012
0.052470788 0.01902787 0.66200006 4278590219
0.053623993 0.01902787 0.66200006 4278524673
0.054777201 0.01902787 0.66200006 4278590467
0.056099374 0.019085353 0.66400003 4278590467
0.05708361 0.01902787 0.66200006 4278524673
0.058236811 0.01902787 0.66200006 4278393607
0.059300296 0.018999124 0.66100001 4278261765
0.060360305 0.018970381 0.66000003 4278195712
0.061416827 0.018941639 0.65900004 4278195712
0.062374927 0.018884152 0.65700001 4278327552
0.06342274 0.01885541 0.65600002 4278261760
0.064467072 0.018826667 0.65500003 4278327552
0.065608084 0.018826667 0.65500003 4278327552
0.066749088 0.018826667 0.65500003 4278719488
0.067890108 0.018826667 0.65500003 4278785536
0.068925723 0.018797925 0.65400004 4278327552
0.06985072 0.018740438 0.65200001 4278524673
0.070986502 0.018740438 0.65200001 4278719488
0.072011672 0.018711695 0.65100002 4278588160
0.073145717 0.018711695 0.65100002 4278588416
0.074279763 0.018711695 0.65100002 4278522624
0.075182118 0.01865421 0.64900005 4278456576
0.076312676 0.01865421 0.64900005 4278522368
0.07720457 0.018596722 0.64700001 4278587909
0.078331649 0.018596722 0.64700001 4278916617
0.079335913 0.018567979 0.64600003 4278327047
0.080461249 0.018567979 0.64600003 4278524425
0.081586577 0.018567979 0.64600003 4278917376
0.082711913 0.018567979 0.64600003 4278785792
0.083837241 0.018567979 0.64600003 4278327552
0.084831052 0.018539237 0.64500004 4278590467
0.085954644 0.018539237 0.64500004 4278590467
0.087078236 0.018539237 0.64500004 4278524673
0.08806508 0.018510496 0.64400005 4278982411
0.08904843 0.01848175 0.64300001 4278916617
0.089888081 0.018424265 0.64100003 4278785031
0.091004699 0.018424265 0.64100003 4278190080
0.092121325 0.018424265 0.64100003 4280287232
0.093237944 0.018424265 0.64100003 4291797147
0.046704769 0.020181073 0.66200006 4278197017
0.047857974 0.020181073 0.66200006 4278328859
0.049011178 0.020181073 0.66200006 4278656012
0.050315931 0.020242043 0.66400003 4278656012
0.051550139 0.020272527 0.66500002 4278656012
0.052629311 0.020242043 0.66400003 4278656012
0.053785998 0.020242043 0.66400003 4278524928
0.054942686 0.020242043 0.66400003 4278524928
0.056183863 0.020272527 0.66500002 4278524673
0.057256058 0.020242043 0.66400003 4278524673
0.058412749 0.020242043 0.66400003 4278524673
0.059300296 0.020150587 0.66100001 4278524673
0.060451757 0.020150587 0.66100001 4278719488
0.061510026 0.020120101 0.66000003 4278719488
0.062564805 0.020089617 0.65900004 4278719488
0.063519426 0.020028647 0.65700001 4278785536
0.064565487 0.019998163 0.65600002 4278327552
0.06570825 0.019998163 0.65600002 4278261760
0.066850998 0.019998163 0.65600002 4278261760
0.067890108 0.019967677 0.65500003 4278195712
0.069031112 0.019967677 0.65500003 4278195712
0.070064992 0.019937193 0.65400004 4278261760
0.07120426 0.019937193 0.65400004 4278588160
0.072122291 0.019876221 0.65200001 4278719488
0.073258072 0.019876221 0.65200001 4278588160
0.074279763 0.019845735 0.65100002 4278192640
0.075413801 0.019845735 0.65100002 4278191616
0.076547839 0.019845735 0.65100002 4278191616
0.078694858 0.019815253 0.65000004 4278457613
0.079704352 0.019784767 0.64900005 4278261760
0.08083491 0.019784767 0.64900005 4278195712
0.081712872 0.019723797 0.64700001 4278719488
0.082711913 0.019693311 0.64600003 4278785536
0.083837241 0.019693311 0.64600003 4278719488
0.084962577 0.019693311 0.64600003 4278719488
0.086087905 0.019693311 0.64600003 4278261760
0.087078236 0.019662827 0.64500004 4278327552
0.088201828 0.019662827 0.64500004 4278982915
0.089325421 0.019662827 0.64500004 4278917121
0.090449005 0.019662827 0.64500004 4278456066
0.091004699 0.019540887 0.64100003 4278190080
0.092121325 0.019540887 0.64100003 4280484352
0.050391711 0.021430958 0.66500002 4278590467
0.051627658 0.021463184 0.66600001 4278197771
0.052787829 0.021463184 0.66600001 4278197771
0.053948 0.021463184 0.66600001 4278524673
0.055108175 0.021463184 0.66600001 4278458880
0.056183863 0.021430958 0.66500002 4278524673
0.057342287 0.021430958 0.66500002 4278524673
0.058412749 0.021398731 0.66400003 4278917121
0.059569441 0.021398731 0.66400003 4278982915
0.06054322 0.021334277 0.66200006 4278917121
0.061603226 0.021302048 0.66100001 4278785536
0.062659748 0.021269821 0.66000003 4278524673
0.063809469 0.021269821 0.66000003 4278327552
0.064959183 0.021269821 0.66000003 4278327552
0.065808408 0.02117314 0.65700001 4278327552
0.066952907 0.02117314 0.65700001 4278261760
0.068097398 0.02117314 0.65700001 4278261760
0.069241896 0.02117314 0.65700001 4278196224
0.07038638 0.02117314 0.65700001 4278196736
0.071530879 0.02117314 0.65700001 4278261760
0.072675377 0.02117314 0.65700001 4278261760
0.076900601 0.021076461 0.65400004 4278191360
0.077801213 0.021012006 0.65200001 4278191872
0.078936994 0.021012006 0.65200001 4278326277
0.079949968 0.020979781 0.65100002 4278261760
0.081084013 0.020979781 0.65100002 4278524673
0.082091764 0.020947553 0.65000004 4278524673
0.082839943 0.020850871 0.64700001 4278524673
0.083967015 0.020850871 0.64700001 4278916617
0.084962577 0.020818643 0.64600003 4278785031
0.086087905 0.020818643 0.64600003 4278261760
0.087213241 0.020818643 0.64600003 4278261760
0.088338569 0.020818643 0.64600003 4278917121
0.089463905 0.020818643 0.64600003 4278588160
0.090589233 0.020818643 0.64600003 4278192896
0.091572598 0.020786418 0.64500004 4278190080
0.049529418 0.022725264 0.66900003 4278722309
0.05069482 0.022725264 0.66900003 4278524673
0.051782697 0.022691295 0.66800004 4278656260
0.052946351 0.022691295 0.66800004 4278590467
0.054110013 0.022691295 0.66800004 4278590467
0.055108175 0.022623356 0.66600001 4278590467
0.056268342 0.022623356 0.66600001 4278590467
0.057428516 0.022623356 0.66600001 4278590467
0.058500718 0.022589387 0.66500002 4278917121
0.059659149 0.022589387 0.66500002 4278917121
0.060726125 0.022555418 0.66400003 4278917121
0.061882816 0.022555418 0.66400003 4278588160
0.062849626 0.022487482 0.66200006 4278524673
0.063906148 0.022453511 0.66100001 4278524673
0.064959183 0.022419542 0.66000003 4278327552
0.066108905 0.022419542 0.66000003 4278327552
0.067258626 0.022419542 0.66000003 4278261760
0.068304703 0.022385575 0.65900004 4278261760
0.069452681 0.022385575 0.65900004 4278196224
0.070707783 0.022419542 0.66000003 4278196736
0.071748637 0.022385575 0.65900004 4278261760
0.072896615 0.022385575 0.65900004 4278261760
0.074044585 0.022385575 0.65900004 4278195712
0.074964359 0.022317635 0.65700001 4278195456
0.075877175 0.022249699 0.65500003 4278193920
0.077018179 0.022249699 0.65500003 4278193664
0.078159191 0.022249699 0.65500003 4278193669
0.079179138 0.02221573 0.65400004 4278194954
0.080318406 0.02221573 0.65400004 4278261760
0.081208564 0.02214779 0.65200001 4278524673
0.082344346 0.02214779 0.65200001 4278524673
0.083224058 0.022079853 0.65000004 4278524673
0.084226578 0.022045884 0.64900005 4278916617
0.085094094 0.021977944 0.64700001 4278916617
0.086221173 0.021977944 0.64700001 4278916617
0.087213241 0.021943975 0.64600003 4279048460
0.088338569 0.021943975 0.64600003 4278982411
0.089463905 0.021943975 0.64600003 4278587909
0.090589233 0.021943975 0.64600003 4278193664
0.091714568 0.021943975 0.64600003 4278190080
0.047339726 0.023962082 0.671 4278394139
0.048436314 0.023926372 0.67000002 4278591261
0.049603455 0.023926372 0.67000002 4278656260
0.05069482 0.023890661 0.66900003 4278590467
0.051860217 0.023890661 0.66900003 4278656260
0.053025614 0.023890661 0.66900003 4278656260
0.054191012 0.023890661 0.66900003 4278656260
0.055356413 0.023890661 0.66900003 4278656260
0.056437325 0.023854952 0.66800004 4278590467
0.057600979 0.023854952 0.66800004 4278590467
0.058588687 0.023783527 0.66600001 4278328320
0.059748862 0.023783527 0.66600001 4278394112
0.060817584 0.023747819 0.66500002 4278917121
0.061976008 0.023747819 0.66500002 4278982915
0.062849626 0.023640685 0.66200006 4278393607
0.064002834 0.023640685 0.66200006 4278393607
0.065057606 0.023604972 0.66100001 4278719488
0.06620907 0.023604972 0.66100001 4278719488
0.067258626 0.023569264 0.66000003 4278719488
0.068408348 0.023569264 0.66000003 4278719488
0.069558062 0.023569264 0.66000003 4278195712
0.070707783 0.023569264 0.66000003 4278195712
0.071857505 0.023569264 0.66000003 4278261760
0.072896615 0.023533551 0.65900004 4278261760
0.074044585 0.023533551 0.65900004 4278261767
0.075192563 0.023533551 0.65900004 4278195717
0.076108858 0.023462128 0.65700001 4278195712
0.077135772 0.023426417 0.65600002 4278261760
0.078278519 0.023426417 0.65600002 4278195972
0.079300202 0.023390708 0.65500003 4278195972
0.080441214 0.023390708 0.65500003 4278261760
0.081457667 0.023354996 0.65400004 4278261760
0.082596943 0.023354996 0.65400004 4278327552
0.083352096 0.023247864 0.65100002 4278327552
0.08435636 0.023212153 0.65000004 4278917121
0.085357144 0.023176441 0.64900005 4278917121
0.086487696 0.023176441 0.64900005 4278916617
0.087348245 0.02310502 0.64700001 4279179789
0.088475317 0.02310502 0.64700001 4278982411
0.089602388 0.02310502 0.64700001 4278192896
0.09072946 0.02310502 0.64700001 4278191872
0.091856539 0.02310502 0.64700001 4278190080
0.047339726 0.025130965 0.671 4278721051
0.048508607 0.025130965 0.671 4278918429
0.049677487 0.025130965 0.671 4278656260
0.050770596 0.025093513 0.67000002 4278722309
0.051937733 0.025093513 0.67000002 4278656768
0.053104874 0.025093513 0.67000002 4278656768
0.054272015 0.025093513 0.67000002 4278656260
0.055439156 0.025093513 0.67000002 4278590467
0.056521811 0.02505606 0.66900003 4278590720
0.057600979 0.025018606 0.66800004 4278590720
0.058588687 0.0249437 0.66600001 4278983168
0.059748862 0.0249437 0.66600001 4278983168
0.060909033 0.0249437 0.66600001 4278983168
0.061976008 0.024906248 0.66500002 4278983168
0.063134439 0.024906248 0.66500002 4278589715
0.064196192 0.024868796 0.66400003 4278523921
0.065156035 0.024793891 0.66200006 4278261760
0.066309236 0.024793891 0.66200006 4278261760
0.067360528 0.024756435 0.66100001 4278327552
0.068512 0.024756435 0.66100001 4278327552
0.069663458 0.024756435 0.66100001 4278327552
0.070814915 0.024756435 0.66100001 4278261760
0.071857505 0.024718983 0.66000003 4278327552
0.073007226 0.024718983 0.66000003 4278327552
0.074156947 0.024718983 0.66000003 4278589715
0.075306669 0.024718983 0.66000003 4278523921
0.07645639 0.024718983 0.66000003 4278195972
0.077488527 0.024681531 0.65900004 4278261765
0.078636505 0.024681531 0.65900004 4278459403
0.079421274 0.024569171 0.65600002 4278261767
0.080564022 0.024569171 0.65600002 4278327552
0.081582218 0.024531716 0.65500003 4278524673
0.082723238 0.024531716 0.65500003 4278261760
0.083736211 0.024494264 0.65400004 4278524673
0.084486134 0.024381904 0.65100002 4278917121
0.085488662 0.024344452 0.65000004 4278785536
0.086620957 0.024344452 0.65000004 4278785031
0.087753259 0.024344452 0.65000004 4278982411
0.088885561 0.024344452 0.65000004 4278982411
0.089879371 0.024307 0.64900005 4278192128
0.09100993 0.024307 0.64900005 4278190080
0.092140488 0.024307 0.64900005 4279050256
0.047551379 0.026417432 0.67400002 4278787350
0.048653197 0.026378239 0.67300004 4278918679
0.04982556 0.026378239 0.67300004 4278722309
0.050997928 0.026378239 0.67300004 4278722309
0.052170292 0.026378239 0.67300004 4278656768
0.053342659 0.026378239 0.67300004 4278656768
0.054353017 0.026299847 0.671 4278656768
0.055439156 0.026260654 0.67000002 4278722560
0.056606293 0.026260654 0.67000002 4278327552
0.057687208 0.026221458 0.66900003 4278195712
0.058764633 0.026182262 0.66800004 4278588416
0.059928287 0.026182262 0.66800004 4278785792
0.060909033 0.026103873 0.66600001 4278917121
0.062069207 0.026103873 0.66600001 4278982915
0.063229382 0.026103873 0.66600001 4278590467
0.06429287 0.026064677 0.66500002 4278590467
0.065451302 0.026064677 0.66500002 4278327552
0.066509567 0.026025483 0.66400003 4278524673
0.067462444 0.025947094 0.66200006 4278327552
0.068615645 0.025947094 0.66200006 4278327552
0.069768853 0.025947094 0.66200006 4278785536
0.070814915 0.025907896 0.66100001 4278785536
0.07196638 0.025907896 0.66100001 4278327552
0.073117837 0.025907896 0.66100001 4278524673
0.07426931 0.025907896 0.66100001 4278393607
0.075420767 0.025907896 0.66100001 4278393607
0.07645639 0.025868703 0.66000003 4278524673
0.077606112 0.025868703 0.66000003 4278524673
0.078755833 0.025868703 0.66000003 4278459403
0.079784483 0.025829509 0.65900004 4278393353
0.08068683 0.025751118 0.65700001 4278524673
0.081706777 0.025711922 0.65600002 4278524673
0.082849525 0.025711922 0.65600002 4278524673
0.083864242 0.025672728 0.65500003 4278590467
0.084615916 0.025555141 0.65200001 4278590467
0.08562018 0.025515947 0.65100002 4278590467
0.086754225 0.025515947 0.65100002 4278590467
0.087888263 0.025515947 0.65100002 4278524673
0.088885561 0.025476754 0.65000004 4278982411
0.090017863 0.025476754 0.65000004 4278190592
0.091150165 0.025476754 0.65000004 4278190080
0.092140488 0.025437558 0.64900005 4279771928
0.047621928 0.027632477 0.67500001 4279377168
0.048797779 0.027632477 0.67500001 4279311375
0.049899593 0.027591541 0.67400002 4278722309
0.0510737 0.027591541 0.67400002 4278722309
0.052247811 0.027591541 0.67400002 4278722309
0.053421922 0.027591541 0.67400002 4278656260
0.054515027 0.027550604 0.67300004 4278656768
0.055521898 0.02746873 0.671 4278590720
0.056690779 0.02746873 0.671 4278195712
0.057773434 0.027427793 0.67000002 4278193920
0.058852602 0.027386855 0.66900003 4278190080
0.060018007 0.027386855 0.66900003 4278190336
0.061091948 0.02734592 0.66800004 4278191616
0.062255606 0.02734592 0.66800004 4278786578
0.063229382 0.027264044 0.66600001 4278590720
0.064389549 0.027264044 0.66600001 4278590720
0.065549724 0.027264044 0.66600001 4278590720
0.066709898 0.027264044 0.66600001 4278327808
0.067666255 0.027182171 0.66400003 4278327552
0.068822943 0.027182171 0.66400003 4278327552
0.06997963 0.027182171 0.66400003 4278261760
0.070922062 0.027100299 0.66200006 4278195712
0.072075263 0.027100299 0.66200006 4278720000
0.073228464 0.027100299 0.66200006 4278720000
0.074381672 0.027100299 0.66200006 4278785536
0.075420767 0.027059359 0.66100001 4278917121
0.076572232 0.027059359 0.66100001 4278917376
0.077606112 0.027018422 0.66000003 4278917376
0.078755833 0.027018422 0.66000003 4278524673
0.079905547 0.027018422 0.66000003 4278524673
0.080932461 0.026977487 0.65900004 4278524928
0.081831329 0.026895611 0.65700001 4278327808
0.08297582 0.026895611 0.65700001 4278524673
0.08399228 0.026854673 0.65600002 4278524673
0.084875479 0.026772803 0.65400004 4278917121
0.085751697 0.026690926 0.65200001 4278917121
0.086887486 0.026690926 0.65200001 4278982915
0.087888263 0.026649989 0.65100002 4278982915
0.089022301 0.026649989 0.65100002 4278656012
0.090156347 0.026649989 0.65100002 4278190080
0.091290392 0.026649989 0.65100002 4278190080
0.092424437 0.026649989 0.65100002 4283520592
0.046583697 0.028893689 0.67700005 4279113229
0.047763035 0.028893689 0.67700005 4279377168
0.048942365 0.028893689 0.67700005 4279311375
0.049973629 0.028808327 0.67500001 4278722309
0.05114948 0.028808327 0.67500001 4278722309
0.052325331 0.028808327 0.67500001 4278722309
0.053501178 0.028808327 0.67500001 4278722309
0.054596029 0.028765649 0.67400002 4278656768
0.061274853 0.028594933 0.67000002 4278191360
0.062348798 0.028552255 0.66900003 4278655751
0.063514203 0.028552255 0.66900003 4278590720
0.064582914 0.028509576 0.66800004 4278590720
0.065746568 0.028509576 0.66800004 4278524673
0.067010395 0.028552255 0.66900003 4278327552
0.068175793 0.028552255 0.66900003 4278524673
0.069030233 0.028424215 0.66600001 4278261760
0.070085026 0.02838154 0.66500002 4278261760
0.071136318 0.028338861 0.66400003 4278261760
0.072293013 0.028338861 0.66400003 4278196736
0.073449694 0.028338861 0.66400003 4278262528
0.074606389 0.028338861 0.66400003 4278785536
0.075534873 0.028253503 0.66200006 4278982915
0.076688074 0.028253503 0.66200006 4278917376
0.077723689 0.028210821 0.66100001 4278917376
0.078875154 0.028210821 0.66100001 4278524928
0.079905547 0.028168142 0.66000003 4278524928
0.081055269 0.028168142 0.66000003 4278524928
0.08220499 0.028168142 0.66000003 4278327808
0.083228417 0.028125463 0.65900004 4278524673
0.084120318 0.028040105 0.65700001 4278327552
0.085135035 0.027997427 0.65600002 4278327552
0.086014748 0.027912069 0.65400004 4278590467
0.087154008 0.027912069 0.65400004 4278917121
0.088293284 0.027912069 0.65400004 4278917121
0.089432552 0.027912069 0.65400004 4278919431
0.090294831 0.02782671 0.65200001 4278190080
0.091290392 0.027784033 0.65100002 4278190080
0.092424437 0.027784033 0.65100002 4285889142
0.04547143 0.030117443 0.67800003 4278190080
0.046652507 0.030117443 0.67800003 4279573268
0.047833584 0.030117443 0.67800003 4279377672
0.049014658 0.030117443 0.67800003 4279377672
0.050195735 0.030117443 0.67800003 4278919681
0.051376812 0.030117443 0.67800003 4278919681
0.05248037 0.030073019 0.67700005 4278787598
0.053659704 0.030073019 0.67700005 4278721805
0.054839041 0.030073019 0.67700005 4278656768
0.055852879 0.029984176 0.67500001 4278590720
0.057028726 0.029984176 0.67500001 4278590720
0.058377039 0.030073019 0.67700005 4278590720
0.063609131 0.029762074 0.67000002 4278590720
0.064776279 0.029762074 0.67000002 4278590720
0.065943412 0.029762074 0.67000002 4278328320
