# .PCD v0.7 - Point Cloud Data file format
VERSION 0.7
FIELDS x y z rgba
SIZE 4 4 4 4
TYPE F F F U
COUNT 1 1 1 1
WIDTH 1023
HEIGHT 1
VIEWPOINT 0 0 0 1 0 0 0
POINTS 1023
DATA ascii
-0.022448285 0.027890293 0.78100002 4283117351
-0.021060782 0.027854582 0.78000003 4283576381
-0.019702023 0.027854582 0.78000003 4285023828
-0.018296229 0.027783163 0.77800006 4283910267
-0.016940951 0.027783163 0.77800006 4282989165
-0.015545608 0.02771174 0.77600002 4282465094
-0.014157237 0.027640317 0.77400005 4282596680
-0.012792379 0.027604608 0.77300006 4282664783
-0.011445812 0.027604608 0.77300006 4282796369
-0.010099247 0.027604608 0.77300006 4282797153
-0.0087526804 0.027604608 0.77300006 4283060324
-0.0074061137 0.027604608 0.77300006 4282994025
-0.0060595479 0.027604608 0.77300006 4282796903
-0.0047129816 0.027604608 0.77300006 4282928232
-0.0033707705 0.027640317 0.77400005 4282599524
-0.0020224622 0.027640317 0.77400005 4282861161
-0.00067415409 0.027640317 0.77400005 4283190125
0.00067328312 0.027604608 0.77300006 4283190125
0.0020198494 0.027604608 0.77300006 4283321712
0.0033707705 0.027640317 0.77400005 4283323006
0.0047190785 0.027640317 0.77400005 4283586178
0.0060673868 0.027640317 0.77400005 4284307855
0.0074156951 0.027640317 0.77400005 4285097371
0.0087640025 0.027640317 0.77400005 4286016385
0.010138441 0.02771174 0.77600002 4285752956
0.011490233 0.02771174 0.77600002 4285160836
0.012875124 0.027783163 0.77800006 4285884302
0.014266982 0.027854582 0.78000003 4285229724
0.015625741 0.027854582 0.78000003 4282400625
0.016984502 0.027854582 0.78000003 4282990684
0.018343262 0.027854582 0.78000003 4288977847
0.02124979 0.02810456 0.78700006 4284238450
0.022649487 0.028140271 0.78800005 4282393375
0.024144122 0.028283117 0.79200006 4281998617
0.025523787 0.028283117 0.79200006 4287915085
0.026971389 0.028354537 0.79400003 4289757289
0.028354537 0.028354537 0.79400003 4288835935
0.029737685 0.028354537 0.79400003 4288506714
-0.047094107 0.030224573 0.80700004 4284765807
-0.045688309 0.030224573 0.80700004 4283844705
-0.044172771 0.030149668 0.80500007 4283056477
-0.04277046 0.030149668 0.80500007 4282990684
-0.036561102 0.02966278 0.79200006 4282332238
-0.035181437 0.02966278 0.79200006 4281806172
-0.033716414 0.029587872 0.79000002 4281148241
-0.032340232 0.029587872 0.79000002 4283376977
-0.03096405 0.029587872 0.79000002 4285943160
-0.029512968 0.029512968 0.78800005 4285614918
-0.028033137 0.029400608 0.78500003 4281140993
-0.026597731 0.029325703 0.78300005 4281599232
-0.025233746 0.029325703 0.78300005 4285809982
-0.023869758 0.029325703 0.78300005 4284632120
-0.022448285 0.029250795 0.78100002 4282395158
-0.021060782 0.029213343 0.78000003 4285090134
-0.019702023 0.029213343 0.78000003 4288971921
-0.018343262 0.029213343 0.78000003 4288053359
-0.016940951 0.029138438 0.77800006 4284632122
-0.015585676 0.029138438 0.77800006 4282202174
-0.014193818 0.02906353 0.77600002 4281741623
-0.012808928 0.028988626 0.77400005 4282465842
-0.01146062 0.028988626 0.77400005 4283058235
-0.010112311 0.028988626 0.77400005 4283189081
-0.0087640025 0.028988626 0.77400005 4283649632
-0.0074156951 0.028988626 0.77400005 4283913067
-0.0060673868 0.028988626 0.77400005 4283979117
-0.0047190785 0.028988626 0.77400005 4283849334
-0.0033794802 0.02906353 0.77600002 4283915127
-0.0020276881 0.02906353 0.77600002 4283849334
-0.00067415409 0.028988626 0.77400005 4283718005
0.00067415409 0.028988626 0.77400005 4283586680
0.0020224622 0.028988626 0.77400005 4283389558
0.0033707705 0.028988626 0.77400005 4284770438
0.0047190785 0.028988626 0.77400005 4287007657
0.0060830647 0.02906353 0.77600002 4287071885
0.0074156951 0.028988626 0.77400005 4284242786
0.0087640025 0.028988626 0.77400005 4283124078
0.010138441 0.02906353 0.77600002 4283321714
0.011490233 0.02906353 0.77600002 4283650176
0.012875124 0.029138438 0.77800006 4284044678
0.014266982 0.029213343 0.78000003 4284046475
0.015645776 0.029250795 0.78100002 4282994044
0.017049827 0.029325703 0.78300005 4283910251
0.018413812 0.029325703 0.78300005 4288778933
0.019828318 0.029400608 0.78500003 4290158764
0.021276791 0.029512968 0.78800005 4284829274
0.022706972 0.029587872 0.79000002 4282457914
0.024144122 0.02966278 0.79200006 4283050052
0.025523787 0.02966278 0.79200006 4286535481
0.026971389 0.029737685 0.79400003 4286732603
0.028354537 0.029737685 0.79400003 4286729794
-0.047094107 0.031630371 0.80700004 4284568435
-0.045688309 0.031630371 0.80700004 4283844455
-0.044282518 0.031630371 0.80700004 4283845728
-0.04277046 0.031551979 0.80500007 4283122004
-0.041368149 0.031551979 0.80500007 4282792287
-0.039866548 0.031473588 0.80300003 4282660701
-0.036653426 0.031120831 0.79400003 4282398813
-0.035181437 0.031042445 0.79200006 4281806424
-0.033801772 0.031042445 0.79200006 4281345873
-0.032340232 0.03096405 0.79000002 4283178832
-0.03096405 0.03096405 0.79000002 4285350258
-0.029512968 0.030885665 0.78800005 4285485660
-0.028033137 0.030768078 0.78500003 4283643456
-0.026665669 0.030768078 0.78500003 4280877856
-0.025298197 0.030768078 0.78500003 4283377733
-0.023869758 0.030689687 0.78300005 4283973423
-0.022505773 0.030689687 0.78300005 4282525976
-0.021060782 0.030572103 0.78000003 4285877076
-0.019702023 0.030572103 0.78000003 4290350744
-0.018343262 0.030572103 0.78000003 4289564826
-0.016940951 0.030493714 0.77800006 4286669933
-0.015585676 0.030493714 0.77800006 4283714895
-0.0142304 0.030493714 0.77800006 4282201400
-0.012842026 0.030415324 0.77600002 4282857019
-0.011490233 0.030415324 0.77600002 4282857019
-0.010138441 0.030415324 0.77600002 4282524461
-0.0087866485 0.030415324 0.77600002 4284169030
-0.0074348566 0.030415324 0.77600002 4284042841
-0.0060830647 0.030415324 0.77600002 4283977048
-0.0047312723 0.030415324 0.77600002 4283716438
-0.0033794802 0.030415324 0.77600002 4284111196
-0.0020276881 0.030415324 0.77600002 4283586667
-0.00067589607 0.030415324 0.77600002 4283455080
0.00067589607 0.030415324 0.77600002 4282996596
0.0020276881 0.030415324 0.77600002 4283654270
0.0033794802 0.030415324 0.77600002 4284901525
0.0047312723 0.030415324 0.77600002 4287138230
0.0060987426 0.030493714 0.77800006 4286744215
0.0074348566 0.030415324 0.77600002 4281678410
0.0087866485 0.030415324 0.77600002 4281085263
0.010164572 0.030493714 0.77800006 4283059309
0.011549461 0.030572103 0.78000003 4283389306
0.012924771 0.030611297 0.78100002 4283652221
0.014321854 0.030689687 0.78300005 4283587977
0.015685841 0.030689687 0.78300005 4282798461
0.017093375 0.030768078 0.78500003 4283714141
0.018460847 0.030768078 0.78500003 4288714409
0.019878836 0.030846467 0.78700006 4290488017
0.021276791 0.030885665 0.78800005 4283974510
0.022706972 0.03096405 0.79000002 4282196260
0.024144122 0.031042445 0.79200006 4283183155
0.02558824 0.031120831 0.79400003 4285157168
0.026971389 0.031120831 0.79400003 4285749561
0.028354537 0.031120831 0.79400003 4285679691
-0.045688309 0.033036161 0.80700004 4283975794
-0.044282518 0.033036161 0.80700004 4283648598
-0.04287672 0.033036161 0.80700004 4282859082
-0.041368149 0.032954291 0.80500007 4282922590
-0.039965838 0.032954291 0.80500007 4282396246
-0.035270277 0.032503981 0.79400003 4282331988
-0.033801772 0.032422107 0.79200006 4281805644
-0.032422107 0.032422107 0.79200006 4281934932
-0.03096405 0.032340232 0.79000002 4281671503
-0.029512968 0.032258362 0.78800005 4284298822
-0.02810456 0.032217424 0.78700006 4286206819
-0.026665669 0.032135546 0.78500003 4284038714
-0.025298197 0.032135546 0.78500003 4281341457
-0.023930727 0.032135546 0.78500003 4281999942
-0.022505773 0.032053676 0.78300005 4282065735
-0.021060782 0.03193086 0.78000003 4285417009
-0.019702023 0.03193086 0.78000003 4290219898
-0.018343262 0.03193086 0.78000003 4289760129
-0.016984502 0.03193086 0.78000003 4288904820
-0.015625741 0.03193086 0.78000003 4287920514
-0.014266982 0.03193086 0.78000003 4287131255
-0.012875124 0.031848989 0.77800006 4286078566
-0.011519847 0.031848989 0.77800006 4284367949
-0.010164572 0.031848989 0.77800006 4282588999
-0.0088092946 0.031848989 0.77800006 4282325826
-0.007454019 0.031848989 0.77800006 4281608486
-0.0060987426 0.031848989 0.77800006 4281016349
-0.0047434666 0.031848989 0.77800006 4281148441
-0.0033881904 0.031848989 0.77800006 4283187767
-0.0020329142 0.031848989 0.77800006 4282729547
-0.00067763811 0.031848989 0.77800006 4282202947
0.00067763811 0.031848989 0.77800006 4282205293
0.0020329142 0.031848989 0.77800006 4284442255
0.0033881904 0.031848989 0.77800006 4286214039
0.0047434666 0.031848989 0.77800006 4286148246
0.0060987426 0.031848989 0.77800006 4284309333
0.0074731805 0.03193086 0.78000003 4281151269
0.0088319406 0.03193086 0.78000003 4280696933
0.010190701 0.03193086 0.78000003 4282802308
0.011564268 0.031971801 0.78100002 4283654268
0.012957868 0.032053676 0.78300005 4284312454
0.014358437 0.032135546 0.78500003 4283851149
0.015725907 0.032135546 0.78500003 4282666875
0.017093375 0.032135546 0.78500003 4283843147
0.018507883 0.032217424 0.78700006 4288777622
0.019878836 0.032217424 0.78700006 4289304238
0.021276791 0.032258362 0.78800005 4282658889
0.022706972 0.032340232 0.79000002 4280488486
0.024144122 0.032422107 0.79200006 4281475637
0.02558824 0.032503981 0.79400003 4283909376
0.026971389 0.032503981 0.79400003 4285883164
-0.044282518 0.034441959 0.80700004 4283648348
-0.04287672 0.034441959 0.80700004 4282858832
-0.041368149 0.034356602 0.80500007 4282921825
-0.039965838 0.034356602 0.80500007 4282461274
-0.038467716 0.03427124 0.80300003 4282133851
-0.033887129 0.033887129 0.79400003 4282133851
-0.032422107 0.033801772 0.79200006 4281150036
-0.031042445 0.033801772 0.79200006 4280031812
-0.029587872 0.033716414 0.79000002 4283046974
-0.028140271 0.033631057 0.78800005 4285678437
-0.026733607 0.03358838 0.78700006 4285682773
-0.025362652 0.03358838 0.78700006 4283972411
-0.023930727 0.033503018 0.78500003 4281017394
-0.022563256 0.033503018 0.78500003 4281083187
-0.021195788 0.033503018 0.78500003 4285151748
-0.019828318 0.033503018 0.78500003 4290349395
-0.018413812 0.033417664 0.78300005 4289497475
-0.017006276 0.033332303 0.78100002 4288971130
-0.015645776 0.033332303 0.78100002 4289363324
-0.014285273 0.033332303 0.78100002 4289560447
-0.012908221 0.033289623 0.78000003 4288378741
-0.011549461 0.033289623 0.78000003 4286799710
-0.010190701 0.033289623 0.78000003 4285026876
-0.0088319406 0.033289623 0.78000003 4282724121
-0.0074731805 0.033289623 0.78000003 4283052032
-0.0061144209 0.033289623 0.78000003 4282196992
-0.0047556604 0.033289623 0.78000003 4281867008
-0.0033969004 0.033289623 0.78000003 4284235538
-0.0020381403 0.033289623 0.78000003 4283055948
-0.00067938009 0.033289623 0.78000003 4282003003
0.00067938009 0.033289623 0.78000003 4282137435
0.0020381403 0.033289623 0.78000003 4287006374
0.0033969004 0.033289623 0.78000003 4287794618
0.0047556604 0.033289623 0.78000003 4286347172
0.0061144209 0.033289623 0.78000003 4283585872
0.0074731805 0.033289623 0.78000003 4282204219
0.0088319406 0.033289623 0.78000003 4282142062
0.010203766 0.033332303 0.78100002 4283326593
0.011623496 0.033503018 0.78500003 4283392638
0.013024065 0.03358838 0.78700006 4283787396
0.014395018 0.03358838 0.78700006 4283785869
0.015765974 0.03358838 0.78700006 4282601852
0.017136928 0.03358838 0.78700006 4283445323
0.018507883 0.03358838 0.78700006 4289103521
0.019904094 0.033631057 0.78800005 4289173932
0.021276791 0.033631057 0.78800005 4282989389
0.022764459 0.033801772 0.79200006 4280754226
0.024205092 0.033887129 0.79400003 4281938244
-0.044282518 0.03584775 0.80700004 4283450974
-0.04287672 0.03584775 0.80700004 4282924630
-0.041470926 0.03584775 0.80700004 4282988131
-0.040065132 0.03584775 0.80700004 4282724959
-0.038563531 0.035758913 0.80500007 4282133599
-0.037068892 0.035670068 0.80300003 4281804890
-0.032503981 0.035270277 0.79400003 4281477972
-0.031042445 0.035181437 0.79200006 4281280593
-0.029587872 0.035092592 0.79000002 4282196818
-0.02821169 0.035092592 0.79000002 4281999440
-0.026767576 0.035003752 0.78800005 4284034630
-0.025394879 0.035003752 0.78800005 4286469227
-0.023991698 0.034959335 0.78700006 4285355538
-0.022620745 0.034959335 0.78700006 4282658048
-0.02124979 0.034959335 0.78700006 4284557312
-0.019828318 0.034870487 0.78500003 4289360455
-0.018460847 0.034870487 0.78500003 4289824881
-0.017093375 0.034870487 0.78500003 4289495659
-0.015725907 0.034870487 0.78500003 4289429088
-0.014321854 0.034781646 0.78300005 4289231708
-0.012957868 0.034781646 0.78300005 4289166695
-0.011593882 0.034781646 0.78300005 4289166695
-0.010203766 0.034692805 0.78100002 4288575839
-0.0088432636 0.034692805 0.78100002 4288312923
-0.007482762 0.034692805 0.78100002 4288575057
-0.0061222594 0.034692805 0.78100002 4288575057
-0.0047617573 0.034692805 0.78100002 4288181542
-0.0034012555 0.034692805 0.78100002 4286602510
-0.0020407531 0.034692805 0.78100002 4284435804
-0.00068025105 0.034692805 0.78100002 4283580495
0.00067938009 0.034648385 0.78000003 4283320930
0.0020381403 0.034648385 0.78000003 4287663269
0.0033969004 0.034648385 0.78000003 4288516031
0.0047617573 0.034692805 0.78100002 4286608034
0.0061222594 0.034692805 0.78100002 4283189581
0.0075019244 0.034781646 0.78300005 4282334272
0.0088659106 0.034781646 0.78300005 4282273662
0.010256026 0.034870487 0.78500003 4283260557
0.01165311 0.034959335 0.78700006 4283654018
0.013024065 0.034959335 0.78700006 4283719811
0.014395018 0.034959335 0.78700006 4283851149
0.015765974 0.034959335 0.78700006 4283324805
0.017136928 0.034959335 0.78700006 4284239983
0.018531399 0.035003752 0.78800005 4284832121
0.019954611 0.035092592 0.79000002 4284961392
-0.042982981 0.037345868 0.80900002 4283121752
-0.041470926 0.037253547 0.80700004 4282988383
-0.040065132 0.037253547 0.80700004 4282593626
-0.038659338 0.037253547 0.80700004 4282527846
-0.03716122 0.03716122 0.80500007 4282133088
-0.031120831 0.036653426 0.79400003 4281346388
-0.02966278 0.036561102 0.79200006 4281280595
-0.02821169 0.036468774 0.79000002 4279767357
-0.026835512 0.036468774 0.79000002 4283768103
-0.025459332 0.036468774 0.79000002 4287978855
-0.023991698 0.036330286 0.78700006 4286668889
-0.022620745 0.036330286 0.78700006 4283050274
-0.02124979 0.036330286 0.78700006 4283041792
-0.019878836 0.036330286 0.78700006 4287844661
-0.018507883 0.036330286 0.78700006 4289165659
-0.017136928 0.036330286 0.78700006 4289758053
-0.015725907 0.036237955 0.78500003 4289692007
-0.014358437 0.036237955 0.78500003 4289428836
-0.012990966 0.036237955 0.78500003 4289624166
-0.011623496 0.036237955 0.78500003 4289558372
-0.010256026 0.036237955 0.78500003 4289689177
-0.0088885557 0.036237955 0.78500003 4289754970
-0.0075210854 0.036237955 0.78500003 4290082384
-0.0061536157 0.036237955 0.78500003 4290280020
-0.0047739516 0.036145635 0.78300005 4289688923
-0.0034099654 0.036145635 0.78300005 4287189046
-0.0020459793 0.036145635 0.78300005 4284959075
-0.00068199309 0.036145635 0.78300005 4283906644
0.00068199309 0.036145635 0.78300005 4283649130
0.0020407531 0.036053307 0.78100002 4287794089
0.0034012555 0.036053307 0.78100002 4289307580
0.0047739516 0.036145635 0.78300005 4287860134
0.0061536157 0.036237955 0.78500003 4281750127
0.0075210854 0.036237955 0.78500003 4281157734
0.0088885557 0.036237955 0.78500003 4282536809
0.010282157 0.036330286 0.78700006 4283457910
0.01165311 0.036330286 0.78700006 4283915900
0.013040613 0.03637645 0.78800005 4283850107
0.014413309 0.03637645 0.78800005 4283915400
0.015786005 0.03637645 0.78800005 4283849607
0.017158702 0.03637645 0.78800005 4283849334
-0.041573707 0.038755149 0.80900002 4282857831
-0.040164426 0.038755149 0.80900002 4282792037
-0.038659338 0.038659338 0.80700004 4282857844
-0.03716122 0.038563531 0.80500007 4282002535
-0.031120831 0.038036574 0.79400003 4281147987
-0.02966278 0.037940763 0.79200006 4281476176
-0.028283117 0.037940763 0.79200006 4281015625
-0.026903452 0.037940763 0.79200006 4282849840
-0.025523787 0.037940763 0.79200006 4285613146
-0.024022182 0.037749145 0.78800005 4285155927
-0.022649487 0.037749145 0.78800005 4284037703
-0.021276791 0.037749145 0.78800005 4283440905
-0.019904094 0.037749145 0.78800005 4283440905
-0.018531399 0.037749145 0.78800005 4287255552
-0.017158702 0.037749145 0.78800005 4290610990
-0.015765974 0.037701242 0.78700006 4290150508
-0.014395018 0.037701242 0.78700006 4289689957
-0.013024065 0.037701242 0.78700006 4289492566
-0.01165311 0.037701242 0.78700006 4289097808
-0.010256026 0.037605431 0.78500003 4289424461
-0.0088885557 0.037605431 0.78500003 4289358668
-0.0075210854 0.037605431 0.78500003 4289227066
-0.0061536157 0.037605431 0.78500003 4289292859
-0.0047861454 0.037605431 0.78500003 4287719471
-0.0034186754 0.037605431 0.78500003 4284692994
-0.0020512051 0.037605431 0.78500003 4283320428
-0.00068373507 0.037605431 0.78500003 4282991464
0.00068373507 0.037605431 0.78500003 4283386473
0.0020459793 0.03750962 0.78300005 4286610330
0.0034099654 0.03750962 0.78300005 4288845964
0.0047861454 0.037605431 0.78500003 4289175185
0.0061536157 0.037605431 0.78500003 4287399833
0.0075402479 0.037701242 0.78700006 4284833649
0.0089112027 0.037701242 0.78700006 4284506985
0.010282157 0.037701242 0.78700006 4285165171
0.011667917 0.037749145 0.78800005 4284047483
0.013073711 0.037844952 0.79000002 4283850104
-0.041573707 0.040164426 0.80900002 4282921829
-0.040164426 0.040164426 0.80900002 4283184745
-0.038755149 0.040164426 0.80900002 4283977342
-0.037253547 0.040065132 0.80700004 4282200932
-0.035758913 0.039965838 0.80500007 4281673048
-0.031199224 0.039519019 0.79600006 4280950865
-0.029737685 0.039419722 0.79400003 4281015627
-0.028354537 0.039419722 0.79400003 4281015627
-0.026903452 0.039320432 0.79200006 4280948033
-0.025523787 0.039320432 0.79200006 4283119201
-0.024083152 0.039221134 0.79000002 4283844707
-0.022706972 0.039221134 0.79000002 4283713378
-0.021330791 0.039221134 0.79000002 4283642425
-0.019954611 0.039221134 0.79000002 4281405463
-0.018578431 0.039221134 0.79000002 4285738752
-0.017202251 0.039221134 0.79000002 4290607422
-0.015786005 0.039121844 0.78800005 4289886818
-0.014413309 0.039121844 0.78800005 4289821025
-0.013024065 0.039072197 0.78700006 4289624152
-0.01165311 0.039072197 0.78700006 4289229395
-0.010282157 0.039072197 0.78700006 4289293904
-0.0089112027 0.039072197 0.78700006 4289359953
-0.0075402479 0.039072197 0.78700006 4289031754
-0.006169294 0.039072197 0.78700006 4288702532
-0.0047983397 0.039072197 0.78700006 4285028652
-0.0034186754 0.038972899 0.78500003 4282660104
-0.0020512051 0.038972899 0.78500003 4282140767
-0.00068373507 0.038972899 0.78500003 4282272354
0.00068373507 0.038972899 0.78500003 4283190125
0.0020512051 0.038972899 0.78500003 4286019224
0.0034186754 0.038972899 0.78500003 4286743445
0.0048044366 0.039121844 0.78800005 4288256684
0.0061771329 0.039121844 0.78800005 4288845743
0.0075498288 0.039121844 0.78800005 4286477195
0.0089225248 0.039121844 0.78800005 4285754755
0.010295222 0.039121844 0.78800005 4285162619
0.011697531 0.039221134 0.79000002 4283326840
0.018790085 0.039667957 0.79900002 4285687680
0.020232461 0.03976725 0.80100006 4286669952
0.021681806 0.039866548 0.80300003 4285617008
0.02308063 0.039866548 0.80300003 4283385683
0.02454043 0.039965838 0.80500007 4282859082
-0.038755149 0.041573707 0.80900002 4282528096
-0.037253547 0.041470926 0.80700004 4282199131
-0.029812593 0.040905651 0.79600006 4280950867
-0.02842596 0.040905651 0.79600006 4281082196
-0.026971389 0.04080287 0.79400003 4280556620
-0.02558824 0.04080287 0.79400003 4280227912
-0.024144122 0.040700093 0.79200006 4281341528
-0.022764459 0.040700093 0.79200006 4281538650
-0.021384794 0.040700093 0.79200006 4281472080
-0.020005131 0.040700093 0.79200006 4281669459
-0.018625466 0.040700093 0.79200006 4284361507
-0.017245801 0.040700093 0.79200006 4287651157
-0.015826071 0.040597312 0.79000002 4289690418
-0.014449891 0.040597312 0.79000002 4290019382
-0.013040613 0.040494539 0.78800005 4289624656
-0.011667917 0.040494539 0.78800005 4289164105
-0.010282157 0.040443148 0.78700006 4289426260
-0.0089112027 0.040443148 0.78700006 4289492053
-0.0075402479 0.040443148 0.78700006 4289098562
-0.006169294 0.040443148 0.78700006 4288572218
-0.0047983397 0.040443148 0.78700006 4287194175
-0.0034317404 0.040494539 0.78800005 4287128382
-0.0020590443 0.040494539 0.78800005 4284373602
-0.00068634807 0.040494539 0.78800005 4283321171
0.00068634807 0.040494539 0.78800005 4283191411
0.0020642702 0.040597312 0.79000002 4283651962
0.0034404502 0.040597312 0.79000002 4283716722
0.0048166304 0.040597312 0.79000002 4283848308
0.0061928104 0.040597312 0.79000002 4283977840
0.0075689908 0.040597312 0.79000002 4283451496
0.0089451708 0.040597312 0.79000002 4283124082
0.010321351 0.040597312 0.79000002 4282729324
0.011756759 0.04080287 0.79400003 4283978090
0.01459622 0.041008424 0.79800004 4285751914
0.015986335 0.041008424 0.79800004 4285949293
0.017398227 0.041059814 0.79900002 4284898152
0.018837119 0.041162595 0.80100006 4283516499
0.020282978 0.041265372 0.80300003 4283115356
0.021681806 0.041265372 0.80300003 4283115356
0.023138119 0.041368149 0.80500007 4283449938
0.024601398 0.041470926 0.80700004 4283581525
-0.029887499 0.042398542 0.79800004 4280755028
-0.028497381 0.042398542 0.79800004 4280755028
-0.027039329 0.042292282 0.79600006 4280492113
-0.025652695 0.042292282 0.79600006 4280097355
-0.024205092 0.042186018 0.79400003 4280096083
-0.022821944 0.042186018 0.79400003 4279832911
-0.021438796 0.042186018 0.79400003 4280161094
-0.020005131 0.042079758 0.79200006 4280424523
-0.018625466 0.042079758 0.79200006 4283177528
-0.017245801 0.042079758 0.79200006 4286795887
-0.015826071 0.041973494 0.79000002 4287191899
-0.014449891 0.041973494 0.79000002 4288507758
-0.013073711 0.041973494 0.79000002 4288507236
-0.011697531 0.041973494 0.79000002 4288638565
-0.010295222 0.041867234 0.78800005 4289099105
-0.0089225248 0.041867234 0.78800005 4288704347
-0.0075498288 0.041867234 0.78800005 4288505169
-0.0061928104 0.041973494 0.79000002 4288505169
-0.0048166304 0.041973494 0.79000002 4288571996
-0.0034404502 0.041973494 0.79000002 4288308567
-0.0020642702 0.041973494 0.79000002 4286274408
-0.00068809005 0.041973494 0.79000002 4284695376
0.00068983209 0.042079758 0.79200006 4283060324
0.0020694963 0.042079758 0.79200006 4282994531
0.0034491604 0.042079758 0.79200006 4282665828
0.0048288247 0.042079758 0.79200006 4282468706
0.0062084887 0.042079758 0.79200006 4282205275
0.0075881532 0.042079758 0.79200006 4282337117
0.0089678168 0.042079758 0.79200006 4282533476
0.010373611 0.042186018 0.79400003 4282665063
0.011786374 0.042292282 0.79600006 4285157472
0.013173006 0.042292282 0.79600006 4286144367
0.01459622 0.042398542 0.79800004 4287063159
0.016006369 0.042451672 0.79900002 4287063159
0.017398227 0.042451672 0.79900002 4285158757
0.018884154 0.042664196 0.80300003 4283053638
0.020333497 0.04277046 0.80500007 4282394701
0.021735808 0.04277046 0.80500007 4283249754
0.023195602 0.04287672 0.80700004 4284106337
-0.028533094 0.04384353 0.79900002 4281082198
-0.027107265 0.04378866 0.79800004 4280557654
-0.025717149 0.04378866 0.79800004 4280688983
-0.024327034 0.04378866 0.79800004 4280557654
-0.022879431 0.043678913 0.79600006 4280557654
-0.0214928 0.043678913 0.79600006 4280622164
-0.020106167 0.043678913 0.79600006 4280227406
-0.018719535 0.043678913 0.79600006 4281467717
-0.017289352 0.043569166 0.79400003 4281008190
-0.015906204 0.043569166 0.79400003 4282253369
-0.014523054 0.043569166 0.79400003 4282122295
-0.01310681 0.043459423 0.79200006 4283501351
-0.011727145 0.043459423 0.79200006 4284619575
-0.010321351 0.043349672 0.79000002 4285607963
-0.0089451708 0.043349672 0.79000002 4286792236
-0.0075881532 0.043459423 0.79200006 4286200615
-0.0062084887 0.043459423 0.79200006 4286332202
-0.0048288247 0.043459423 0.79200006 4286335299
-0.0034491604 0.043459423 0.79200006 4286401092
-0.0020694963 0.043459423 0.79200006 4285944918
-0.00068983209 0.043459423 0.79200006 4285484367
0.00068983209 0.043459423 0.79200006 4284896092
0.0020747222 0.043569166 0.79400003 4285093214
0.0034578703 0.043569166 0.79400003 4285030242
0.0048410185 0.043569166 0.79400003 4285096035
0.0062241666 0.043569166 0.79400003 4285227110
0.0076073147 0.043569166 0.79400003 4285556332
0.0089904629 0.043569166 0.79400003 4285093484
0.010399741 0.043678913 0.79600006 4285027691
0.011815988 0.04378866 0.79800004 4284434264
0.013206104 0.04378866 0.79800004 4283579212
0.014614511 0.04384353 0.79900002 4283445073
0.016046437 0.043953281 0.80100006 4283379280
0.017441778 0.043953281 0.80100006 4283120457
0.018931188 0.044172771 0.80500007 4282923079
0.020384016 0.044282518 0.80700004 4282922577
0.02178981 0.044282518 0.80700004 4283383128
0.023195602 0.044282518 0.80700004 4282987354
0.029211601 0.044886116 0.81800002 4282990182
0.030711465 0.044995867 0.82000005 4284371835
-0.027209172 0.045348618 0.80100006 4280951376
-0.025813831 0.045348618 0.80100006 4280951376
-0.024418488 0.045348618 0.80100006 4280689237
-0.022965658 0.045235388 0.79900002 4280689237
-0.0215468 0.045178775 0.79800004 4280950613
-0.020156683 0.045178775 0.79800004 4280884820
-0.018766569 0.045178775 0.79800004 4280292429
-0.017376453 0.045178775 0.79800004 4279568962
-0.015946269 0.045065548 0.79600006 4279108161
-0.014559639 0.045065548 0.79600006 4278321204
-0.013139907 0.044952314 0.79400003 4280614960
-0.011756759 0.044952314 0.79400003 4281270585
-0.010373611 0.044952314 0.79400003 4284882750
-0.0089904629 0.044952314 0.79400003 4285869645
-0.0076073147 0.044952314 0.79400003 4285807697
-0.0062241666 0.044952314 0.79400003 4285939284
-0.0048410185 0.044952314 0.79400003 4286205535
-0.0034578703 0.044952314 0.79400003 4286205535
-0.0020747222 0.044952314 0.79400003 4286469738
-0.00069157407 0.044952314 0.79400003 4286469738
0.00069157407 0.044952314 0.79400003 4286603121
0.0020747222 0.044952314 0.79400003 4286471535
0.0034578703 0.044952314 0.79400003 4286472053
0.0048410185 0.044952314 0.79400003 4286340467
0.006239845 0.045065548 0.79600006 4286077813
0.0076456391 0.045178775 0.79800004 4285880177
0.0090357549 0.045178775 0.79800004 4286141289
0.010425871 0.045178775 0.79800004 4286207082
0.011830794 0.045235388 0.79900002 4283974740
0.013222652 0.045235388 0.79900002 4281737521
0.014651093 0.045348618 0.80100006 4280357692
0.016046437 0.045348618 0.80100006 4281739345
0.017441778 0.045348618 0.80100006 4282989399
0.018931188 0.045575082 0.80500007 4282660690
0.020384016 0.045688309 0.80700004 4282263893
0.02178981 0.045688309 0.80700004 4282198099
0.023253089 0.045801535 0.80900002 4282064985
0.026329461 0.04625446 0.81700003 4281937258
0.027752675 0.04625446 0.81700003 4282792567
0.029211601 0.046311073 0.81800002 4283188592
0.030711465 0.046424307 0.82000005 4285096589
0.032218292 0.046537533 0.82200003 4285621890
-0.040809836 0.047969457 0.82200003 4282529116
-0.02727711 0.046860676 0.80300003 4281017425
-0.025878282 0.046860676 0.80300003 4281017425
-0.024418488 0.046743963 0.80100006 4280821073
-0.022965658 0.046627246 0.79900002 4280755280
-0.021573801 0.046627246 0.79900002 4280557654
-0.020156683 0.046568893 0.79800004 4280557654
-0.018766569 0.046568893 0.79800004 4280819538
-0.017376453 0.046568893 0.79800004 4280819538
-0.015986335 0.046568893 0.79800004 4280557906
-0.01459622 0.046568893 0.79800004 4280426320
-0.013206104 0.046568893 0.79800004 4280883536
-0.011786374 0.04645218 0.79600006 4280817743
-0.010399741 0.04645218 0.79600006 4282126160
-0.0090131089 0.04645218 0.79600006 4282126160
-0.0076264772 0.04645218 0.79600006 4282519122
-0.006239845 0.04645218 0.79600006 4282848086
-0.0048410185 0.046335462 0.79400003 4282917459
-0.0034578703 0.046335462 0.79400003 4283312217
-0.0020799483 0.04645218 0.79600006 4283248210
-0.00069331611 0.04645218 0.79600006 4283445845
0.00069331611 0.04645218 0.79600006 4283248723
0.0020851742 0.046568893 0.79800004 4282985807
0.0034665805 0.04645218 0.79600006 4282394447
0.0048532127 0.04645218 0.79600006 4281999690
0.0062555224 0.046568893 0.79800004 4281867853
0.0076552201 0.046627246 0.79900002 4281341509
0.009047078 0.046627246 0.79900002 4283244866
0.010438936 0.046627246 0.79900002 4283771210
0.011860408 0.046743963 0.80100006 4283641169
0.013255751 0.046743963 0.80100006 4283641169
0.014651093 0.046743963 0.80100006 4282331984
0.0160865 0.046860676 0.80300003 4282331984
0.017485326 0.046860676 0.80300003 4281281372
0.018978221 0.047094107 0.80700004 4280952664
0.020384016 0.047094107 0.80700004 4281279580
0.021843811 0.04721082 0.80900002 4281411166
0.026329461 0.047677673 0.81700003 4282398324
0.027786644 0.04773603 0.81800002 4282727289
0.029283024 0.047852743 0.82000005 4283779964
0.030786369 0.047969457 0.82200003 4285951133
0.032218292 0.047969457 0.82200003 4286014334
0.033650219 0.047969457 0.82200003 4286014334
-0.042344544 0.04952158 0.82400006 4282660701
-0.040809836 0.049401384 0.82200003 4282331736
-0.039377917 0.049401384 0.82200003 4282069341
-0.037853666 0.049281184 0.82000005 4281938012
-0.025942737 0.048379704 0.80500007 4281017421
-0.02454043 0.048379704 0.80500007 4280886869
-0.023023147 0.048139308 0.80100006 4280821075
-0.021627804 0.048139308 0.80100006 4280688985
-0.020181943 0.048019104 0.79900002 4280688985
-0.018790085 0.048019104 0.79900002 4280557906
-0.017398227 0.048019104 0.79900002 4280557906
-0.016006369 0.048019104 0.79900002 4280492113
-0.014614511 0.048019104 0.79900002 4280426320
-0.013222652 0.048019104 0.79900002 4280426068
-0.011830794 0.048019104 0.79900002 4280031310
-0.010425871 0.047959007 0.79800004 4279504714
-0.0090357549 0.047959007 0.79800004 4279109956
-0.0076456391 0.047959007 0.79800004 4278979135
-0.0062555224 0.047959007 0.79800004 4279110721
-0.0048654065 0.047959007 0.79800004 4279110971
-0.0034752905 0.047959007 0.79800004 4279505729
-0.0020851742 0.047959007 0.79800004 4279506233
-0.00069505809 0.047959007 0.79800004 4279572026
0.00069505809 0.047959007 0.79800004 4279571776
0.0020877873 0.048019104 0.79900002 4279374398
0.0034752905 0.047959007 0.79800004 4279505477
0.0048654065 0.047959007 0.79800004 4280031821
0.0062633613 0.048019104 0.79900002 4280491077
0.0076552201 0.048019104 0.79900002 4280622920
0.009047078 0.048019104 0.79900002 4282719558
0.010465067 0.048139308 0.80100006 4283574610
0.011860408 0.048139308 0.80100006 4284231513
0.013255751 0.048139308 0.80100006 4284626271
0.014687675 0.0482595 0.80300003 4283382628
0.0160865 0.0482595 0.80300003 4282264147
0.017528879 0.048379704 0.80500007 4280362069
0.018978221 0.048499897 0.80700004 4280362069
0.020434532 0.048620094 0.80900002 4280886619
0.024845278 0.048980691 0.81500006 4282529644
0.026329461 0.049100887 0.81700003 4281939811
0.027854582 0.049281184 0.82000005 4282400362
0.029283024 0.049281184 0.82000005 4284436343
0.030786369 0.049401384 0.82200003 4285291652
0.032296684 0.04952158 0.82400006 4285487990
-0.040909134 0.050956991 0.82400006 4282069584
-0.039377917 0.050833307 0.82200003 4282265693
-0.037853666 0.050709628 0.82000005 4282528866
-0.036425225 0.050709628 0.82000005 4281806174
-0.0288902 0.050029375 0.80900002 4280687957
-0.027412986 0.049905695 0.80700004 4280622666
-0.026007192 0.049905695 0.80700004 4280885837
-0.024601398 0.049905695 0.80700004 4280689235
-0.023138119 0.049782015 0.80500007 4280755028
-0.021681806 0.049658328 0.80300003 4280886369
-0.020232461 0.049534649 0.80100006 4280754526
-0.018837119 0.049534649 0.80100006 4280950867
-0.017441778 0.049534649 0.80100006 4281082196
-0.016046437 0.049534649 0.80100006 4280885583
-0.014651093 0.049534649 0.80100006 4280622668
-0.013255751 0.049534649 0.80100006 4281737301
-0.011860408 0.049534649 0.80100006 4282921575
-0.010438936 0.049410962 0.79900002 4283313471
-0.009047078 0.049410962 0.79900002 4282260783
-0.0076552201 0.049410962 0.79900002 4282457412
-0.0062633613 0.049410962 0.79900002 4283246928
-0.0048715034 0.049410962 0.79900002 4282985794
-0.0034796454 0.049410962 0.79900002 4283117123
-0.0020877873 0.049410962 0.79900002 4282132543
-0.00069592905 0.049410962 0.79900002 4282395714
0.00069592905 0.049410962 0.79900002 4281541971
0.0020877873 0.049410962 0.79900002 4281278542
0.0034796454 0.049410962 0.79900002 4281018707
0.0048715034 0.049410962 0.79900002 4281150036
0.0062790401 0.049534649 0.80100006 4282466373
0.0076743821 0.049534649 0.80100006 4282861131
0.0090697249 0.049534649 0.80100006 4282330703
0.010465067 0.049534649 0.80100006 4282067531
0.011890023 0.049658328 0.80300003 4281800793
0.013288849 0.049658328 0.80300003 4281800793
0.014724256 0.049782015 0.80500007 4281081946
0.016166633 0.049905695 0.80700004 4280950617
0.017572427 0.049905695 0.80700004 4280754778
0.019025255 0.050029375 0.80900002 4280952414
0.020485051 0.050153058 0.81100005 4281082474
0.023425549 0.050400425 0.81500006 4282264172
0.024906248 0.050524104 0.81700003 4284435341
0.026426144 0.050709628 0.82000005 4284371305
0.027854582 0.050709628 0.82000005 4284765807
0.029354444 0.050833307 0.82200003 4284634230
0.030861277 0.050956991 0.82400006 4284107630
0.032296684 0.050956991 0.82400006 4285420914
-0.03794599 0.052265231 0.82200003 4282790491
-0.036425225 0.052138068 0.82000005 4281741410
-0.034911424 0.052010898 0.81800002 4281083480
-0.033445533 0.051947318 0.81700003 4280688985
-0.031943928 0.051820152 0.81500006 4280688985
-0.03044929 0.051692985 0.81300002 4280164693
-0.028961625 0.051565818 0.81100005 4279967313
-0.027480923 0.051438648 0.80900002 4280163915
-0.026071645 0.051438648 0.80900002 4280295502
-0.024662366 0.051438648 0.80900002 4280426066
-0.023195602 0.051311485 0.80700004 4280557908
-0.021735808 0.051184323 0.80500007 4280689237
-0.020282978 0.051057156 0.80300003 4280557908
-0.018884154 0.051057156 0.80300003 4280622418
-0.017485326 0.051057156 0.80300003 4280688211
-0.0160865 0.051057156 0.80300003 4280819790
-0.014651093 0.05092999 0.80100006 4280622668
-0.013255751 0.05092999 0.80100006 4283046229
-0.011860408 0.05092999 0.80100006 4284888433
-0.010465067 0.05092999 0.80100006 4285548125
-0.0090697249 0.05092999 0.80100006 4283574079
-0.0076743821 0.05092999 0.80100006 4283900997
-0.0062790401 0.05092999 0.80100006 4284427341
-0.0048836977 0.05092999 0.80100006 4284100425
-0.0034883553 0.05092999 0.80100006 4284034632
-0.0020930131 0.05092999 0.80100006 4283639374
-0.00069767109 0.05092999 0.80100006 4284034132
0.00069767109 0.05092999 0.80100006 4283643488
0.0020930131 0.05092999 0.80100006 4283511901
0.0034883553 0.05092999 0.80100006 4282597986
0.0048836977 0.05092999 0.80100006 4282335071
0.0062790401 0.05092999 0.80100006 4282140767
0.0076743821 0.05092999 0.80100006 4281943645
0.00909237 0.051057156 0.80300003 4280628046
0.010491196 0.051057156 0.80300003 4280167495
0.011919637 0.051184323 0.80500007 4280426068
0.013321946 0.051184323 0.80500007 4280294481
0.014760839 0.051311485 0.80700004 4280425816
0.016206698 0.051438648 0.80900002 4280754780
0.017615976 0.051438648 0.80900002 4281213533
0.019072289 0.051565818 0.81100005 4281411168
0.02053557 0.051692985 0.81300002 4280952412
0.022005817 0.051820152 0.81500006 4281676134
0.023483032 0.051947318 0.81700003 4283120498
0.024936732 0.052010898 0.81800002 4284699531
0.026426144 0.052138068 0.82000005 4285486194
0.027922522 0.052265231 0.82200003 4285288558
0.029354444 0.052265231 0.82200003 4284961392
0.030861277 0.052392401 0.82400006 4284237668
0.032296684 0.052392401 0.82400006 4285551203
-0.036514066 0.053697154 0.82200003 4283319663
-0.034996785 0.053566508 0.82000005 4283122284
-0.033486467 0.053435855 0.81800002 4281674336
-0.03202232 0.053370528 0.81700003 4280753234
-0.030524198 0.053239882 0.81500006 4280425816
-0.029033044 0.053109229 0.81300002 4280425816
-0.027548863 0.052978583 0.81100005 4280360274
-0.0261361 0.052978583 0.81100005 4280426068
-0.024723338 0.052978583 0.81100005 4280294479
-0.023253089 0.052847929 0.80900002 4280294479
-0.02178981 0.05271728 0.80700004 4280294479
-0.020333497 0.05258663 0.80500007 4280097357
-0.018931188 0.05258663 0.80500007 4280360274
-0.017528879 0.05258663 0.80500007 4280360274
-0.0160865 0.05245598 0.80300003 4280163915
-0.014687675 0.05245598 0.80300003 4280229708
-0.013288849 0.05245598 0.80300003 4281801808
-0.011890023 0.05245598 0.80300003 4281801808
-0.010491196 0.05245598 0.80300003 4282850635
-0.00909237 0.05245598 0.80300003 4282982221
-0.0076935436 0.05245598 0.80300003 4282786375
-0.0062947175 0.05245598 0.80300003 4282917961
-0.0048958915 0.05245598 0.80300003 4282787145
-0.0034970655 0.05245598 0.80300003 4282918475
-0.0020982393 0.05245598 0.80300003 4282328652
-0.00069941307 0.05245598 0.80300003 4281999944
0.00069941307 0.05245598 0.80300003 4281080918
0.0020982393 0.05245598 0.80300003 4280883538
0.0034970655 0.05245598 0.80300003 4280294479
0.0048958915 0.05245598 0.80300003 4280228686
0.0063103959 0.05258663 0.80500007 4280033106
0.007712706 0.05258663 0.80500007 4279835727
0.0091150161 0.05258663 0.80500007 4280163913
0.010543456 0.05271728 0.80700004 4280690257
0.01194925 0.05271728 0.80700004 4280820821
0.013355045 0.05271728 0.80700004 4280755028
0.01479742 0.052847929 0.80900002 4281018455
0.016206698 0.052847929 0.80900002 4281018455
0.017659528 0.052978583 0.81100005 4281345373
0.019119322 0.053109229 0.81300002 4281937510
0.020586088 0.053239882 0.81500006 4282790239
0.022059821 0.053370528 0.81700003 4285619338
0.023511777 0.053435855 0.81800002 4285947015
0.024997704 0.053566508 0.82000005 4285223549
0.026490597 0.053697154 0.82200003 4284764013
0.027922522 0.053697154 0.82200003 4283645788
0.029425869 0.053827807 0.82400006 4284300381
0.030936182 0.053958453 0.82600003 4287458702
-0.035082139 0.055129081 0.82200003 4283383654
-0.033568341 0.054994944 0.82000005 4282856282
-0.032061514 0.054860808 0.81800002 4281672007
-0.030599104 0.054793745 0.81700003 4280622414
-0.029104467 0.054659612 0.81500006 4280622414
-0.027616799 0.054525476 0.81300002 4280621395
-0.026200553 0.054525476 0.81300002 4280621395
-0.024784306 0.054525476 0.81300002 4280426068
-0.023310576 0.054391343 0.81100005 4280426068
-0.021843811 0.054257207 0.80900002 4280426066
-0.020434532 0.054257207 0.80900002 4280360272
-0.019025255 0.054257207 0.80900002 4279967313
-0.017572427 0.054123074 0.80700004 4279967313
-0.016166633 0.054123074 0.80700004 4280228686
-0.014724256 0.053988941 0.80500007 4280426066
-0.013321946 0.053988941 0.80500007 4280294479
-0.011919637 0.053988941 0.80500007 4279965515
-0.010517326 0.053988941 0.80500007 4280029765
-0.0091150161 0.053988941 0.80500007 4280424523
-0.007712706 0.053988941 0.80500007 4280163913
-0.0063103959 0.053988941 0.80500007 4280098120
-0.0049080853 0.053988941 0.80500007 4279966532
-0.0035057757 0.053988941 0.80500007 4280032325
-0.0021034654 0.053988941 0.80500007 4280163915
-0.00070115511 0.053988941 0.80500007 4280032073
0.00070115511 0.053988941 0.80500007 4280294479
0.002108691 0.054123074 0.80700004 4280294479
0.0035144854 0.054123074 0.80700004 4280031310
0.0049202796 0.054123074 0.80700004 4280031310
0.0063260738 0.054123074 0.80700004 4280360274
0.0077318684 0.054123074 0.80700004 4280360274
0.0091376621 0.054123074 0.80700004 4280688463
0.010569585 0.054257207 0.80900002 4280951378
0.011978864 0.054257207 0.80900002 4280886365
0.013388142 0.054257207 0.80900002 4280820571
0.014834002 0.054391343 0.81100005 4281279578
0.016286831 0.054525476 0.81300002 4281213785
0.017703077 0.054525476 0.81300002 4281410916
0.019166358 0.054659612 0.81500006 4282397811
0.020636605 0.054793745 0.81700003 4283511897
0.02208682 0.054860808 0.81800002 4286275203
0.023569264 0.054994944 0.82000005 4286211209
0.025058672 0.055129081 0.82200003 4284895349
0.026555052 0.055263218 0.82400006 4283713126
0.027990459 0.055263218 0.82400006 4282594645
0.029425869 0.055263218 0.82400006 4284297818
-0.035082139 0.056561004 0.82200003 4282726242
-0.033650219 0.056561004 0.82200003 4282923605
-0.032139905 0.056423388 0.82000005 4284042087
-0.030636556 0.056285769 0.81800002 4282199898
-0.029175891 0.056216955 0.81700003 4282199898
-0.027684739 0.056079339 0.81500006 4281674586
-0.026265008 0.056079339 0.81500006 4280490568
-0.024845278 0.056079339 0.81500006 4280228182
-0.023368061 0.055941723 0.81300002 4280425818
-0.021897813 0.055804104 0.81100005 4280491861
-0.020434532 0.055666488 0.80900002 4280426068
-0.019025255 0.055666488 0.80900002 4280426068
-0.017615976 0.055666488 0.80900002 4280426068
-0.016206698 0.055666488 0.80900002 4280426068
-0.014760839 0.055528868 0.80700004 4280426068
-0.013355045 0.055528868 0.80700004 4280426068
-0.01194925 0.055528868 0.80700004 4280426068
-0.010543456 0.055528868 0.80700004 4280491081
-0.0091376621 0.055528868 0.80700004 4280556874
-0.0077318684 0.055528868 0.80700004 4280426066
-0.0063260738 0.055528868 0.80700004 4280360272
-0.0049202796 0.055528868 0.80700004 4280163915
-0.0035144854 0.055528868 0.80700004 4280229708
-0.002108691 0.055528868 0.80700004 4280557906
-0.00070289709 0.055528868 0.80700004 4280557906
0.00070289709 0.055528868 0.80700004 4280557654
0.002108691 0.055528868 0.80700004 4280688983
0.0035144854 0.055528868 0.80700004 4280557906
0.0049202796 0.055528868 0.80700004 4280557906
0.0063417517 0.055666488 0.80900002 4280491863
0.0077510295 0.055666488 0.80900002 4280557656
0.0091603082 0.055666488 0.80900002 4280819029
0.010569585 0.055666488 0.80900002 4280884822
0.012008478 0.055804104 0.81100005 4280753763
0.013421241 0.055804104 0.81100005 4280687970
0.014870584 0.055941723 0.81300002 4281081946
0.016326897 0.056079339 0.81500006 4280818775
0.017746627 0.056079339 0.81500006 4281279078
0.01921339 0.056216955 0.81700003 4283515784
0.020712381 0.056423388 0.82000005 4283184733
0.022140823 0.056423388 0.82000005 4283908456
0.023626748 0.056561004 0.82200003 4284499560
0.025058672 0.056561004 0.82200003 4283183700
0.026555052 0.056698628 0.82400006 4283246676
0.027990459 0.056698628 0.82400006 4286799755
-0.033650219 0.057992928 0.82200003 4282921559
-0.032139905 0.057851829 0.82000005 4282987352
-0.030711465 0.057851829 0.82000005 4282002772
-0.029211601 0.057710726 0.81800002 4282331736
-0.027752675 0.057640173 0.81700003 4283319928
-0.026265008 0.057499073 0.81500006 4281148760
-0.024845278 0.057499073 0.81500006 4280424271
-0.023425549 0.057499073 0.81500006 4280752980
-0.021951815 0.057357971 0.81300002 4280426068
-0.02053557 0.057357971 0.81300002 4280294481
-0.019119322 0.057357971 0.81300002 4280360022
-0.017659528 0.057216868 0.81100005 4280491609
-0.016246766 0.057216868 0.81100005 4280818775
-0.01479742 0.057075761 0.80900002 4280752982
-0.013388142 0.057075761 0.80900002 4280425816
-0.011978864 0.057075761 0.80900002 4280491609
-0.010569585 0.057075761 0.80900002 4280426066
-0.0091603082 0.057075761 0.80900002 4280491859
-0.0077510295 0.057075761 0.80900002 4280491861
-0.0063417517 0.057075761 0.80900002 4280360274
-0.0049202796 0.056934666 0.80700004 4280360272
-0.0035144854 0.056934666 0.80700004 4280426066
-0.002108691 0.056934666 0.80700004 4280557654
-0.00070289709 0.056934666 0.80700004 4280688983
0.00070289709 0.056934666 0.80700004 4280689235
0.002108691 0.056934666 0.80700004 4280689235
0.0035231954 0.057075761 0.80900002 4280557906
0.0049324734 0.057075761 0.80900002 4280689235
0.0063574295 0.057216868 0.81100005 4280754778
0.0077701919 0.057216868 0.81100005 4280557656
0.0091829542 0.057216868 0.81100005 4280490827
0.010595717 0.057216868 0.81100005 4280885585
0.012038092 0.057357971 0.81300002 4281016933
0.013454339 0.057357971 0.81300002 4280754017
0.014907167 0.057499073 0.81500006 4280622418
0.016366962 0.057640173 0.81700003 4280424782
0.017790178 0.057640173 0.81700003 4281080918
0.019236907 0.057710726 0.81800002 4282857329
0.020712381 0.057851829 0.82000005 4282921305
0.022194823 0.057992928 0.82200003 4283184733
0.023626748 0.057992928 0.82200003 4283908193
0.025119644 0.058134031 0.82400006 4282394697
-0.032218292 0.059424855 0.82200003 4282133599
-0.030711465 0.059280269 0.82000005 4282263893
-0.029211601 0.059135683 0.81800002 4282461528
-0.027786644 0.059135683 0.81800002 4282660214
-0.026361689 0.059135683 0.81800002 4282199663
-0.024936732 0.059135683 0.81800002 4282723410
-0.023483032 0.05906339 0.81700003 4283776354
-0.022005817 0.058918804 0.81500006 4281541719
-0.020586088 0.058918804 0.81500006 4280620617
-0.019166358 0.058918804 0.81500006 4280557656
-0.017703077 0.058774214 0.81300002 4280688985
-0.016286831 0.058774214 0.81300002 4280491359
-0.014870584 0.058774214 0.81300002 4280293979
-0.013454339 0.058774214 0.81300002 4280293212
-0.012008478 0.058629628 0.81100005 4280293212
-0.010595717 0.058629628 0.81100005 4280360022
-0.0091829542 0.058629628 0.81100005 4280425816
-0.0077701919 0.058629628 0.81100005 4280359773
-0.0063417517 0.058485042 0.80900002 4280227930
-0.0049324734 0.058485042 0.80900002 4280031310
-0.0035231954 0.058485042 0.80900002 4280228432
-0.0021139171 0.058485042 0.80900002 4280294229
-0.00070463907 0.058485042 0.80900002 4280360022
0.00070463907 0.058485042 0.80900002 4280097868
0.0021139171 0.058485042 0.80900002 4280229454
0.0035319056 0.058629628 0.81100005 4280557654
0.0049446677 0.058629628 0.81100005 4281018205
0.0063574295 0.058629628 0.81100005 4282071642
0.0077701919 0.058629628 0.81100005 4282071642
0.0092056002 0.058774214 0.81300002 4282660699
0.010621847 0.058774214 0.81300002 4284042352
0.012067707 0.058918804 0.81500006 4284042604
0.013520534 0.05906339 0.81700003 4283647846
0.01494375 0.05906339 0.81700003 4282724192
0.016386995 0.059135683 0.81800002 4282461276
0.017855503 0.059280269 0.82000005 4282790489
0.019283943 0.059280269 0.82000005 4283185247
0.0207629 0.059424855 0.82200003 4282463075
0.022194823 0.059424855 0.82200003 4281476180
0.023684235 0.059569441 0.82400006 4282984270
-0.032218292 0.060856774 0.82200003 4281476961
-0.030786369 0.060856774 0.82200003 4282133581
-0.029283024 0.060708709 0.82000005 4282067531
-0.027854582 0.060708709 0.82000005 4282199648
-0.026426144 0.060708709 0.82000005 4282133599
-0.024997704 0.060708709 0.82000005 4283443024
-0.023511777 0.060560632 0.81800002 4283969368
-0.02208682 0.060560632 0.81800002 4282917973
-0.020586088 0.060338531 0.81500006 4281404991
-0.019166358 0.060338531 0.81500006 4281608540
-0.017746627 0.060338531 0.81500006 4281608540
-0.016326897 0.060338531 0.81500006 4281279578
-0.014907167 0.060338531 0.81500006 4280819027
-0.013454339 0.060190462 0.81300002 4280097103
-0.012038092 0.060190462 0.81300002 4280097103
-0.010621847 0.060190462 0.81300002 4280360274
-0.0092056002 0.060190462 0.81300002 4280228432
-0.0077701919 0.060042392 0.81100005 4280228182
-0.0063574295 0.060042392 0.81100005 4279965267
-0.0049446677 0.060042392 0.81100005 4280031312
-0.0035319056 0.060042392 0.81100005 4280031312
-0.0021191433 0.060042392 0.81100005 4280424523
-0.00070638111 0.060042392 0.81100005 4280424523
0.00070638111 0.060042392 0.81100005 4280358987
0.0021191433 0.060042392 0.81100005 4281148760
0.0035406153 0.060190462 0.81300002 4281808500
0.0049568615 0.060190462 0.81300002 4281742707
0.0063731079 0.060190462 0.81300002 4282270055
0.0077893534 0.060190462 0.81300002 4281546331
0.0092056002 0.060190462 0.81300002 4282463325
0.010647976 0.060338531 0.81500006 4284305529
0.012097321 0.0604866 0.81700003 4284764011
0.013537084 0.060560632 0.81800002 4284040544
0.014998622 0.060708709 0.82000005 4282592605
0.016427062 0.060708709 0.82000005 4282724192
0.017899051 0.060856774 0.82200003 4283379800
0.019330975 0.060856774 0.82200003 4283116371
0.0207629 0.060856774 0.82200003 4281673554
0.022248827 0.061004851 0.82400006 4280555074
0.023684235 0.061004851 0.82400006 4282326324
-0.030786369 0.062288698 0.82200003 4279966782
-0.029354444 0.062288698 0.82200003 4280296003
-0.027922522 0.062288698 0.82200003 4281541969
-0.026426144 0.062137146 0.82000005 4281870933
-0.024997704 0.062137146 0.82000005 4283114827
-0.023569264 0.062137146 0.82000005 4283180620
-0.022140823 0.062137146 0.82000005 4282394447
-0.020661863 0.06198559 0.81800002 4281341759
