# .PCD v0.7 - Point Cloud Data file format
VERSION 0.7
FIELDS x y z
SIZE 4 4 4
TYPE F F F
COUNT 1 1 1
WIDTH 1309
HEIGHT 1
VIEWPOINT 0 0 0 1 0 0 0
POINTS 1309
DATA ascii
-0.016808366 -0.091706529 0.68389344
-0.017971024 -0.092374757 0.68449432
-0.018968975 -0.093207106 0.68523103
-0.019771518 -0.094176024 0.68607932
-0.020372096 -0.095245451 0.6870082
-0.020786446 -0.096383937 0.6879912
-0.021044739 -0.097576506 0.68901634
-0.021187406 -0.098861203 0.69011718
-0.021178355 -0.098742552 0.69001561
-0.011442255 -0.10935112 0.69882268
-0.012473294 -0.10925627 0.69876844
-0.013828265 -0.10905801 0.69863427
-0.015180416 -0.10874608 0.698403
-0.016488366 -0.10829514 0.69805181
-0.017707646 -0.10768707 0.69756418
-0.01878937 -0.10691708 0.6969347
-0.019688802 -0.10599869 0.69617373
-0.020378489 -0.1049621 0.69530636
-0.020855954 -0.10384379 0.69436371
-0.021140385 -0.10267361 0.69337177
-0.021263488 -0.10146375 0.69234174
-0.021261208 -0.10017269 0.69123912
-0.021265522 -0.10029155 0.69134074
-0.0085316114 -0.10897101 0.69842255
-0.0075516938 -0.10896996 0.69839621
-0.0062560919 -0.10889936 0.69830227
-0.0049510784 -0.1087216 0.6981166
-0.0036728885 -0.10840928 0.69781673
-0.0024614295 -0.10794159 0.69738585
-0.0013621765 -0.1073098 0.69681782
-0.00041864524 -0.10652284 0.69612128
0.00034013228 -0.10560676 0.69531924
0.00090795854 -0.10459565 0.69444102
0.0012997113 -0.10351925 0.69351161
0.0015439193 -0.10239172 0.69254231
0.0016788061 -0.10117709 0.69150156
0.0016702488 -0.10128926 0.69159752
-0.0075349091 -0.091259219 0.68327081
-0.0065600965 -0.091348901 0.68332207
-0.0052790157 -0.091536343 0.68344891
-0.0040006014 -0.091831259 0.6836676
-0.0027639798 -0.092257619 0.6839996
-0.0016111907 -0.092832513 0.68446064
-0.00058845774 -0.093560524 0.68505585
0.00026192606 -0.09442883 0.68577528
0.00091400149 -0.095408887 0.68659532
0.0013654297 -0.096466213 0.68748659
0.0016343509 -0.09757258 0.68842441
0.0017507384 -0.098716468 0.68939829
0.0017485836 -0.099937119 0.69044077
0.0017526626 -0.099824734 0.69034469
-0.010336026 -0.091132194 0.68323499
-0.011315944 -0.091133237 0.68326133
-0.012611546 -0.091203839 0.68335527
-0.013916559 -0.091381602 0.68354094
-0.015194749 -0.091693923 0.68384081
-0.016406208 -0.092161618 0.68427169
-0.017505461 -0.092793398 0.68483973
-0.018448992 -0.093580358 0.68553627
-0.01920777 -0.094496436 0.68633831
-0.019775596 -0.095507547 0.68721652
-0.020167349 -0.096583948 0.68814594
-0.020411557 -0.097711481 0.68911523
-0.020546444 -0.09892612 0.69015598
-0.020537887 -0.098813944 0.69005996
-0.011332728 -0.10884399 0.69838673
-0.012307541 -0.10875431 0.69833547
-0.013588621 -0.10856686 0.69820863
-0.014867036 -0.10827194 0.69798994
-0.016103657 -0.10784559 0.69765794
-0.017256446 -0.10727069 0.6971969
-0.01827918 -0.10654268 0.69660169
-0.019129563 -0.10567437 0.69588226
-0.019781638 -0.10469431 0.69506222
-0.020233067 -0.10363699 0.69417095
-0.020501988 -0.10253062 0.69323313
-0.020618375 -0.10138674 0.69225925
-0.02061622 -0.10016609 0.69121677
-0.0206203 -0.10027847 0.69131285
-0.008584586 -0.10844729 0.69797665
-0.007662206 -0.10844631 0.69795185
-0.0064426777 -0.10837986 0.69786346
-0.0052142902 -0.10821252 0.6976887
-0.0040111518 -0.10791854 0.69740641
-0.0028708251 -0.10747831 0.69700086
-0.0018361167 -0.10688363 0.69646615
-0.00094798661 -0.10614288 0.6958105
-0.00023376194 -0.10528059 0.69505554
0.00030072336 -0.10432884 0.69422889
0.00066947337 -0.10331564 0.69335407
0.00089934305 -0.10225432 0.6924417
0.0010263096 -0.101111 0.69146204
0.0010182543 -0.10121659 0.6915524
-0.0076464065 -0.091775477 0.68371457
-0.0067288321 -0.091859892 0.68376285
-0.005522972 -0.092036329 0.68388224
-0.0043196222 -0.09231393 0.68408805
-0.0031556115 -0.092715256 0.68440056
-0.0020705098 -0.093256399 0.68483454
-0.0011078281 -0.093941659 0.68539476
-0.00030737623 -0.09475898 0.68607199
0.00030641153 -0.095681496 0.68684393
0.00073133328 -0.096676737 0.68768281
0.00098446396 -0.097718142 0.68856561
0.0010940183 -0.098794863 0.68948227
0.0010919899 -0.099943839 0.69046354
0.0010958291 -0.099838056 0.69037312
-0.010283051 -0.09165591 0.68368089
-0.011205431 -0.091656893 0.68370569
-0.01242496 -0.091723353 0.68379408
-0.013653347 -0.091890678 0.68396884
-0.014856485 -0.092184663 0.68425113
-0.015996812 -0.092624888 0.68465668
-0.017031521 -0.093219578 0.68519139
-0.01791965 -0.09396033 0.68584704
-0.018633876 -0.094822615 0.686602
-0.01916836 -0.09577436 0.68742865
-0.01953711 -0.096787557 0.68830347
-0.019766981 -0.097848885 0.68921584
-0.019893946 -0.098992199 0.6901955
-0.019885892 -0.098886609 0.69010514
-0.01122123 -0.10832772 0.69794297
-0.012138804 -0.10824331 0.69789469
-0.013344665 -0.10806687 0.6977753
-0.014548015 -0.10778927 0.69756949
-0.015712027 -0.10738795 0.69725692
-0.016797127 -0.1068468 0.696823
-0.017759809 -0.10616154 0.69626272
-0.018560261 -0.10534422 0.69558555
-0.019174049 -0.10442171 0.69481361
-0.01959897 -0.10342646 0.69397473
-0.019852102 -0.10238507 0.69309193
-0.019961655 -0.10130835 0.69217527
-0.019959627 -0.10015936 0.691194
-0.019963466 -0.10026515 0.69128442
-0.0086386967 -0.10791235 0.69752121
-0.0077750869 -0.10791142 0.69749802
-0.0066332631 -0.1078492 0.69741523
-0.005483144 -0.10769254 0.69725162
-0.004356666 -0.10741729 0.69698733
-0.0032889966 -0.10700511 0.69660759
-0.002320216 -0.10644832 0.69610697
-0.0014886752 -0.10575476 0.69549304
-0.00081995816 -0.10494741 0.69478625
-0.00031952898 -0.10405631 0.69401222
2.5726145e-05 -0.10310767 0.69319314
0.00024094907 -0.10211396 0.69233894
0.00035982626 -0.1010435 0.69142169
0.00035228394 -0.10114236 0.69150633
-0.0077602947 -0.092302799 0.68416786
-0.0069011846 -0.092381842 0.68421304
-0.005772158 -0.092547037 0.68432486
-0.0046454812 -0.09280695 0.68451756
-0.0035556373 -0.093182698 0.68481016
-0.0025396745 -0.093689367 0.68521649
-0.0016383317 -0.094330966 0.68574101
-0.00088888238 -0.095096208 0.68637508
-0.00031420268 -0.095959939 0.68709779
8.3643921e-05 -0.096891776 0.68788326
0.00032064662 -0.097866818 0.6887098
0.00042322034 -0.098874934 0.6895681
0.00042132163 -0.099950701 0.69048685
0.00042491581 -0.099851668 0.69040215
-0.01022894 -0.092190854 0.68413633
-0.01109255 -0.092191778 0.68415952
-0.012234374 -0.092253998 0.68424231
-0.013384493 -0.092410669 0.68440592
-0.014510971 -0.092685916 0.68467021
-0.015578641 -0.093098097 0.68504995
-0.016547421 -0.093654886 0.68555057
-0.017378962 -0.094348446 0.68616444
-0.018047679 -0.09515579 0.68687129
-0.018548109 -0.096046887 0.68764526
-0.018893363 -0.096995533 0.6884644
-0.019108586 -0.097989239 0.6893186
-0.019227464 -0.099059701 0.69023585
-0.019219922 -0.098960839 0.69015121
-0.011107342 -0.1078004 0.69748968
-0.011966453 -0.10772136 0.6974445
-0.013095479 -0.10755616 0.69733268
-0.014222156 -0.10729625 0.69713998
-0.015312 -0.1069205 0.69684738
-0.016327962 -0.10641384 0.69644105
-0.017229306 -0.10577224 0.69591653
-0.017978754 -0.10500699 0.69528246
-0.018553434 -0.10414326 0.69455975
-0.018951282 -0.10321143 0.69377428
-0.019188283 -0.10223638 0.69294775
-0.019290857 -0.10122827 0.69208944
-0.019288959 -0.1001525 0.69117069
-0.019292554 -0.10025154 0.69125539
-0.0086942194 -0.10736343 0.69705391
-0.0078909146 -0.10736258 0.69703233
-0.0068288236 -0.10730471 0.69695532
-0.0057590161 -0.10715897 0.69680309
-0.0047111991 -0.10690295 0.69655728
-0.0037180844 -0.10651955 0.69620407
-0.002816953 -0.10600164 0.69573838
-0.0020434777 -0.10535651 0.69516736
-0.0014214568 -0.10460554 0.69450986
-0.00095597218 -0.10377666 0.69378996
-0.00063482532 -0.10289427 0.69302803
-0.00043463201 -0.10196995 0.6922335
-0.00032405564 -0.10097424 0.69138026
-0.00033107147 -0.10106619 0.691459
-0.0078771552 -0.09284389 0.68463296
-0.0070780362 -0.092917413 0.68467504
-0.0060278489 -0.093071073 0.68477899
-0.004979847 -0.093312837 0.68495828
-0.0039661056 -0.093662351 0.68523043
-0.0030210868 -0.094133638 0.68560839
-0.0021826841 -0.094730429 0.68609631
-0.0014855679 -0.095442243 0.6866861
-0.00095101778 -0.096245661 0.68735832
-0.00058095244 -0.097112425 0.68808895
-0.00036049887 -0.098019384 0.68885779
-0.0002650886 -0.098957099 0.68965614
-0.00026685445 -0.099957749 0.69051069
-0.00026351141 -0.099865623 0.69043195
-0.010173418 -0.092739768 0.68460363
-0.010976722 -0.092740625 0.68462521
-0.012038814 -0.092798501 0.68470222
-0.01310862 -0.092944227 0.68485445
-0.014156438 -0.093200259 0.68510026
-0.015149552 -0.093583651 0.68545347
-0.016050683 -0.094101563 0.68591917
-0.01682416 -0.094746687 0.68649018
-0.017446181 -0.09549766 0.68714762
-0.017911665 -0.096326537 0.68786758
-0.018232811 -0.097208932 0.68862951
-0.018433005 -0.098133251 0.68942404
-0.018543582 -0.099128969 0.69027728
-0.018536566 -0.099037006 0.69019854
-0.010990482 -0.10725931 0.69702458
-0.0117896 -0.10718579 0.6969825
-0.012839789 -0.10703213 0.69687855
-0.01388779 -0.10679036 0.69669926
-0.014901532 -0.10644085 0.69642711
-0.01584655 -0.10596957 0.69604915
-0.016684953 -0.10537277 0.69556123
-0.017382069 -0.10466097 0.69497144
-0.01791662 -0.10385755 0.69429922
-0.018286685 -0.10299078 0.69356859
-0.018507138 -0.10208382 0.69279975
-0.018602548 -0.1011461 0.6920014
-0.018600782 -0.10014545 0.69114685
-0.018604126 -0.10023758 0.69122559
-0.0087515591 -0.10679656 0.69657129
-0.0080105336 -0.10679577 0.69655138
-0.0070307842 -0.10674238 0.69648033
-0.0060439175 -0.10660795 0.69633991
-0.0050773355 -0.10637178 0.69611311
-0.0041612163 -0.1060181 0.69578731
-0.0033299478 -0.10554034 0.69535774
-0.0026164388 -0.10494523 0.69483101
-0.0020426421 -0.10425248 0.69422448
-0.0016132452 -0.10348787 0.69356036
-0.0013169975 -0.10267388 0.69285756
-0.0011323243 -0.10182123 0.69212461
-0.0010303208 -0.10090271 0.69133753
-0.0010367917 -0.10098753 0.69141012
-0.0079978406 -0.093402699 0.68511331
-0.0072606765 -0.093470514 0.68515211
-0.0062919077 -0.093612261 0.68524802
-0.0053251558 -0.093835279 0.68541342
-0.0043900083 -0.094157696 0.68566447
-0.0035182557 -0.094592445 0.6860131
-0.0027448526 -0.095142975 0.68646318
-0.0021017827 -0.095799595 0.68700725
-0.0016086753 -0.096540727 0.68762738
-0.0012673002 -0.097340293 0.68830138
-0.0010639391 -0.098176934 0.68901056
-0.00097592536 -0.099041954 0.68974704
-0.00097755424 -0.099965028 0.69053537
-0.00097446953 -0.099880047 0.69046271
-0.010116078 -0.093306638 0.68508625
-0.010857103 -0.093307428 0.68510616
-0.011836853 -0.093360819 0.68517721
-0.01282372 -0.09349525 0.68531764
-0.013790302 -0.093731426 0.68554437
-0.014706421 -0.094085105 0.68587023
-0.015537689 -0.094562866 0.6862998
-0.016251199 -0.095157973 0.68682653
-0.016824994 -0.095850721 0.687433
-0.017254392 -0.096615337 0.68809718
-0.01755064 -0.09742932 0.68879998
-0.017735314 -0.09828198 0.68953294
-0.017837316 -0.099200495 0.69032001
-0.017830845 -0.09911567 0.69024742
-0.010869796 -0.10670051 0.69654423
-0.011606961 -0.10663269 0.69650543
-0.01257573 -0.10649094 0.69640952
-0.013542482 -0.10626792 0.69624412
-0.014477629 -0.10594551 0.69599307
-0.015349382 -0.10551076 0.69564444
-0.016122784 -0.10496023 0.69519436
-0.016765855 -0.10430361 0.69465029
-0.017258963 -0.10356247 0.69403017
-0.017600337 -0.10276291 0.69335616
-0.017803699 -0.10192627 0.69264698
-0.017891712 -0.10106125 0.69191051
-0.017890083 -0.10013818 0.69112217
-0.017893167 -0.10022316 0.69119483
-0.008811349 -0.10620547 0.69606805
-0.0081352629 -0.10620475 0.69604987
-0.0072413734 -0.10615604 0.69598508
-0.0063409908 -0.10603339 0.69585693
-0.0054591154 -0.10581791 0.69565004
-0.004623279 -0.10549523 0.69535279
-0.003864859 -0.10505933 0.69496083
-0.0032138778 -0.10451638 0.69448024
-0.0026903658 -0.10388434 0.69392693
-0.0022985991 -0.10318673 0.69332099
-0.002028313 -0.10244408 0.69267976
-0.0018598234 -0.10166615 0.692011
-0.0017667591 -0.10082812 0.69129294
-0.0017726634 -0.10090552 0.69135916
-0.0081236828 -0.093985371 0.68561423
-0.0074511189 -0.094047248 0.68564957
-0.0065672481 -0.094176576 0.68573707
-0.0056852177 -0.094380043 0.68588799
-0.0048320214 -0.094674207 0.68611705
-0.0040366645 -0.095070854 0.68643516
-0.0033310384 -0.095573135 0.68684578
-0.0027443236 -0.096172221 0.68734217
-0.0022944296 -0.096848398 0.68790793
-0.0019829709 -0.0975779 0.68852288
-0.0017974313 -0.098341219 0.68916994
-0.0017171303 -0.099130437 0.68984181
-0.0017186168 -0.099972613 0.69056106
-0.0017158028 -0.099895075 0.69049478
-0.010056288 -0.093897738 0.68558949
-0.010732374 -0.093898453 0.68560767
-0.011626263 -0.093947165 0.68567246
-0.012526646 -0.094069816 0.68580061
-0.013408522 -0.094285294 0.6860075
-0.014244358 -0.094607972 0.68630475
-0.015002778 -0.095043868 0.68669671
-0.015653759 -0.095586821 0.68717724
-0.016177271 -0.096218862 0.68773061
-0.016569039 -0.096916467 0.68833655
-0.016839324 -0.097659126 0.68897778
-0.017007815 -0.098437056 0.68964648
-0.017100878 -0.099275082 0.6903646
-0.017094973 -0.099197686 0.69029838
-0.010743955 -0.10611783 0.69604331
-0.011416518 -0.10605595 0.69600797
-0.012300389 -0.10592663 0.69592047
-0.013182419 -0.10572316 0.69576955
-0.014035616 -0.10542899 0.69554049
-0.014830973 -0.10503235 0.69522238
-0.015536599 -0.10453007 0.69481176
-0.016123313 -0.10393099 0.69431537
-0.016573207 -0.1032548 0.69374961
-0.016884666 -0.10252531 0.69313467
-0.017070206 -0.10176198 0.6924876
-0.017150506 -0.10097276 0.69181573
-0.01714902 -0.10013059 0.69109643
-0.017151834 -0.10020813 0.69116277
-0.008874679 -0.10557937 0.695535
-0.0082673784 -0.10557872 0.69551867
-0.0074644345 -0.10553497 0.69546044
-0.0066556572 -0.1054248 0.6953454
-0.005863504 -0.10523124 0.69515949
-0.0051127067 -0.10494139 0.69489253
-0.0044314484 -0.10454985 0.69454044
-0.0038466991 -0.10406213 0.69410878
-0.0033764495 -0.10349439 0.69361168
-0.0030245415 -0.10286776 0.69306743
-0.0027817539 -0.10220066 0.69249141
-0.0026304068 -0.10150188 0.69189072
-0.0025468112 -0.10074912 0.69124573
-0.0025521144 -0.10081863 0.69130522
-0.0082569765 -0.094602555 0.68614471
-0.0076528401 -0.094658136 0.68617654
-0.0068588951 -0.094774298 0.6862551
-0.0060666027 -0.094957076 0.68639064
-0.0053002113 -0.095221311 0.68659639
-0.0045857741 -0.095577598 0.68688214
-0.0039519393 -0.096028782 0.68725103
-0.0034249176 -0.096566908 0.68769687
-0.0030207962 -0.097174294 0.68820512
-0.0027410255 -0.097829573 0.68875748
-0.0025743623 -0.098515235 0.68933868
-0.0025022314 -0.099224158 0.68994224
-0.0025035669 -0.099980652 0.6905883
-0.0025010388 -0.099911004 0.69052875
-0.009992958 -0.094523832 0.68612254
-0.010600259 -0.09452448 0.68613887
-0.011403203 -0.09456823 0.6861971
-0.01221198 -0.094678402 0.68631214
-0.013004133 -0.094871961 0.68649799
-0.01375493 -0.095161811 0.68676502
-0.014436189 -0.095553353 0.6871171
-0.015020938 -0.096041068 0.68754876
-0.015491188 -0.09660881 0.6880458
-0.015843095 -0.097235441 0.68859011
-0.016085884 -0.097902536 0.68916613
-0.016237231 -0.098601319 0.68976682
-0.016320826 -0.099354088 0.69041181
-0.016315524 -0.099284567 0.69035232
-0.010610661 -0.10550065 0.69551277
-0.011214797 -0.10544507 0.695481
-0.012008742 -0.1053289 0.69540238
-0.012801034 -0.10514612 0.6952669
-0.013567426 -0.1048819 0.69506115
-0.014281862 -0.1045256 0.6947754
-0.014915698 -0.10407443 0.69440651
-0.01544272 -0.10353629 0.69396067
-0.015846841 -0.10292891 0.69345242
-0.016126612 -0.10227363 0.69290006
-0.016293274 -0.10158797 0.69231886
-0.016365405 -0.10087905 0.6917153
-0.01636407 -0.10012256 0.69106925
-0.016366599 -0.1001922 0.69112879
-0.0089437617 -0.1048964 0.6949535
-0.0084114941 -0.10489584 0.6949392
-0.0077077546 -0.10485749 0.69488823
-0.0069989027 -0.10476093 0.69478732
-0.0063046208 -0.10459129 0.69462442
-0.0056465855 -0.10433725 0.69439042
-0.0050494978 -0.10399408 0.69408184
-0.0045369947 -0.10356662 0.69370353
-0.0041248444 -0.10306903 0.69326788
-0.0038164153 -0.10251983 0.69279087
-0.0036036246 -0.10193515 0.69228601
-0.0034709766 -0.1013227 0.69175953
-0.0033977095 -0.10066294 0.69119418
-0.0034023577 -0.10072387 0.69124633
-0.0084023764 -0.095275789 0.68672347
-0.0078728823 -0.095324501 0.68675131
-0.0071770302 -0.095426321 0.68682021
-0.0064826263 -0.095586509 0.686939
-0.0058109234 -0.095818095 0.68711931
-0.0051847561 -0.096130371 0.68736976
-0.0046292325 -0.096525803 0.68769306
-0.0041673249 -0.096997447 0.68808383
-0.0038131326 -0.097529791 0.68852925
-0.0035679282 -0.098104104 0.68901336
-0.0034218566 -0.098705053 0.6895228
-0.0033586374 -0.099326387 0.69005179
-0.0033598079 -0.099989414 0.69061804
-0.0033575925 -0.099928372 0.69056582
-0.0099238753 -0.095206797 0.68670404
-0.010456143 -0.095207363 0.68671834
-0.011159883 -0.095245712 0.68676931
-0.011868735 -0.095342271 0.68687022
-0.012563016 -0.095511913 0.68703306
-0.013221052 -0.095765948 0.68726712
-0.013818139 -0.096109122 0.6875757
-0.014330642 -0.096536577 0.68795401
-0.014742793 -0.097034171 0.68838966
-0.015051221 -0.097583383 0.68886667
-0.015264013 -0.09816806 0.68937153
-0.01539666 -0.098780505 0.68989801
-0.015469927 -0.099440262 0.69046336
-0.015465279 -0.099379331 0.69041121
-0.010465261 -0.10482741 0.69493407
-0.010994755 -0.1047787 0.69490623
-0.011690607 -0.10467689 0.69483733
-0.012385011 -0.10451669 0.69471854
-0.013056713 -0.10428511 0.69453824
-0.01368288 -0.10397284 0.69428778
-0.014238405 -0.1035774 0.69396448
-0.014700312 -0.10310575 0.69357371
-0.015054504 -0.10257341 0.69312829
-0.015299709 -0.1019991 0.69264418
-0.015445781 -0.10139815 0.69213474
-0.015509 -0.10077681 0.69160575
-0.015507829 -0.10011379 0.6910395
-0.015510045 -0.10017483 0.69109172
-0.0090247616 -0.10409562 0.69427174
-0.0085804705 -0.10409515 0.69425982
-0.0079930499 -0.10406315 0.69421721
-0.0074013616 -0.10398255 0.69413304
-0.0068218354 -0.10384094 0.69399709
-0.0062725646 -0.10362889 0.69380176
-0.0057741674 -0.10334244 0.69354415
-0.0053463741 -0.10298564 0.69322836
-0.0050023473 -0.10257029 0.69286472
-0.0047448971 -0.10211186 0.69246656
-0.0045672781 -0.10162382 0.69204515
-0.0044565545 -0.1011126 0.69160569
-0.0043953974 -0.10056189 0.6911338
-0.0043992773 -0.10061275 0.69117731
-0.0085728606 -0.096065171 0.68740201
-0.0081308838 -0.096105829 0.68742526
-0.0075500472 -0.096190818 0.68748277
-0.0069704191 -0.096324533 0.6875819
-0.0064097396 -0.096517839 0.68773246
-0.0058870697 -0.096778497 0.68794149
-0.0054233661 -0.097108573 0.68821132
-0.0050378055 -0.097502261 0.68853754
-0.0047421572 -0.097946614 0.68890935
-0.0045374813 -0.098425999 0.68931341
-0.0044155535 -0.098927625 0.68973863
-0.0043627839 -0.099446252 0.69018018
-0.0043637608 -0.099999696 0.69065285
-0.0043619112 -0.099948741 0.69060928
-0.0098428754 -0.096007578 0.6873858
-0.010287167 -0.096008047 0.68739772
-0.010874587 -0.096040063 0.68744028
-0.011466276 -0.096120656 0.6875245
-0.012045802 -0.096262261 0.68766046
-0.012595072 -0.096474312 0.68785578
-0.01309347 -0.096760757 0.68811339
-0.013521263 -0.097117566 0.68842918
-0.01386529 -0.097532913 0.68879282
-0.01412274 -0.097991347 0.68919098
-0.014300359 -0.098479383 0.68961239
-0.014411082 -0.098990604 0.69005185
-0.01447224 -0.099541314 0.69052374
-0.01446836 -0.099490449 0.69048023
-0.010294776 -0.10403804 0.69425553
-0.010736753 -0.10399737 0.69423229
-0.01131759 -0.10391238 0.69417477
-0.011897218 -0.10377868 0.69407564
-0.012457898 -0.10358536 0.69392508
-0.012980567 -0.1033247 0.69371605
-0.013444271 -0.10299463 0.69344622
-0.013829831 -0.10260095 0.69312
-0.01412548 -0.10215659 0.69274819
-0.014330155 -0.1016772 0.69234413
-0.014452084 -0.10117558 0.69191891
-0.014504854 -0.10065695 0.69147736
-0.014503877 -0.10010351 0.69100469
-0.014505725 -0.10015446 0.69104826
-0.0092233261 -0.10213257 0.69260043
-0.0089947032 -0.10213233 0.69259429
-0.0086924294 -0.10211585 0.69257241
-0.0083879586 -0.10207438 0.69252908
-0.0080897463 -0.10200152 0.69245911
-0.0078071035 -0.1018924 0.69235861
-0.0075506386 -0.101745 0.69222605
-0.0073305052 -0.1015614 0.69206357
-0.0071534761 -0.10134767 0.69187641
-0.0070209978 -0.10111177 0.69167155
-0.0069295987 -0.10086063 0.69145471
-0.0068726228 -0.10059757 0.69122857
-0.0068411524 -0.10031419 0.69098574
-0.0068431492 -0.10034036 0.69100815
-0.0089907879 -0.098000266 0.68906546
-0.0087633561 -0.098021187 0.68907738
-0.0084644696 -0.098064922 0.689107
-0.0081662051 -0.098133728 0.68915802
-0.0078776907 -0.098233201 0.68923545
-0.0076087359 -0.098367333 0.68934304
-0.0073701241 -0.098537177 0.68948191
-0.0071717226 -0.098739766 0.68964976
-0.0070195878 -0.098968416 0.68984109
-0.0069142659 -0.099215105 0.69004899
-0.0068515246 -0.099473223 0.6902678
-0.0068243705 -0.099740103 0.69049501
-0.0068248729 -0.10002489 0.69073826
-0.0068239216 -0.099998675 0.69071585
-0.0096443109 -0.097970635 0.68905705
-0.0098729338 -0.097970873 0.68906325
-0.010175208 -0.097987346 0.68908513
-0.010479678 -0.098028824 0.68912846
-0.010777891 -0.09810169 0.68919843
-0.011060534 -0.098210804 0.68929893
-0.011316998 -0.098358206 0.68943149
-0.011537132 -0.098541804 0.68959397
-0.01171416 -0.098755538 0.68978113
-0.011846639 -0.098991439 0.68998599
-0.011938038 -0.099242568 0.69020283
-0.011995015 -0.099505633 0.69042897
-0.012026484 -0.099789016 0.6906718
-0.012024488 -0.099762842 0.69064939
-0.0098768501 -0.10210294 0.69259208
-0.010104281 -0.10208201 0.69258016
-0.010403167 -0.10203828 0.69255054
-0.010701433 -0.10196947 0.69249952
-0.010989946 -0.10187 0.69242209
-0.011258901 -0.10173588 0.69231451
-0.011497513 -0.10156602 0.69217563
-0.011695915 -0.10136344 0.69200778
-0.011848049 -0.10113478 0.69181645
-0.011953371 -0.1008881 0.69160855
-0.012016113 -0.10062998 0.69138974
-0.012043267 -0.1003631 0.69116253
-0.012042765 -0.10007831 0.69091928
-0.012043715 -0.10010453 0.69094169
-0.0039470689 -0.059809249 0.80350369
-0.00038590777 -0.059805453 0.80340803
0.0043224934 -0.059548885 0.80306673
0.0090650991 -0.058902852 0.80239195
0.013710221 -0.057767835 0.80130208
0.018112836 -0.056068186 0.79973632
0.022107679 -0.0537722 0.79767185
0.025536606 -0.050912276 0.7951405
0.028294113 -0.047583111 0.79222584
0.030357672 -0.043908592 0.78903419
0.031781357 -0.039996792 0.78565657
0.032668848 -0.035899173 0.78213418
0.033159044 -0.031485029 0.77835178
0.033127945 -0.031892687 0.77870071
-0.00032490972 0.0045579285 0.74844009
0.0032176971 0.0042320038 0.74862647
0.0078733275 0.0035508093 0.74908739
0.012519266 0.0024790424 0.7498821
0.017013324 0.00092959538 0.75108868
0.021202726 -0.0011596722 0.75276423
0.024919484 -0.0038053517 0.75492716
0.028009899 -0.0069609019 0.75754178
0.030379634 -0.01052257 0.76052195
0.032020185 -0.014365056 0.76376086
0.032997485 -0.018385733 0.76716918
0.033420455 -0.022542777 0.77070832
0.033412624 -0.026978794 0.77449685
0.033427447 -0.026570398 0.77414769
-0.010504565 0.0050195395 0.74831003
-0.014065727 0.0050157448 0.74840569
-0.018774128 0.0047591757 0.74874699
-0.023516733 0.0041131456 0.74942178
-0.028161855 0.0029781274 0.75051165
-0.032564472 0.0012784769 0.7520774
-0.036559314 -0.0010175093 0.75414187
-0.039988238 -0.0038774309 0.75667322
-0.042745747 -0.0072065969 0.75958794
-0.044809308 -0.010881115 0.76277953
-0.046232991 -0.014792915 0.76615715
-0.047120482 -0.018890534 0.76967955
-0.047610678 -0.02330468 0.77346194
-0.047579579 -0.022897022 0.77311301
-0.014126725 -0.059347637 0.80337363
-0.017669331 -0.059021711 0.80318725
-0.022324963 -0.058340516 0.80272633
-0.026970901 -0.05726875 0.80193162
-0.03146496 -0.055719305 0.80072504
-0.035654359 -0.053630035 0.7990495
-0.039371118 -0.050984357 0.79688656
-0.042461533 -0.047828805 0.79427195
-0.044831268 -0.044267137 0.79129177
-0.046471823 -0.040424652 0.78805286
-0.047449119 -0.036403976 0.78464454
-0.047872089 -0.032246932 0.7811054
-0.047864258 -0.027810913 0.77731687
-0.047879081 -0.028219309 0.77766603
-0.0039293775 -0.05922709 0.80418539
-0.00036821628 -0.059223294 0.80408973
0.0043401853 -0.058966726 0.80374843
0.0090827905 -0.058320694 0.80307359
0.013727913 -0.057185676 0.80198377
0.01813053 -0.055486027 0.80041796
0.022125371 -0.053190041 0.79835355
0.025554297 -0.050330117 0.79582214
0.028311804 -0.047000952 0.79290748
0.030375363 -0.043326434 0.78971589
0.031799048 -0.039414633 0.78633827
0.032686539 -0.035317015 0.78281587
0.033176735 -0.03090287 0.77903348
0.033145636 -0.031310529 0.77938241
-0.00030721823 0.0051400866 0.74912173
0.0032353888 0.0048141619 0.74930817
0.0078910189 0.0041329674 0.74976909
0.012536958 0.0030612005 0.7505638
0.017031016 0.0015117535 0.75177038
0.021220418 -0.00057751406 0.75344586
0.024937175 -0.0032231936 0.75560886
0.02802759 -0.0063787438 0.75822347
0.030397326 -0.0099404119 0.76120365
0.032037877 -0.013782898 0.76444256
0.033015177 -0.017803574 0.76785088
0.033438146 -0.021960618 0.77139002
0.033430316 -0.026396638 0.77517855
0.033445138 -0.02598824 0.77482939
-0.010486874 0.0056016976 0.74899173
-0.014048035 0.0055979029 0.74908739
-0.018756436 0.0053413338 0.74942869
-0.023499042 0.0046953037 0.75010347
-0.028144164 0.0035602855 0.75119334
-0.032546781 0.001860635 0.7527591
-0.036541622 -0.00043535116 0.75482357
-0.039970547 -0.0032952728 0.75735492
-0.042728055 -0.0066244388 0.76026958
-0.044791616 -0.010298957 0.76346117
-0.0462153 -0.014210757 0.76683885
-0.04710279 -0.018308375 0.77036124
-0.047592986 -0.022722522 0.77414364
-0.047561888 -0.022314863 0.77379471
-0.014109033 -0.058765478 0.80405533
-0.01765164 -0.058439553 0.80386895
-0.022307271 -0.057758357 0.80340803
-0.026953209 -0.056686591 0.80261332
-0.031447269 -0.055137146 0.80140674
-0.035636667 -0.053047877 0.79973119
-0.039353427 -0.050402198 0.79756826
-0.042443842 -0.047246646 0.79495364
-0.044813577 -0.043684978 0.79197347
-0.046454132 -0.039842494 0.78873456
-0.047431428 -0.035821818 0.78532624
-0.047854397 -0.031664774 0.7817871
-0.047846567 -0.027228754 0.77799851
-0.04786139 -0.027637152 0.77834767
-0.0039104163 -0.058603149 0.80491596
-0.00034925499 -0.058599353 0.8048203
0.0043591466 -0.058342785 0.804479
0.0091017522 -0.057696752 0.80380422
0.013746874 -0.056561735 0.80271435
0.01814949 -0.054862086 0.80114859
0.022144333 -0.0525661 0.79908413
0.025573257 -0.049706176 0.79655278
0.028330764 -0.046377011 0.79363811
0.030394325 -0.042702492 0.79044652
0.03181801 -0.038790692 0.7870689
0.032705497 -0.034693073 0.78354651
0.033195697 -0.030278929 0.77976406
0.033164598 -0.030686587 0.78011304
-0.00028825697 0.0057640285 0.74985236
0.00325435 0.0054381038 0.75003874
0.0079099806 0.0047569093 0.75049967
0.01255592 0.0036851424 0.75129437
0.017049978 0.0021356954 0.75250101
0.021239378 4.6427864e-05 0.7541765
0.024956137 -0.0025992517 0.75633943
0.028046552 -0.0057548019 0.75895411
0.030416287 -0.0093164695 0.76193428
0.032056838 -0.013158956 0.76517314
0.033034138 -0.017179633 0.76858145
0.033457108 -0.021336677 0.77212059
0.033449277 -0.025772694 0.77590919
0.0334641 -0.025364298 0.77556002
-0.010467913 0.0062256395 0.74972236
-0.014029074 0.0062218448 0.74981803
-0.018737476 0.0059652757 0.75015932
-0.02348008 0.0053192456 0.75083411
-0.028125202 0.0041842274 0.75192398
-0.032527819 0.002484577 0.75348973
-0.03652266 0.00018859077 0.7555542
-0.039951589 -0.0026713309 0.75808555
-0.042709094 -0.0060004969 0.76100022
-0.044772655 -0.0096750148 0.76419181
-0.046196338 -0.013586815 0.76756942
-0.047083829 -0.017684434 0.77109182
-0.047574025 -0.02209858 0.77487427
-0.047542926 -0.02169092 0.77452528
-0.014090072 -0.058141537 0.80478597
-0.017632678 -0.057815611 0.80459952
-0.022288309 -0.057134416 0.80413866
-0.026934249 -0.05606265 0.80334389
-0.031428307 -0.054513205 0.80213732
-0.035617709 -0.052423935 0.80046183
-0.039334465 -0.049778257 0.79829884
-0.04242488 -0.046622705 0.79568422
-0.044794615 -0.043061037 0.79270405
-0.04643517 -0.039218552 0.78946513
-0.047412466 -0.035197876 0.78605688
-0.047835439 -0.031040832 0.78251773
-0.047827605 -0.026604813 0.77872914
-0.047842428 -0.027013209 0.7790783
-0.0038900941 -0.057934422 0.80569905
-0.0003289328 -0.05793063 0.80560338
0.0043794685 -0.057674058 0.80526209
0.0091220737 -0.057028029 0.80458724
0.013767196 -0.055893011 0.80349743
0.018169813 -0.054193359 0.80193162
0.022164654 -0.051897373 0.79986721
0.025593581 -0.049037453 0.7973358
0.028351087 -0.045708288 0.79442114
0.030414646 -0.042033769 0.79122955
0.031838331 -0.038121969 0.78785193
0.032725822 -0.03402435 0.78432953
0.033216018 -0.029610204 0.78054714
0.03318492 -0.030017862 0.78089607
-0.00026793478 0.0064327531 0.75063539
0.0032746722 0.0061068283 0.75082183
0.0079303021 0.0054256339 0.75128275
0.012576242 0.0043538669 0.75207746
0.017070299 0.00280442 0.75328404
0.021259701 0.0007151523 0.75495952
0.024976458 -0.0019305272 0.75712252
0.028066874 -0.0050860774 0.75973713
0.030436609 -0.0086477455 0.76271731
0.032077163 -0.012490232 0.76595622
0.03305446 -0.016510908 0.76936454
0.033477429 -0.020667952 0.77290368
0.033469599 -0.025103971 0.77669221
0.033484422 -0.024695573 0.77634305
-0.010447591 0.006894364 0.75050539
-0.014008752 0.0068905693 0.75060105
-0.018717153 0.0066340002 0.75094235
-0.023459759 0.0059879702 0.75161713
-0.028104881 0.004852952 0.752707
-0.032507498 0.0031533013 0.75427276
-0.036502339 0.0008573152 0.75633723
-0.039931264 -0.0020026064 0.75886858
-0.042688772 -0.0053317724 0.76178324
-0.04475233 -0.0090062907 0.76497483
-0.046176016 -0.01291809 0.76835251
-0.047063507 -0.017015709 0.7718749
-0.047553703 -0.021429855 0.7756573
-0.047522604 -0.021022197 0.77530837
-0.01406975 -0.05747281 0.80556899
-0.017612357 -0.057146888 0.80538261
-0.022267988 -0.056465693 0.80492169
-0.026913926 -0.055393927 0.80412698
-0.031407986 -0.053844478 0.8029204
-0.035597384 -0.051755212 0.80124485
-0.039314143 -0.049109533 0.79908192
-0.042404559 -0.045953982 0.7964673
-0.044774294 -0.042392313 0.79348713
-0.046414845 -0.038549826 0.79024822
-0.047392145 -0.03452915 0.7868399
-0.047815114 -0.030372107 0.78330076
-0.047807284 -0.025936088 0.77951217
-0.047822107 -0.026344486 0.77986133
-0.0038683133 -0.057217702 0.80653828
-0.00030715202 -0.057213906 0.80644262
0.0044012493 -0.056957338 0.80610132
0.0091438545 -0.056311309 0.80542654
0.013788977 -0.055176292 0.80433667
0.018191593 -0.053476639 0.80277091
0.022186436 -0.051180653 0.80070645
0.025615361 -0.048320733 0.7981751
0.028372867 -0.044991564 0.79526043
0.030436428 -0.041317049 0.79206884
0.031860113 -0.037405249 0.78869116
0.0327476 -0.033307627 0.78516877
0.0332378 -0.028893482 0.78138638
0.033206701 -0.029301142 0.7817353
-0.000246154 0.0071494738 0.75147468
0.003296453 0.006823549 0.75166106
0.0079520829 0.0061423546 0.75212198
0.012598023 0.0050705876 0.75291669
0.017092081 0.0035211409 0.75412327
0.021281481 0.0014318732 0.75579882
0.02499824 -0.0012138063 0.75796175
0.028088653 -0.0043693567 0.76057637
0.030458389 -0.0079310248 0.76355654
0.032098942 -0.011773511 0.76679546
0.033076242 -0.015794186 0.77020377
0.033499211 -0.01995123 0.77374291
0.033491381 -0.02438725 0.77753145
0.033506203 -0.023978854 0.77718234
-0.01042581 0.0076110847 0.75134462
-0.013986971 0.0076072901 0.75144029
-0.018695373 0.0073507209 0.75178158
-0.023437979 0.0067046909 0.75245643
-0.028083101 0.0055696727 0.75354624
-0.032485716 0.0038700223 0.75511199
-0.036480557 0.0015740361 0.75717646
-0.039909486 -0.0012858856 0.75970781
-0.04266699 -0.0046150517 0.76262254
-0.044730552 -0.0082895691 0.76581413
-0.046154235 -0.01220137 0.76919174
-0.047041725 -0.016298989 0.77271414
-0.047531921 -0.020713134 0.77649653
-0.047500823 -0.020305475 0.7761476
-0.014047969 -0.05675609 0.80640823
-0.017590577 -0.056430165 0.80622184
-0.022246206 -0.055748973 0.80576092
-0.026892146 -0.054677203 0.80496621
-0.031386204 -0.053127758 0.80375963
-0.035575606 -0.051038489 0.80208409
-0.039292362 -0.04839281 0.79992115
-0.042382777 -0.045237262 0.79730654
-0.044752512 -0.041675594 0.79432636
-0.046393067 -0.037833106 0.79108745
-0.047370363 -0.03381243 0.78767914
-0.047793336 -0.029655388 0.78413999
-0.047785502 -0.025219368 0.78035146
-0.047800325 -0.025627764 0.78070062
-0.0038449692 -0.05644954 0.80743778
-0.00028380795 -0.056445744 0.80734211
0.0044245934 -0.056189176 0.80700082
0.009167199 -0.055543147 0.80632603
0.013812321 -0.054408129 0.80523616
0.018214937 -0.052708477 0.80367041
0.02220978 -0.050412491 0.80160594
0.025638705 -0.047552571 0.79907459
0.028396212 -0.044223402 0.79615986
0.030459771 -0.040548887 0.79296827
0.031883456 -0.036637086 0.78959066
0.032770947 -0.032539465 0.78606826
0.033261143 -0.02812532 0.78228587
0.033230044 -0.02853298 0.78263479
-0.00022280993 0.0079176361 0.75237417
0.0033197971 0.0075917114 0.75256056
0.0079754274 0.0069105173 0.75302148
0.012621366 0.0058387499 0.75381619
0.017115425 0.004289303 0.75502276
0.021304825 0.0022000356 0.75669831
0.025021583 -0.00044564396 0.75886124
0.028111998 -0.0036011944 0.76147586
0.030481733 -0.007162862 0.76445603
0.032122288 -0.011005349 0.76769495
0.033099584 -0.015026025 0.77110326
0.033522557 -0.019183068 0.77464241
0.033514723 -0.023619087 0.77843094
0.033529546 -0.023210691 0.77808177
-0.010402465 0.008379247 0.75224411
-0.013963627 0.0083754528 0.75233978
-0.018672029 0.0081188837 0.75268108
-0.023414634 0.0074728532 0.75335586
-0.028059756 0.006337835 0.75444573
-0.032462373 0.0046381848 0.75601149
-0.036457215 0.0023421985 0.75807595
-0.039886139 -0.00051772327 0.7606073
-0.042643648 -0.0038468891 0.76352197
-0.044707205 -0.0075214072 0.76671362
-0.046130892 -0.011433207 0.77009124
-0.047018379 -0.015530827 0.77361363
-0.047508579 -0.019944971 0.77739602
-0.04747748 -0.019537313 0.7770471
-0.014024625 -0.055987928 0.80730772
-0.017567232 -0.055662002 0.80712134
-0.022222862 -0.054980811 0.80666041
-0.026868802 -0.053909041 0.80586571
-0.031362861 -0.052359596 0.80465913
-0.03555226 -0.050270326 0.80298358
-0.039269019 -0.047624648 0.80082065
-0.042359434 -0.044469099 0.79820603
-0.044729169 -0.040907431 0.79522586
-0.04636972 -0.037064943 0.79198694
-0.04734702 -0.033044267 0.78857863
-0.04776999 -0.028887225 0.78503948
-0.047762159 -0.024451206 0.78125095
-0.047776982 -0.024859602 0.78160012
-0.0038199499 -0.055626247 0.80840182
-0.00025878852 -0.055622451 0.80830616
0.0044496129 -0.055365883 0.80796486
0.0091922181 -0.054719854 0.80729002
0.01383734 -0.053584836 0.80620021
0.018239956 -0.051885184 0.80463445
0.022234799 -0.049589198 0.80256999
0.025663724 -0.046729278 0.80003864
0.028421231 -0.043400113 0.79712391
0.03048479 -0.039725594 0.79393232
0.031908475 -0.035813794 0.7905547
0.032795966 -0.031716175 0.78703231
0.033286162 -0.027302029 0.78324991
0.033255063 -0.027709687 0.78359884
-0.0001977905 0.008740929 0.75333822
0.0033448164 0.0084150042 0.7535246
0.0080004465 0.0077338093 0.75398552
0.012646385 0.0066620423 0.75478023
0.017140444 0.0051125954 0.75598681
0.021329844 0.003023328 0.75766236
0.025046604 0.00037764839 0.75982529
0.028137017 -0.0027779019 0.76243991
0.030506752 -0.00633957 0.76542008
0.032147307 -0.010182056 0.768659
0.033124603 -0.014202732 0.77206731
0.033547577 -0.018359775 0.77560645
0.033539746 -0.022795795 0.77939498
0.033554569 -0.022387398 0.77904582
-0.010377446 0.009202539 0.75320816
-0.013938608 0.0091987448 0.75330383
-0.01864701 0.0089421757 0.75364512
-0.023389615 0.0082961451 0.75431991
-0.028034737 0.0071611274 0.75540978
-0.032437354 0.0054614772 0.75697553
-0.036432195 0.0031654909 0.75904
-0.03986112 0.00030556909 0.76157135
-0.042618629 -0.0030235967 0.76448601
-0.044682186 -0.0066981148 0.76767761
-0.046105873 -0.010609915 0.77105528
-0.04699336 -0.014707534 0.77457768
-0.04748356 -0.01912168 0.77836007
-0.047452461 -0.01871402 0.77801114
-0.013999606 -0.055164635 0.80827177
-0.017542213 -0.054838713 0.80808538
-0.022197843 -0.054157518 0.80762446
-0.026843783 -0.053085752 0.80682975
-0.031337839 -0.051536303 0.80562317
-0.03552724 -0.049447037 0.80394763
-0.039244 -0.046801355 0.80178469
-0.042334415 -0.043645807 0.79917008
-0.04470415 -0.040084139 0.7961899
-0.046344701 -0.036241651 0.79295099
-0.047322001 -0.032220975 0.78954268
-0.047744971 -0.028063932 0.78600353
-0.04773714 -0.023627913 0.782215
-0.047751963 -0.024036309 0.7825641
-0.0037931351 -0.054743875 0.80943501
-0.00023197365 -0.054740079 0.80933934
0.0044764276 -0.054483511 0.80899805
0.0092190336 -0.053837478 0.80832326
0.013864156 -0.05270246 0.80723339
0.018266771 -0.051002812 0.80566764
0.022261614 -0.048706826 0.80360317
0.025690539 -0.045846902 0.80107182
0.028448045 -0.042517737 0.79815716
0.030511606 -0.038843218 0.79496557
0.03193529 -0.034931418 0.79158795
0.03282278 -0.030833801 0.78806555
0.033312976 -0.026419654 0.7842831
0.033281878 -0.026827313 0.78463209
-0.00017097562 0.0096233021 0.7543714
0.0033716313 0.0092973774 0.75455779
0.0080272611 0.008616183 0.75501871
0.012673201 0.007544416 0.75581342
0.017167259 0.005994969 0.75702006
0.021356659 0.0039057015 0.75869554
0.025073418 0.0012600219 0.76085848
0.028163832 -0.0018955284 0.76347315
0.030533569 -0.0054571964 0.76645333
0.032174122 -0.0092996825 0.76969224
0.033151418 -0.013320358 0.7731005
0.033574391 -0.017477402 0.77663964
0.033566561 -0.021913422 0.78042823
0.033581384 -0.021505024 0.78007907
-0.010350632 0.010084913 0.75424141
-0.013911793 0.010081119 0.75433707
-0.018620195 0.0098245488 0.75467837
-0.0233628 0.0091785192 0.75535315
-0.028007921 0.0080435006 0.75644302
-0.032410536 0.0063438504 0.75800878
-0.036405381 0.0040478641 0.76007324
-0.039834306 0.0011879426 0.76260459
-0.04259181 -0.0021412233 0.76551926
-0.044655371 -0.0058157411 0.76871085
-0.046079058 -0.0097275414 0.77208847
-0.046966545 -0.01382516 0.77561086
-0.047456745 -0.018239306 0.77939332
-0.047425646 -0.017831648 0.77904433
-0.013972791 -0.054282263 0.80930501
-0.017515399 -0.053956337 0.80911863
-0.022171028 -0.053275142 0.80865771
-0.026816968 -0.052203376 0.807863
-0.031311024 -0.050653931 0.80665636
-0.035500426 -0.048564661 0.80498087
-0.039217185 -0.045918982 0.80281794
-0.0423076 -0.042763431 0.80020326
-0.044677336 -0.039201763 0.79722309
-0.046317887 -0.035359278 0.79398417
-0.047295187 -0.031338602 0.79057592
-0.047718156 -0.027181558 0.78703678
-0.047710326 -0.022745539 0.78324819
-0.047725148 -0.023153936 0.78359735
-0.0037643968 -0.053798206 0.81054235
-0.00020323532 -0.053794414 0.81044668
0.0045051659 -0.053537842 0.81010538
0.0092477715 -0.052891813 0.8094306
0.013892894 -0.051756795 0.80834073
0.01829551 -0.050057143 0.80677497
0.022290353 -0.047761157 0.80471051
0.025719278 -0.044901237 0.80217916
0.028476784 -0.041572072 0.79926449
0.030540343 -0.037897553 0.7960729
0.03196403 -0.033985753 0.79269528
0.032851517 -0.029888133 0.78917289
0.033341717 -0.025473988 0.78539044
0.033310618 -0.025881646 0.78573942
-0.00014223729 0.010568969 0.75547874
0.0034003695 0.010243044 0.75566518
0.0080559999 0.0095618498 0.75612605
0.012701939 0.0084900828 0.75692075
0.017195998 0.0069406359 0.75812739
0.021385398 0.0048513683 0.75980288
0.025102157 0.0022056887 0.76196587
0.02819257 -0.00094986154 0.76458049
0.030562306 -0.0045115296 0.76756066
0.032202858 -0.0083540156 0.77079958
0.033180159 -0.012374692 0.77420783
0.033603128 -0.016531736 0.77774698
0.033595297 -0.020967755 0.78153557
0.03361012 -0.020559357 0.7811864
-0.010321893 0.01103058 0.75534874
-0.013883054 0.011026786 0.75544441
-0.018591456 0.010770217 0.7557857
-0.023334062 0.010124186 0.75646049
-0.027979184 0.0089891683 0.75755036
-0.032381799 0.0072895172 0.75911611
-0.03637664 0.0049935314 0.76118058
-0.039805569 0.0021336095 0.76371193
-0.042563073 -0.0011955564 0.7666266
-0.044626635 -0.0048700743 0.76981819
-0.046050318 -0.0087818746 0.7731958
-0.046937808 -0.012879494 0.7767182
-0.047428004 -0.017293639 0.78050065
-0.047396906 -0.016885981 0.78015167
-0.013944052 -0.053336594 0.81041235
-0.01748666 -0.053010672 0.81022596
-0.022142289 -0.052329477 0.80976504
-0.026788229 -0.051257711 0.80897033
-0.031282287 -0.049708262 0.8077637
-0.035471689 -0.047618996 0.80608821
-0.039188445 -0.044973314 0.80392528
-0.04227886 -0.041817766 0.8013106
-0.044648595 -0.038256098 0.79833043
-0.04628915 -0.03441361 0.79509157
-0.047266446 -0.030392935 0.79168326
-0.047689419 -0.026235892 0.78814411
-0.047681589 -0.021799872 0.78435552
-0.047696412 -0.02220827 0.78470469
-0.0037335986 -0.052784763 0.81172907
-0.00017243724 -0.052780967 0.81163341
0.0045359642 -0.052524399 0.81129211
0.0092785694 -0.051878367 0.81061733
0.013923692 -0.050743349 0.80952746
0.018326309 -0.0490437 0.8079617
0.02232115 -0.046747714 0.80589724
0.025750076 -0.04388779 0.80336589
0.028507583 -0.040558625 0.80045122
0.030571142 -0.036884107 0.79725963
0.031994827 -0.032972306 0.79388195
0.032882318 -0.028874688 0.79035956
0.033372514 -0.024460543 0.78657717
0.033341415 -0.024868201 0.78692609
-0.00011143922 0.011582414 0.75666547
0.0034311677 0.011256489 0.75685185
0.0080867978 0.010575294 0.75731277
0.012732737 0.0095035275 0.75810748
0.017226795 0.0079540806 0.75931406
0.021416197 0.005864813 0.76098961
0.025132954 0.0032191337 0.76315254
0.028223369 6.3583284e-05 0.76576716
0.030593105 -0.0034980846 0.76874733
0.032233655 -0.0073405704 0.77198625
0.033210956 -0.011361247 0.77539456
0.033633925 -0.01551829 0.7789337
0.033626094 -0.019954311 0.78272223
0.033640917 -0.019545913 0.78237313
-0.010291095 0.012044025 0.75653541
-0.013852256 0.01204023 0.75663108
-0.018560657 0.011783661 0.75697237
-0.023303263 0.011137631 0.75764722
-0.027948385 0.010002613 0.75873703
-0.032351002 0.0083029624 0.76030284
-0.036345843 0.0060069761 0.76236725
-0.039774768 0.0031470542 0.7648986
-0.042532276 -0.00018211154 0.76781332
-0.044595834 -0.0038566294 0.77100492
-0.046019521 -0.0077684294 0.77438253
-0.046907011 -0.011866049 0.77790493
-0.047397207 -0.016280195 0.78168732
-0.047366109 -0.015872536 0.78133839
-0.013913254 -0.052323151 0.81159902
-0.017455861 -0.051997226 0.81141263
-0.022111492 -0.05131603 0.81095171
-0.02675743 -0.050244264 0.810157
-0.03125149 -0.048694819 0.80895042
-0.035440888 -0.04660555 0.80727494
-0.039157648 -0.043959871 0.80511194
-0.042248063 -0.040804319 0.80249733
-0.044617798 -0.037242651 0.79951715
-0.046258349 -0.033400167 0.79627824
-0.047235649 -0.029379491 0.79286993
-0.047658619 -0.025222447 0.78933078
-0.047650788 -0.020786427 0.78554225
-0.047665611 -0.021194825 0.78589141
-0.003700597 -0.051698808 0.81300068
-0.00013943567 -0.051695015 0.81290501
0.0045689656 -0.051438443 0.81256372
0.0093115708 -0.050792415 0.81188893
0.013956693 -0.049657397 0.81079906
0.018359309 -0.047957744 0.80923331
0.022354152 -0.045661759 0.80716884
0.025783077 -0.042801838 0.80463749
0.028540583 -0.039472673 0.80172282
0.030604145 -0.035798155 0.79853123
0.032027829 -0.031886354 0.79515356
0.032915317 -0.027788734 0.79163116
0.033405516 -0.023374589 0.78784877
0.033374418 -0.023782248 0.7881977
-7.8437639e-05 0.012668367 0.75793707
0.0034641693 0.012342443 0.75812346
0.0081197992 0.011661248 0.75858438
0.012765739 0.010589481 0.75937909
0.017259797 0.0090400344 0.76058567
0.021449197 0.0069507668 0.76226121
0.025165956 0.0043050875 0.76442415
0.02825637 0.001149537 0.76703876
0.030626107 -0.0024121308 0.77001894
0.032266658 -0.0062546167 0.77325785
0.033243958 -0.010275293 0.77666616
0.033666927 -0.014432336 0.78020531
0.033659097 -0.018868357 0.78399384
0.03367392 -0.018459959 0.78364474
-0.010258093 0.013129978 0.75780702
-0.013819255 0.013126184 0.75790268
-0.018527657 0.012869615 0.75824398
-0.023270262 0.012223585 0.75891882
-0.027915385 0.011088567 0.76000863
-0.032318 0.0093889162 0.76157445
-0.036312841 0.0070929299 0.76363885
-0.039741769 0.0042330083 0.76617026
-0.042499274 0.00090384221 0.76908493
-0.044562835 -0.0027706756 0.77227652
-0.045986518 -0.0066824756 0.77565414
-0.046874009 -0.010780095 0.77917653
-0.047364205 -0.015194241 0.78295892
-0.047333106 -0.014786582 0.78261
-0.013880253 -0.051237196 0.81287062
-0.01742286 -0.050911274 0.81268424
-0.02207849 -0.050230078 0.81222332
-0.02672443 -0.049158312 0.81142861
-0.031218488 -0.047608864 0.81022203
-0.03540789 -0.045519598 0.80854654
-0.039124645 -0.042873915 0.80638355
-0.04221506 -0.039718367 0.80376893
-0.044584796 -0.036156699 0.80078876
-0.04622535 -0.032314211 0.79754984
-0.047202647 -0.028293537 0.79414153
-0.04762562 -0.024136493 0.79060239
-0.047617786 -0.019700473 0.78681386
-0.047632609 -0.020108871 0.78716302
-0.0036652412 -0.050535385 0.814363
-0.00010407982 -0.050531588 0.81426734
0.0046043214 -0.05027502 0.81392604
0.0093469275 -0.049628992 0.81325126
0.013992049 -0.048493974 0.81216139
0.018394666 -0.046794321 0.81059563
0.022389507 -0.044498336 0.80853117
0.025818434 -0.041638415 0.80599982
0.02857594 -0.03830925 0.80308515
0.030639499 -0.034634732 0.79989356
0.032063186 -0.030722931 0.79651588
0.032950673 -0.026625311 0.79299349
0.033440873 -0.022211164 0.78921109
0.033409774 -0.022618825 0.78956002
-4.3081793e-05 0.013831791 0.7592994
0.0034995251 0.013505867 0.75948578
0.008155155 0.012824672 0.7599467
0.012801095 0.011752905 0.76074141
0.017295152 0.010203458 0.76194799
0.021484554 0.0081141908 0.76362354
0.025201311 0.005468511 0.76578647
0.028291726 0.0023129608 0.76840109
0.030661462 -0.0012487071 0.77138126
0.032302015 -0.0050911931 0.77462018
0.033279315 -0.0091118691 0.77802849
0.033702284 -0.013268913 0.78156763
0.033694454 -0.017704932 0.78535616
0.033709276 -0.017296536 0.78500706
-0.010222738 0.014293402 0.75916934
-0.013783899 0.014289607 0.75926501
-0.0184923 0.014033038 0.7596063
-0.023234906 0.013387009 0.76028115
-0.027880028 0.01225199 0.76137096
-0.032282643 0.010552339 0.76293677
-0.036277488 0.0082563534 0.76500118
-0.039706413 0.0053964318 0.76753259
-0.042463917 0.002067266 0.77044725
-0.044527479 -0.0016072519 0.77363884
-0.045951165 -0.005519052 0.77701646
-0.046838652 -0.0096166711 0.78053886
-0.047328852 -0.014030817 0.78432125
-0.04729775 -0.013623158 0.78397232
-0.013844897 -0.050073773 0.81423295
-0.017387504 -0.049747847 0.81404656
-0.022043133 -0.049066655 0.81358564
-0.026689073 -0.047994889 0.81279093
-0.031183131 -0.046445441 0.81158435
-0.035372533 -0.044356171 0.80990887
-0.039089292 -0.041710492 0.80774587
-0.042179704 -0.038554944 0.80513126
-0.044549439 -0.034993276 0.80215108
-0.046189994 -0.03115079 0.79891217
-0.04716729 -0.027130112 0.79550385
-0.047590263 -0.02297307 0.79196471
-0.047582433 -0.01853705 0.78817618
-0.047597256 -0.018945446 0.78852534
-0.0036273748 -0.049289349 0.81582206
-6.6213426e-05 -0.049285553 0.8157264
0.0046421881 -0.049028985 0.8153851
0.0093847932 -0.048382953 0.81471032
0.014029915 -0.047247935 0.81362045
0.018432532 -0.045548286 0.81205469
0.022427374 -0.0432523 0.80999023
0.025856299 -0.040392376 0.80745888
0.028613806 -0.037063211 0.80454421
0.030677365 -0.033388693 0.80135256
0.03210105 -0.029476894 0.79797494
0.032988541 -0.025379276 0.79445255
0.033478737 -0.020965129 0.79067016
0.033447638 -0.021372788 0.79101908
-5.2153996e-06 0.015077827 0.76075846
0.0035373915 0.014751903 0.76094484
0.0081930216 0.014070708 0.76140577
0.012838961 0.012998941 0.76220047
0.01733302 0.011449494 0.76340705
0.02152242 0.0093602268 0.7650826
0.025239179 0.0067145471 0.76724553
0.028329592 0.0035589966 0.76986015
0.030699328 -2.671183e-06 0.77284032
0.032339882 -0.0038451573 0.77607924
0.033317178 -0.0078658331 0.77948755
0.033740152 -0.012022877 0.7830267
0.033732317 -0.016458897 0.78681523
0.03374714 -0.016050499 0.78646612
-0.010184871 0.015539438 0.7606284
-0.013746032 0.015535643 0.76072407
-0.018454434 0.015279074 0.76106536
-0.02319704 0.014633045 0.76174021
-0.027842162 0.013498026 0.76283002
-0.032244779 0.011798375 0.76439577
-0.03623962 0.0095023895 0.76646024
-0.039668545 0.0066424678 0.76899159
-0.042426053 0.0033133018 0.77190632
-0.044489611 -0.00036121605 0.77509791
-0.045913298 -0.004273016 0.77847552
-0.046800785 -0.0083706351 0.78199792
-0.047290985 -0.012784781 0.78578031
-0.047259886 -0.012377122 0.78543139
-0.01380703 -0.048827738 0.81569201
-0.017349638 -0.048501812 0.81550562
-0.022005267 -0.04782062 0.8150447
-0.026651207 -0.04674885 0.81424999
-0.031145265 -0.045199405 0.81304342
-0.035334665 -0.043110136 0.81136787
-0.039051425 -0.040464457 0.80920494
-0.04214184 -0.037308905 0.80659032
-0.044511575 -0.033747241 0.80361015
-0.046152126 -0.029904753 0.80037123
-0.047129426 -0.025884077 0.79696292
-0.047552396 -0.021727033 0.79342377
