# .PCD v0.7 - Point Cloud Data file format
VERSION 0.7
FIELDS x y z rgba
SIZE 4 4 4 4
TYPE F F F U
COUNT 1 1 1 1
WIDTH 1028
HEIGHT 1
VIEWPOINT 0 0 0 1 0 0 0
POINTS 1028
DATA ascii
0.062402803 0.023138119 0.80500007 4294964716
-0.036884241 0.024357516 0.79900002 4290222376
-0.035492383 0.024357516 0.79900002 4289307437
-0.034057844 0.024327034 0.79800004 4289241643
-0.032503981 0.024205092 0.79400003 4288649282
-0.031042445 0.024144122 0.79200006 4286938920
-0.02966278 0.024144122 0.79200006 4286085671
-0.028140271 0.024022182 0.78800005 4286677809
-0.026767576 0.024022182 0.78800005 4287795456
-0.025362652 0.023991698 0.78700006 4288387588
-0.023930727 0.023930727 0.78500003 4287927049
-0.022505773 0.023869758 0.78300005 4287795719
-0.021087782 0.023808787 0.78100002 4287335191
-0.019702023 0.023778303 0.78000003 4287335191
-0.018343262 0.023778303 0.78000003 4287138321
-0.016940951 0.023717333 0.77800006 4287006478
-0.015585676 0.023717333 0.77800006 4287203593
-0.014193818 0.023656361 0.77600002 4286940422
-0.012808928 0.023595393 0.77400005 4286875136
-0.01146062 0.023595393 0.77400005 4287072256
-0.010099247 0.023564909 0.77300006 4287137815
-0.0087526804 0.023564909 0.77300006 4286743313
-0.0073869512 0.023503937 0.77100003 4287003904
-0.0060438695 0.023503937 0.77100003 4288780046
-0.0046885936 0.023442967 0.76900005 4289368714
-0.0033489955 0.023442967 0.76900005 4289171335
-0.0020041713 0.023381997 0.76700002 4289038722
-0.00066718605 0.023351513 0.76600003 4288906880
0.00066718605 0.023351513 0.76600003 4288775560
0.0020015582 0.023351513 0.76600003 4288775560
0.0033272204 0.023290543 0.76400006 4288644228
0.0046581086 0.023290543 0.76400006 4288841607
0.0059889969 0.023290543 0.76400006 4288646795
0.0073198848 0.023290543 0.76400006 4288909710
0.0086507732 0.023290543 0.76400006 4286019488
0.009955531 0.023229571 0.76200002 4281019220
0.011282935 0.023229571 0.76200002 4278202656
0.01261034 0.023229571 0.76200002 4279125557
0.013937743 0.023229571 0.76200002 4279909697
0.015265148 0.023229571 0.76200002 4280107333
0.016592553 0.023229571 0.76200002 4280632382
0.017919956 0.023229571 0.76200002 4280895298
0.019247361 0.023229571 0.76200002 4280960341
0.020574765 0.023229571 0.76200002 4280499790
0.021902168 0.023229571 0.76200002 4280301905
0.023229571 0.023229571 0.76200002 4280367954
0.024556976 0.023229571 0.76200002 4280628046
0.025884381 0.023229571 0.76200002 4279246393
0.027211783 0.023229571 0.76200002 4280758060
0.028614094 0.023290543 0.76400006 4286284416
0.029944982 0.023290543 0.76400006 4288712601
0.031275872 0.023290543 0.76400006 4290949307
0.032606762 0.023290543 0.76400006 4291210405
0.034026489 0.023351513 0.76600003 4290618268
0.035407025 0.023381997 0.76700002 4289041032
0.036934759 0.023503937 0.77100003 4288119930
0.038426783 0.023595393 0.77400005 4287794951
0.039877865 0.023656361 0.77600002 4288847639
0.041335925 0.023717333 0.77800006 4288717362
0.042800944 0.023778303 0.78000003 4289704513
0.044216316 0.023808787 0.78100002 4289243431
0.045693535 0.023869758 0.78300005 4288848673
0.047177717 0.023930727 0.78500003 4289111327
0.048545189 0.023930727 0.78500003 4289835050
0.050039828 0.023991698 0.78700006 4289769273
0.051410783 0.023991698 0.78700006 4290229824
0.052848801 0.024022182 0.78800005 4289376269
0.058051284 0.024479458 0.80300003 4289378640
0.059746251 0.024601398 0.80700004 4291215006
0.061000492 0.02454043 0.80500007 4294965722
0.062402803 0.02454043 0.80500007 4294963941
-0.035492383 0.025749376 0.79900002 4288978487
-0.034057844 0.025717149 0.79800004 4289175867
-0.032585856 0.025652695 0.79600006 4288386877
-0.031120831 0.02558824 0.79400003 4287005224
-0.02966278 0.025523787 0.79200006 4286412833
-0.02821169 0.025459332 0.79000002 4286084124
-0.026767576 0.025394879 0.78800005 4287333894
-0.025362652 0.025362652 0.78700006 4288452632
-0.023991698 0.025362652 0.78700006 4288058639
-0.022505773 0.025233746 0.78300005 4287926797
-0.021087782 0.025169291 0.78100002 4287137815
-0.01972728 0.025169291 0.78100002 4287072021
-0.018343262 0.025137061 0.78000003 4287268621
-0.016984502 0.025137061 0.78000003 4287202828
-0.015585676 0.025072608 0.77800006 4287006226
-0.014193818 0.025008155 0.77600002 4286940433
-0.012842026 0.025008155 0.77600002 4286940672
-0.01146062 0.024943702 0.77400005 4287006721
-0.010112311 0.024943702 0.77400005 4287072021
-0.0087526804 0.024911474 0.77300006 4287006228
-0.0074061137 0.024911474 0.77300006 4286543616
-0.0060595479 0.024911474 0.77300006 4287398912
-0.0047007874 0.024847019 0.77100003 4288775253
-0.0033577052 0.024847019 0.77100003 4289301597
-0.0020093974 0.024782566 0.76900005 4289300613
-0.00066805707 0.024718111 0.76700002 4289168771
0.00066805707 0.024718111 0.76700002 4288776066
0.0020015582 0.024685884 0.76600003 4288776066
0.0033359304 0.024685884 0.76600003 4288513158
0.0046703028 0.024685884 0.76600003 4288381571
0.0059889969 0.024621431 0.76400006 4288643974
0.0073198848 0.024621431 0.76400006 4289170318
0.0086507732 0.024621431 0.76400006 4287530651
0.009955531 0.024556976 0.76200002 4283780450
0.011282935 0.024556976 0.76200002 4280233540
0.01261034 0.024556976 0.76200002 4279904319
0.013937743 0.024556976 0.76200002 4278200632
0.015265148 0.024556976 0.76200002 4278531910
0.016592553 0.024556976 0.76200002 4280497210
0.017919956 0.024556976 0.76200002 4280694845
0.019247361 0.024556976 0.76200002 4280825421
0.020574765 0.024556976 0.76200002 4280628298
0.021959655 0.024621431 0.76400006 4280759355
0.023229571 0.024556976 0.76200002 4280364597
0.024556976 0.024556976 0.76200002 4279510303
0.025952319 0.024621431 0.76400006 4279905061
0.027283208 0.024621431 0.76400006 4283254090
0.028614094 0.024621431 0.76400006 4288714909
0.030023374 0.024685884 0.76600003 4290487213
0.031357747 0.024685884 0.76600003 4291079350
0.032692116 0.024685884 0.76600003 4290620818
0.034070909 0.024718111 0.76700002 4289107323
0.035591677 0.024847019 0.77100003 4287859516
0.03703057 0.024911474 0.77300006 4287530807
0.038526077 0.025008155 0.77600002 4287795712
0.03998065 0.025072608 0.77800006 4288848389
0.041335925 0.025072608 0.77800006 4288651278
0.042800944 0.025137061 0.78000003 4289572380
0.044216316 0.025169291 0.78100002 4289112874
0.045693535 0.025233746 0.78300005 4288718116
0.047177717 0.025298197 0.78500003 4288848932
0.048545189 0.025298197 0.78500003 4289836083
0.050039828 0.025362652 0.78700006 4289900623
0.051410783 0.025362652 0.78700006 4289111107
0.052848801 0.025394879 0.78800005 4288125696
0.056652457 0.025878282 0.80300003 4286682658
0.05819587 0.025942737 0.80500007 4290498652
-0.035492383 0.027141234 0.79900002 4289175098
-0.034057844 0.027107265 0.79800004 4289372478
-0.032585856 0.027039329 0.79600006 4288584492
-0.031120831 0.026971389 0.79400003 4287663390
-0.02966278 0.026903452 0.79200006 4286086984
-0.02821169 0.026835512 0.79000002 4285297212
-0.026835512 0.026835512 0.79000002 4286348596
-0.025362652 0.026733607 0.78700006 4288058958
-0.023991698 0.026733607 0.78700006 4288058639
-0.022505773 0.026597731 0.78300005 4287926797
-0.021141784 0.026597731 0.78300005 4287203108
-0.01972728 0.026529793 0.78100002 4287005728
-0.018343262 0.026495824 0.78000003 4286678299
-0.016984502 0.026495824 0.78000003 4286612506
-0.015585676 0.026427886 0.77800006 4286612504
-0.0142304 0.026427886 0.77800006 4286546711
-0.012842026 0.026359946 0.77600002 4287006217
-0.011490233 0.026359946 0.77600002 4287006217
-0.010112311 0.026292009 0.77400005 4287005965
-0.0087640025 0.026292009 0.77400005 4287071758
-0.0074061137 0.026258042 0.77300006 4286808072
-0.0060595479 0.026258042 0.77300006 4285623552
-0.0047007874 0.0261901 0.77100003 4286737920
-0.0033577052 0.0261901 0.77100003 4288777497
-0.0020093974 0.026122164 0.76900005 4289170568
-0.00066805707 0.026054224 0.76700002 4289170568
0.00066805707 0.026054224 0.76700002 4288973177
0.0020015582 0.026020257 0.76600003 4288710006
0.0033359304 0.026020257 0.76600003 4288381830
0.0046703028 0.026020257 0.76600003 4288184708
0.0060046744 0.026020257 0.76600003 4288184706
0.0073390468 0.026020257 0.76600003 4288250499
0.0086507732 0.025952319 0.76400006 4287922567
0.0099816611 0.025952319 0.76400006 4288317069
0.01131255 0.025952319 0.76400006 4286282644
0.012643438 0.025952319 0.76400006 4284243318
0.013937743 0.025884381 0.76200002 4281616488
0.015265148 0.025884381 0.76200002 4280169042
0.016592553 0.025884381 0.76200002 4278198336
0.017919956 0.025884381 0.76200002 4278198336
0.019247361 0.025884381 0.76200002 4278787387
0.020574765 0.025884381 0.76200002 4278326836
0.021959655 0.025952319 0.76400006 4279572026
0.023290543 0.025952319 0.76400006 4282137953
0.024621431 0.025952319 0.76400006 4284568646
0.025952319 0.025952319 0.76400006 4288252798
0.027283208 0.025952319 0.76400006 4290027412
0.028688999 0.026020257 0.76600003 4290948514
0.030023374 0.026020257 0.76600003 4290882221
0.03139868 0.026054224 0.76700002 4289632154
0.032734796 0.026054224 0.76700002 4287857259
0.034159753 0.026122164 0.76900005 4286936413
0.035684004 0.026258042 0.77300006 4287334912
0.03703057 0.026258042 0.77300006 4288255748
0.038526077 0.026359946 0.77600002 4288322340
0.03998065 0.026427886 0.77800006 4288980271
0.041442186 0.026495824 0.78000003 4288914727
0.042855818 0.026529793 0.78100002 4289309485
0.04432955 0.026597731 0.78300005 4289309483
0.045810249 0.026665669 0.78500003 4289243690
0.047297921 0.026733607 0.78700006 4289046077
0.048668873 0.026733607 0.78700006 4290098765
0.050039828 0.026733607 0.78700006 4289770068
0.051476106 0.026767576 0.78800005 4288190779
0.055116016 0.027209172 0.80100006 4286484480
0.056652457 0.02727711 0.80300003 4287404318
0.058051284 0.02727711 0.80300003 4292470379
0.059598181 0.027345048 0.80500007 4293385687
-0.035492383 0.028533094 0.79900002 4289174572
-0.034100525 0.028533094 0.79900002 4289437743
-0.032585856 0.02842596 0.79600006 4288715568
-0.031199224 0.02842596 0.79600006 4287794466
-0.029737685 0.028354537 0.79400003 4286612547
-0.028283117 0.028283117 0.79200006 4285230894
-0.026835512 0.02821169 0.79000002 4285889536
-0.025394879 0.028140271 0.78800005 4287665930
-0.023991698 0.02810456 0.78700006 4287730456
-0.022620745 0.02810456 0.78700006 4287730456
-0.021141784 0.027961716 0.78300005 4286941732
-0.01972728 0.027890293 0.78100002 4286744354
-0.018366778 0.027890293 0.78100002 4286613019
-0.016984502 0.027854582 0.78000003 4286481177
-0.015625741 0.027854582 0.78000003 4286351128
-0.0142304 0.027783163 0.77800006 4286416921
-0.012875124 0.027783163 0.77800006 4286809878
-0.011490233 0.02771174 0.77600002 4286809878
-0.010138441 0.02771174 0.77600002 4286612754
-0.0087640025 0.027640317 0.77400005 4286810132
-0.0074156951 0.027640317 0.77400005 4286678562
-0.0060595479 0.027604608 0.77300006 4285296909
-0.0047129816 0.027604608 0.77300006 4285489664
-0.0033577052 0.027533185 0.77100003 4286542336
-0.0020093974 0.027461763 0.76900005 4288576843
-0.0006697991 0.027461763 0.76900005 4289432152
0.00066805707 0.027390338 0.76700002 4289170822
0.0020041713 0.027390338 0.76700002 4288841857
0.0033359304 0.02735463 0.76600003 4288185740
0.0046703028 0.02735463 0.76600003 4287922567
0.0060046744 0.02735463 0.76600003 4287527546
0.0073390468 0.02735463 0.76600003 4287922304
0.0086734183 0.02735463 0.76600003 4288577665
0.0099816611 0.027283208 0.76400006 4289104265
0.01131255 0.027283208 0.76400006 4288645789
0.012643438 0.027283208 0.76400006 4287593100
0.013937743 0.027211783 0.76200002 4285230715
0.015265148 0.027211783 0.76200002 4282269773
0.016636103 0.027283208 0.76400006 4282070332
0.017966991 0.027283208 0.76400006 4281083437
0.019297879 0.027283208 0.76400006 4278919713
0.020628767 0.027283208 0.76400006 4279577643
0.021959655 0.027283208 0.76400006 4282203680
0.023290543 0.027283208 0.76400006 4282927146
0.024621431 0.027283208 0.76400006 4287325020
0.026020257 0.02735463 0.76600003 4290943635
0.02735463 0.02735463 0.76600003 4290814375
0.028688999 0.02735463 0.76600003 4291143340
0.030062566 0.027390338 0.76700002 4290554260
0.031480554 0.027461763 0.76900005 4288580470
0.032820158 0.027461763 0.76900005 4287333144
0.034248594 0.027533185 0.77100003 4287464731
0.035684004 0.027604608 0.77300006 4287664640
0.037078474 0.027640317 0.77400005 4288453895
0.038625371 0.027783163 0.77800006 4288388131
0.03998065 0.027783163 0.77800006 4288980525
0.041442186 0.027854582 0.78000003 4288914979
0.042855818 0.027890293 0.78100002 4289309737
0.04432955 0.027961716 0.78300005 4289309474
0.045810249 0.028033137 0.78500003 4289375267
0.047297921 0.02810456 0.78700006 4288914475
0.048668873 0.02810456 0.78700006 4289901626
0.050103407 0.028140271 0.78800005 4289704521
0.055116016 0.028604515 0.80100006 4286352640
0.056511357 0.028604515 0.80100006 4288847178
0.057906698 0.028604515 0.80100006 4293781910
-0.032708667 0.029924951 0.79900002 4288846636
-0.031277612 0.029887499 0.79800004 4288122913
-0.029812593 0.029812593 0.79600006 4286809921
-0.028354537 0.029737685 0.79400003 4285428268
-0.026903452 0.02966278 0.79200006 4286216704
-0.025394879 0.029512968 0.78800005 4287795719
-0.024022182 0.029512968 0.78800005 4287927067
-0.022620745 0.029475516 0.78700006 4287992860
-0.021195788 0.029400608 0.78500003 4287073068
-0.019777799 0.029325703 0.78300005 4286809897
-0.018366778 0.029250795 0.78100002 4286547746
-0.016984502 0.029213343 0.78000003 4286481697
-0.015625741 0.029213343 0.78000003 4286547224
-0.014266982 0.029213343 0.78000003 4286613017
-0.012875124 0.029138438 0.77800006 4286678299
-0.011519847 0.029138438 0.77800006 4286678299
-0.010138441 0.02906353 0.77600002 4286612754
-0.0087866485 0.02906353 0.77600002 4286678803
-0.0074156951 0.028988626 0.77400005 4286874377
-0.0060595479 0.028951174 0.77300006 4286413826
-0.0047129816 0.028951174 0.77300006 4286147630
-0.0033664154 0.028951174 0.77300006 4285358115
-0.0020146233 0.028876266 0.77100003 4286277632
-0.00067154109 0.028876266 0.77100003 4288119563
0.0006697991 0.028801359 0.76900005 4288842624
0.0020041713 0.028726451 0.76700002 4289763726
0.0033402853 0.028726451 0.76700002 4289040024
0.0046763993 0.028726451 0.76700002 4288448144
0.0060046744 0.028688999 0.76600003 4288513408
0.0073390468 0.028688999 0.76600003 4288447614
0.0086734183 0.028688999 0.76600003 4288841087
0.0099816611 0.028614094 0.76400006 4289104515
0.01131255 0.028614094 0.76400006 4288711050
0.012643438 0.028614094 0.76400006 4288579464
0.013974326 0.028614094 0.76400006 4288121745
0.015305214 0.028614094 0.76400006 4287924110
0.016636103 0.028614094 0.76400006 4288055952
0.017966991 0.028614094 0.76400006 4288055952
0.019297879 0.028614094 0.76400006 4288121214
0.020628767 0.028614094 0.76400006 4288187007
0.022017142 0.028688999 0.76600003 4288713351
0.023351513 0.028688999 0.76600003 4289634453
0.024685884 0.028688999 0.76600003 4290158498
0.026054224 0.028726451 0.76700002 4290750379
0.027390338 0.028726451 0.76700002 4290027423
0.028726451 0.028726451 0.76700002 4288645770
0.030140961 0.028801359 0.76900005 4287463240
0.031562429 0.028876266 0.77100003 4287002689
0.032905515 0.028876266 0.77100003 4287137792
0.034337439 0.028951174 0.77300006 4288256000
0.035730168 0.028988626 0.77400005 4288059922
0.037174284 0.02906353 0.77600002 4288586267
0.038625371 0.029138438 0.77800006 4288651308
0.040083423 0.029213343 0.78000003 4289111859
0.041442186 0.029213343 0.78000003 4289177120
0.042855818 0.029250795 0.78100002 4289571878
0.04432955 0.029325703 0.78300005 4289572380
0.045810249 0.029400608 0.78500003 4289967138
0.047297921 0.029475516 0.78700006 4289702713
0.048668873 0.029475516 0.78700006 4289965884
0.050103407 0.029512968 0.78800005 4289573162
0.055116016 0.029999856 0.80100006 4288983325
0.056511357 0.029999856 0.80100006 4289898908
0.057906698 0.029999856 0.80100006 4294504162
-0.034100525 0.031316809 0.79900002 4290810137
-0.032708667 0.031316809 0.79900002 4288912190
-0.031316809 0.031316809 0.79900002 4288715068
-0.029887499 0.031277612 0.79800004 4286876487
-0.02842596 0.031199224 0.79600006 4285429041
-0.026971389 0.031120831 0.79400003 4286084096
-0.025523787 0.031042445 0.79200006 4287333894
-0.024022182 0.030885665 0.78800005 4287991340
-0.022620745 0.030846467 0.78700006 4288254513
-0.02124979 0.030846467 0.78700006 4287073852
-0.019777799 0.030689687 0.78300005 4286679094
-0.018413812 0.030689687 0.78300005 4286678562
-0.016984502 0.030572103 0.78000003 4286678562
-0.015625741 0.030572103 0.78000003 4286613019
-0.014266982 0.030572103 0.78000003 4286547226
-0.012908221 0.030572103 0.78000003 4286546709
-0.011519847 0.030493714 0.77800006 4286546709
-0.010164572 0.030493714 0.77800006 4286546709
-0.0088092946 0.030493714 0.77800006 4286612758
-0.007454019 0.030493714 0.77800006 4286152205
-0.0060673868 0.030336933 0.77400005 4286283534
-0.0047129816 0.030297739 0.77300006 4286479401
-0.0033664154 0.030297739 0.77300006 4285426712
-0.0020146233 0.030219346 0.77100003 4285162496
-0.00067154109 0.030219346 0.77100003 4286149376
0.00067154109 0.030219346 0.77100003 4287198533
0.0020093974 0.030140961 0.76900005 4288580186
0.0033402853 0.030062566 0.76700002 4289236085
0.0046763993 0.030062566 0.76700002 4289170036
0.0060125138 0.030062566 0.76700002 4289104515
0.0073486278 0.030062566 0.76700002 4289104515
0.0086734183 0.030023374 0.76600003 4288972673
0.010007791 0.030023374 0.76600003 4289104515
0.011342163 0.030023374 0.76600003 4288908427
0.012643438 0.029944982 0.76400006 4288908427
0.013974326 0.029944982 0.76400006 4288909199
0.015305214 0.029944982 0.76400006 4288909199
0.016636103 0.029944982 0.76400006 4289170833
0.017966991 0.029944982 0.76400006 4289762970
0.019348396 0.030023374 0.76600003 4289566361
0.020682767 0.030023374 0.76600003 4289697947
0.022017142 0.030023374 0.76600003 4289830033
0.023351513 0.030023374 0.76600003 4290158998
0.024718111 0.030062566 0.76700002 4290355614
0.026122164 0.030140961 0.76900005 4290157978
0.027461763 0.030140961 0.76900005 4289109365
0.028801359 0.030140961 0.76900005 4287267161
0.030219346 0.030219346 0.77100003 4286086925
0.031562429 0.030219346 0.77100003 4286481683
0.032990873 0.030297739 0.77300006 4287204352
0.034337439 0.030297739 0.77300006 4288191232
0.035822492 0.030415324 0.77600002 4287863320
0.037270095 0.030493714 0.77800006 4288718629
0.038724665 0.030572103 0.78000003 4289111091
0.040083423 0.030572103 0.78000003 4289308470
0.041495316 0.030611297 0.78100002 4289307423
0.042965565 0.030689687 0.78300005 4289439008
0.04444278 0.030768078 0.78500003 4289374749
0.045810249 0.030768078 0.78500003 4290098472
0.047297921 0.030846467 0.78700006 4290097232
0.048730712 0.030885665 0.78800005 4290163025
0.055116016 0.031395197 0.80100006 4291085633
0.056511357 0.031395197 0.80100006 4291872166
-0.032708667 0.032708667 0.79900002 4289829449
-0.031316809 0.032708667 0.79900002 4289895242
-0.029887499 0.03266773 0.79800004 4287794768
-0.028497381 0.03266773 0.79800004 4286413115
-0.027039329 0.032585856 0.79600006 4285823267
-0.02558824 0.032503981 0.79400003 4285625889
-0.024144122 0.032422107 0.79200006 4286939935
-0.022706972 0.032340232 0.79000002 4288650554
-0.021276791 0.032258362 0.78800005 4288321334
-0.019878836 0.032217424 0.78700006 4287400232
-0.018460847 0.032135546 0.78500003 4287334689
-0.017006276 0.031971801 0.78100002 4287005980
-0.015625741 0.03193086 0.78000003 4286612754
-0.014266982 0.03193086 0.78000003 4286612754
-0.012908221 0.03193086 0.78000003 4286480916
-0.011549461 0.03193086 0.78000003 4286546709
-0.010164572 0.031848989 0.77800006 4286546459
-0.0088092946 0.031848989 0.77800006 4286480666
-0.007454019 0.031848989 0.77800006 4286414623
-0.0060830647 0.031767115 0.77600002 4286348829
-0.0047190785 0.031685241 0.77400005 4286283534
-0.0033664154 0.031644303 0.77300006 4286086412
-0.0020198494 0.031644303 0.77300006 4285888515
-0.00067154109 0.031562429 0.77100003 4285230592
0.00067154109 0.031562429 0.77100003 4285425152
0.0020146233 0.031562429 0.77100003 4285490944
0.0033489955 0.031480554 0.76900005 4286870034
0.0046885936 0.031480554 0.76900005 4288712237
0.0060125138 0.03139868 0.76700002 4289040506
0.0073486278 0.03139868 0.76700002 4289040506
0.0086847423 0.03139868 0.76700002 4289040004
0.010007791 0.031357747 0.76600003 4289237126
0.011342163 0.031357747 0.76600003 4289040519
0.012676535 0.031357747 0.76600003 4288974470
0.014010907 0.031357747 0.76600003 4288909449
0.015345279 0.031357747 0.76600003 4289304207
0.016679652 0.031357747 0.76600003 4289631625
0.018014025 0.031357747 0.76600003 4290223762
0.019348396 0.031357747 0.76600003 4289961119
0.020682767 0.031357747 0.76600003 4289632154
0.022045882 0.03139868 0.76700002 4289435275
0.023381997 0.03139868 0.76700002 4289566861
0.024782566 0.031480554 0.76900005 4288647047
0.026122164 0.031480554 0.76900005 4287199344
0.027533185 0.031562429 0.77100003 4286873344
0.028876266 0.031562429 0.77100003 4287333894
0.030297739 0.031644303 0.77300006 4287138848
0.031644303 0.031644303 0.77300006 4287533606
0.032990873 0.031644303 0.77300006 4287600133
0.034381859 0.031685241 0.77400005 4288060684
0.035914816 0.031848989 0.77800006 4287995172
0.037270095 0.031848989 0.77800006 4288916274
0.038724665 0.03193086 0.78000003 4289308733
0.040134814 0.031971801 0.78100002 4288979769
0.041495316 0.031971801 0.78100002 4287729467
0.042965565 0.032053676 0.78300005 4286939952
0.04444278 0.032135546 0.78500003 4288518938
0.045926966 0.032217424 0.78700006 4290295349
0.055116016 0.032790542 0.80100006 4292269167
-0.031395197 0.034185886 0.80100006 4290222645
-0.029924951 0.034100525 0.79900002 4287992651
-0.028497381 0.034057844 0.79800004 4286479412
-0.027107265 0.034057844 0.79800004 4285955364
-0.025652695 0.033972487 0.79600006 4285166105
-0.024205092 0.033887129 0.79400003 4286348033
-0.022764459 0.033801772 0.79200006 4288453665
-0.021384794 0.033801772 0.79200006 4288322370
-0.019904094 0.033631057 0.78800005 4287796026
-0.018507883 0.03358838 0.78700006 4286876203
-0.017049827 0.033417664 0.78300005 4286284066
-0.015645776 0.033332303 0.78100002 4286677016
-0.014285273 0.033332303 0.78100002 4286677016
-0.012924771 0.033332303 0.78100002 4286480920
-0.011564268 0.033332303 0.78100002 4286480920
-0.010190701 0.033289623 0.78000003 4286415374
-0.0088319406 0.033289623 0.78000003 4286415374
-0.0074731805 0.033289623 0.78000003 4286284558
-0.0060987426 0.033204265 0.77800006 4286350352
-0.0047434666 0.033204265 0.77800006 4285955603
-0.0033707705 0.03303355 0.77400005 4285889810
-0.0020224622 0.03303355 0.77400005 4285955075
-0.00067328312 0.032990873 0.77300006 4285823233
0.00067328312 0.032990873 0.77300006 4284903936
0.0020146233 0.032905515 0.77100003 4284377600
0.0033577052 0.032905515 0.77100003 4285359104
0.0047007874 0.032905515 0.77100003 4286806535
0.0060281917 0.032820158 0.76900005 4287396167
0.0073677897 0.032820158 0.76900005 4287659338
0.0087073883 0.032820158 0.76900005 4287790675
0.010046986 0.032820158 0.76900005 4287922261
0.01135697 0.032734796 0.76700002 4287922009
0.012693084 0.032734796 0.76700002 4287790423
0.014029198 0.032734796 0.76700002 4288052825
0.015345279 0.032692116 0.76600003 4288579425
0.016679652 0.032692116 0.76600003 4288579436
0.018037539 0.032734796 0.76700002 4288842609
0.019373653 0.032734796 0.76700002 4288974461
0.020709768 0.032734796 0.76700002 4288777081
0.022103371 0.032820158 0.76900005 4288514913
0.023442967 0.032820158 0.76900005 4288449120
0.024847019 0.032905515 0.77100003 4287400014
0.0261901 0.032905515 0.77100003 4286347070
0.027604608 0.032990873 0.77300006 4285823744
0.028951174 0.032990873 0.77300006 4287336967
0.030336933 0.03303355 0.77400005 4287271202
0.031685241 0.03303355 0.77400005 4287665959
0.03303355 0.03303355 0.77400005 4287601170
0.0344707 0.033118907 0.77600002 4288061721
0.035914816 0.033204265 0.77800006 4288061721
0.037413809 0.033332303 0.78100002 4288982823
0.038774312 0.033332303 0.78100002 4289374528
0.040340371 0.033503018 0.78500003 4287071774
0.04170784 0.033503018 0.78500003 4286937600
0.043185059 0.03358838 0.78700006 4288516358
0.044556011 0.03358838 0.78700006 4288912940
0.052325331 0.034185886 0.80100006 4287600155
0.053720675 0.034185886 0.80100006 4289110105
-0.031395197 0.035581224 0.80100006 4291401985
-0.029924951 0.035492383 0.79900002 4289108499
-0.028533094 0.035492383 0.79900002 4288121604
-0.027141234 0.035492383 0.79900002 4286678842
-0.025717149 0.035447963 0.79800004 4285560361
-0.024266064 0.035359122 0.79600006 4285626933
-0.022821944 0.035270277 0.79400003 4286350656
-0.021438796 0.035270277 0.79400003 4287598336
-0.019954611 0.035092592 0.79000002 4288256000
-0.018531399 0.035003752 0.78800005 4287334678
-0.017136928 0.034959335 0.78700006 4286479369
-0.015685841 0.034781646 0.78300005 4286610719
-0.014321854 0.034781646 0.78300005 4286544925
-0.012957868 0.034781646 0.78300005 4286742286
-0.011564268 0.034692805 0.78100002 4286808336
-0.010203766 0.034692805 0.78100002 4286611713
-0.0088432636 0.034692805 0.78100002 4286545664
-0.0074731805 0.034648385 0.78000003 4286349316
-0.0061144209 0.034648385 0.78000003 4286349316
-0.0047556604 0.034648385 0.78000003 4286086660
-0.0033881904 0.03455954 0.77800006 4285955073
-0.0020224622 0.034381859 0.77400005 4286151937
-0.00067415409 0.034381859 0.77400005 4286217730
0.00067328312 0.034337439 0.77300006 4285955584
0.0020198494 0.034337439 0.77300006 4285626624
0.0033577052 0.034248594 0.77100003 4285560068
0.0047007874 0.034248594 0.77100003 4285231104
0.0060438695 0.034248594 0.77100003 4285621760
0.0073869512 0.034248594 0.77100003 4284832512
0.0087300343 0.034248594 0.77100003 4285095168
0.010073116 0.034248594 0.77100003 4284963840
0.011416198 0.034248594 0.77100003 4284897792
0.01275928 0.034248594 0.77100003 4284634368
0.015405378 0.034159753 0.76900005 4284765952
0.016744979 0.034159753 0.76900005 4284700160
0.018084574 0.034159753 0.76900005 4284765952
0.019424174 0.034159753 0.76900005 4285291008
0.020763772 0.034159753 0.76900005 4285291008
0.022160854 0.034248594 0.77100003 4285227521
0.023503937 0.034248594 0.77100003 4286148623
0.024911474 0.034337439 0.77300006 4286414080
0.026258042 0.034337439 0.77300006 4287137792
0.027640317 0.034381859 0.77400005 4286809880
0.028988626 0.034381859 0.77400005 4287730982
0.030415324 0.0344707 0.77600002 4287730706
0.031767115 0.0344707 0.77600002 4287993877
0.033204265 0.03455954 0.77800006 4287993877
0.034648385 0.034648385 0.78000003 4288520221
0.036053307 0.034692805 0.78100002 4288782096
0.03750962 0.034781646 0.78300005 4289966371
0.038873605 0.034781646 0.78300005 4289111808
0.040443148 0.034959335 0.78700006 4284440576
0.041814104 0.034959335 0.78700006 4286082304
0.043185059 0.034959335 0.78700006 4291016505
0.044612624 0.035003752 0.78800005 4290623046
-0.029999856 0.036976568 0.80100006 4289697849
-0.028533094 0.036884241 0.79900002 4289237298
-0.027141234 0.036884241 0.79900002 4287007301
-0.025749376 0.036884241 0.79900002 4286349370
-0.024327034 0.036838077 0.79800004 4284904743
-0.022879431 0.036745753 0.79600006 4285102123
-0.021438796 0.036653426 0.79400003 4287137536
-0.020005131 0.036561102 0.79200006 4287926785
-0.018578431 0.036468774 0.79000002 4287728670
-0.017158702 0.03637645 0.78800005 4287004947
-0.015765974 0.036330286 0.78700006 4286938918
-0.014358437 0.036237955 0.78500003 4286873125
-0.012990966 0.036237955 0.78500003 4286545166
-0.011593882 0.036145635 0.78300005 4286610959
-0.010229897 0.036145635 0.78300005 4286349079
-0.0088659106 0.036145635 0.78300005 4286349079
-0.007482762 0.036053307 0.78100002 4286283803
-0.0061222594 0.036053307 0.78100002 4286283803
-0.0047617573 0.036053307 0.78100002 4286086673
-0.0033969004 0.036007144 0.78000003 4286020880
-0.0020329142 0.035914816 0.77800006 4285954816
-0.00067763811 0.035914816 0.77800006 4286151936
0.00067589607 0.035822492 0.77600002 4286020365
0.0020224622 0.035730168 0.77400005 4286020365
0.0033707705 0.035730168 0.77400005 4285429791
0.0047190785 0.035730168 0.77400005 4285035033
0.0060673868 0.035730168 0.77400005 4285166080
0.0074156951 0.035730168 0.77400005 4284639744
0.0087866485 0.035822492 0.77600002 4284508416
0.010138441 0.035822492 0.77600002 4284310784
0.01146062 0.035730168 0.77400005 4284507136
0.020898776 0.035730168 0.77400005 4284572672
0.02230457 0.035822492 0.77600002 4284836096
0.023656361 0.035822492 0.77600002 4285954560
0.025008155 0.035822492 0.77600002 4286283776
0.026359946 0.035822492 0.77600002 4287073280
0.02771174 0.035822492 0.77600002 4286941719
0.029138438 0.035914816 0.77800006 4287599905
0.030493714 0.035914816 0.77800006 4287730456
0.031848989 0.035914816 0.77800006 4287927834
0.033289623 0.036007144 0.78000003 4287993112
0.034648385 0.036007144 0.78000003 4288716835
0.036053307 0.036053307 0.78100002 4289044517
0.03750962 0.036145635 0.78300005 4288781344
0.038972899 0.036237955 0.78500003 4287795968
0.040443148 0.036330286 0.78700006 4284506368
0.041814104 0.036330286 0.78700006 4285164032
0.043185059 0.036330286 0.78700006 4291151178
0.044612624 0.03637645 0.78800005 4291346531
-0.028604515 0.038371909 0.80100006 4290351668
-0.027209172 0.038371909 0.80100006 4288779266
-0.025749376 0.038276099 0.79900002 4288055552
-0.024357516 0.038276099 0.79900002 4285889342
-0.022936916 0.038228195 0.79800004 4284507689
-0.0214928 0.038132384 0.79600006 4285692206
-0.020055648 0.038036574 0.79400003 4286679357
-0.018625466 0.037940763 0.79200006 4287399971
-0.017202251 0.037844952 0.79000002 4288386866
-0.015786005 0.037749145 0.78800005 4288123178
-0.014395018 0.037701242 0.78700006 4287662627
-0.012990966 0.037605431 0.78500003 4287071769
-0.011623496 0.037605431 0.78500003 4285229824
-0.010256026 0.037605431 0.78500003 4283916288
-0.0088659106 0.03750962 0.78300005 4282665984
-0.0075019244 0.03750962 0.78300005 4283716408
-0.0061379378 0.03750962 0.78300005 4285756248
-0.0047739516 0.03750962 0.78300005 4286281987
-0.0034012555 0.037413809 0.78100002 4286347781
-0.0020381403 0.037365902 0.78000003 4286216192
-0.00067763811 0.037270095 0.77800006 4286216192
0.00067763811 0.037270095 0.77800006 4285690650
0.0020276881 0.037174284 0.77600002 4285624857
0.0033794802 0.037174284 0.77600002 4285429009
0.0047312723 0.037174284 0.77600002 4285429009
0.0060830647 0.037174284 0.77600002 4285493760
0.007454019 0.037270095 0.77800006 4285559808
0.0088092946 0.037270095 0.77800006 4285231112
0.010164572 0.037270095 0.77800006 4285165319
0.011519847 0.037270095 0.77800006 4285231112
0.012875124 0.037270095 0.77800006 4285297161
0.0142304 0.037270095 0.77800006 4285297664
0.015585676 0.037270095 0.77800006 4285363456
0.016940951 0.037270095 0.77800006 4285363456
0.018296229 0.037270095 0.77800006 4285560579
0.019600987 0.037174284 0.77600002 4285822976
0.020952778 0.037174284 0.77600002 4285822976
0.02230457 0.037174284 0.77600002 4285953820
0.023656361 0.037174284 0.77600002 4286545957
0.025072608 0.037270095 0.77800006 4286874377
0.026427886 0.037270095 0.77800006 4287400977
0.027783163 0.037270095 0.77800006 4287007264
0.029138438 0.037270095 0.77800006 4287599401
0.030572103 0.037365902 0.78000003 4287926799
0.03193086 0.037365902 0.78000003 4287926799
0.033332303 0.037413809 0.78100002 4288254998
0.034781646 0.03750962 0.78300005 4289176100
0.036145635 0.03750962 0.78300005 4287926830
0.037605431 0.037605431 0.78500003 4284571392
0.039072197 0.037701242 0.78700006 4283916288
0.040443148 0.037701242 0.78700006 4286350613
0.041867234 0.037749145 0.78800005 4288846928
0.043239933 0.037749145 0.78800005 4291083890
-0.028675934 0.039866548 0.80300003 4290740235
-0.02727711 0.039866548 0.80300003 4289369146
-0.025813831 0.03976725 0.80100006 4288974388
-0.024418488 0.03976725 0.80100006 4286153806
-0.022965658 0.039667957 0.79900002 4284772153
-0.0215468 0.039618313 0.79800004 4284180224
-0.020106167 0.039519019 0.79600006 4284706565
-0.0186725 0.039419722 0.79400003 4287267075
-0.017245801 0.039320432 0.79200006 4288517141
-0.015826071 0.039221134 0.79000002 4288123708
-0.014413309 0.039121844 0.78800005 4287926328
-0.013024065 0.039072197 0.78700006 4286679594
-0.011623496 0.038972899 0.78500003 4285429270
-0.010256026 0.038972899 0.78500003 4283982080
-0.0088885557 0.038972899 0.78500003 4282534656
-0.0075210854 0.038972899 0.78500003 4283052800
-0.0061379378 0.038873605 0.78300005 4284566021
-0.0047739516 0.038873605 0.78300005 4286080768
-0.0034012555 0.038774312 0.78100002 4286607104
-0.0020381403 0.038724665 0.78000003 4286413335
-0.00067938009 0.038724665 0.78000003 4286150420
0.00067938009 0.038724665 0.78000003 4285559552
0.0020329142 0.038625371 0.77800006 4285493760
0.0033881904 0.038625371 0.77800006 4285494016
0.0047434666 0.038625371 0.77800006 4285494016
0.0060987426 0.038625371 0.77800006 4285362432
0.007454019 0.038625371 0.77800006 4285560064
0.0088092946 0.038625371 0.77800006 4285559808
0.010164572 0.038625371 0.77800006 4285691136
0.011519847 0.038625371 0.77800006 4285297689
0.012875124 0.038625371 0.77800006 4285429274
0.014266982 0.038724665 0.78000003 4285429524
0.015625741 0.038724665 0.78000003 4285298195
0.016984502 0.038724665 0.78000003 4285232900
0.018296229 0.038625371 0.77800006 4285561864
0.019651504 0.038625371 0.77800006 4285889280
0.021006782 0.038625371 0.77800006 4285889280
0.022362057 0.038625371 0.77800006 4286281737
0.023717333 0.038625371 0.77800006 4286873875
0.025072608 0.038625371 0.77800006 4286940676
0.026495824 0.038724665 0.78000003 4287335434
0.027854582 0.038724665 0.78000003 4287137817
0.029213343 0.038724665 0.78000003 4287729954
0.030572103 0.038724665 0.78000003 4287861037
0.031971801 0.038774312 0.78100002 4288058417
0.033332303 0.038774312 0.78100002 4288516682
0.034781646 0.038873605 0.78300005 4288714062
0.036237955 0.038972899 0.78500003 4288121634
0.037605431 0.038972899 0.78500003 4282397440
0.039072197 0.039072197 0.78700006 4282855168
0.040494539 0.039121844 0.78800005 4290553186
0.041973494 0.039221134 0.79000002 4290099069
-0.025878282 0.041265372 0.80300003 4290417679
-0.024418488 0.041162595 0.80100006 4287989836
-0.023023147 0.041162595 0.80100006 4287200321
-0.021573801 0.041059814 0.79900002 4285691697
-0.020156683 0.041008424 0.79800004 4284244251
-0.018719535 0.040905651 0.79600006 4285624616
-0.014413309 0.040494539 0.78800005 4288124423
-0.013024065 0.040443148 0.78700006 4287073309
-0.01165311 0.040443148 0.78700006 4287073309
-0.010282157 0.040443148 0.78700006 4286151998
-0.0088885557 0.040340371 0.78500003 4285230896
-0.0075210854 0.040340371 0.78500003 4284109824
-0.0061536157 0.040340371 0.78500003 4280359680
-0.0047861454 0.040340371 0.78500003 4280099072
-0.0034099654 0.040237591 0.78300005 4283322654
-0.0020459793 0.040237591 0.78300005 4284505390
-0.00068199309 0.040237591 0.78300005 4287136854
0.00068199309 0.040237591 0.78300005 4287464492
0.0020407531 0.040134814 0.78100002 4287135527
0.0033969004 0.040083423 0.78000003 4286743296
0.0047556604 0.040083423 0.78000003 4286282752
0.0061144209 0.040083423 0.78000003 4286151955
0.0074731805 0.040083423 0.78000003 4286283284
0.0088319406 0.040083423 0.78000003 4285823488
0.010190701 0.040083423 0.78000003 4285428736
0.011549461 0.040083423 0.78000003 4285297700
0.012908221 0.040083423 0.78000003 4285363749
0.014266982 0.040083423 0.78000003 4285428255
0.015625741 0.040083423 0.78000003 4285428255
0.016984502 0.040083423 0.78000003 4285429274
0.018343262 0.040083423 0.78000003 4285495067
0.019702023 0.040083423 0.78000003 4285757184
0.021060782 0.040083423 0.78000003 4285822976
0.022419542 0.040083423 0.78000003 4286150156
0.023778303 0.040083423 0.78000003 4286742037
0.025137061 0.040083423 0.78000003 4286808838
0.026495824 0.040083423 0.78000003 4287663890
0.027890293 0.040134814 0.78100002 4287795231
0.029250795 0.040134814 0.78100002 4287926817
0.030611297 0.040134814 0.78100002 4288385092
0.032053676 0.040237591 0.78300005 4289503829
0.033417664 0.040237591 0.78300005 4289239154
0.034870487 0.040340371 0.78500003 4288646761
0.036237955 0.040340371 0.78500003 4287266325
0.037701242 0.040443148 0.78700006 4282397440
0.039072197 0.040443148 0.78700006 4285159720
0.040494539 0.040494539 0.78800005 4291607434
-0.025942737 0.04277046 0.80500007 4290346006
-0.024479458 0.042664196 0.80300003 4288973638
-0.023023147 0.042557936 0.80100006 4288184122
-0.021627804 0.042557936 0.80100006 4286873668
-0.020181943 0.042451672 0.79900002 4285623601
-0.018766569 0.042398542 0.79800004 4284769280
-0.017332902 0.042292282 0.79600006 4285953810
-0.011697531 0.041973494 0.79000002 4287270683
-0.010295222 0.041867234 0.78800005 4287597366
-0.0089112027 0.041814104 0.78700006 4287399730
-0.0075402479 0.041814104 0.78700006 4285165862
-0.006169294 0.041814104 0.78700006 4281744896
-0.0047983397 0.041814104 0.78700006 4279441408
-0.0034186754 0.04170784 0.78500003 4279704320
-0.0020512051 0.04170784 0.78500003 4284104960
-0.00068373507 0.04170784 0.78500003 4288315694
0.00068199309 0.04160158 0.78300005 4287727712
0.0020459793 0.04160158 0.78300005 4287530076
0.0034012555 0.041495316 0.78100002 4287399251
0.0047617573 0.041495316 0.78100002 4286741064
0.0061222594 0.041495316 0.78100002 4286217787
0.007482762 0.041495316 0.78100002 4286349372
0.0088432636 0.041495316 0.78100002 4286086964
0.010203766 0.041495316 0.78100002 4285626413
0.011549461 0.041442186 0.78000003 4285625639
0.012908221 0.041442186 0.78000003 4285494052
0.014285273 0.041495316 0.78100002 4285428761
0.015645776 0.041495316 0.78100002 4285362712
0.017006276 0.041495316 0.78100002 4285559808
0.018366778 0.041495316 0.78100002 4285822976
0.01972728 0.041495316 0.78100002 4286150656
0.021087782 0.041495316 0.78100002 4286545408
0.022448285 0.041495316 0.78100002 4286741537
0.023808787 0.041495316 0.78100002 4287070758
0.025169291 0.041495316 0.78100002 4287071535
0.026529793 0.041495316 0.78100002 4287729465
0.027890293 0.041495316 0.78100002 4287991881
0.029325703 0.04160158 0.78300005 4288057674
0.030689687 0.04160158 0.78300005 4288712808
0.032135546 0.04170784 0.78500003 4289370481
0.033503018 0.04170784 0.78500003 4289631621
0.034870487 0.04170784 0.78500003 4288578932
0.036330286 0.041814104 0.78700006 4284507142
0.037701242 0.041814104 0.78700006 4284967693
0.039121844 0.041867234 0.78800005 4287461712
0.040494539 0.041867234 0.78800005 4291606671
0.04721082 0.042982981 0.80900002 4287468326
0.048620094 0.042982981 0.80900002 4288650306
-0.02454043 0.044172771 0.80500007 4287193088
-0.02308063 0.044063024 0.80300003 4289430034
-0.021627804 0.043953281 0.80100006 4287858235
-0.020232461 0.043953281 0.80100006 4287397684
-0.018837119 0.043953281 0.80100006 4286085408
-0.017398227 0.04384353 0.79900002 4284506376
-0.015986335 0.04378866 0.79800004 4285099780
-0.01459622 0.04378866 0.79800004 4285626124
-0.010321351 0.043349672 0.79000002 4287926789
-0.0089225248 0.043239933 0.78800005 4288518927
-0.0075498288 0.043239933 0.78800005 4287465274
-0.0061771329 0.043239933 0.78800005 4285754912
-0.0047983397 0.043185059 0.78700006 4283256576
-0.0034273856 0.043185059 0.78700006 4279308800
-0.0020564313 0.043185059 0.78700006 4281015056
-0.00068373507 0.043075308 0.78500003 4286475619
0.00068373507 0.043075308 0.78500003 4287921507
0.0020512051 0.043075308 0.78500003 4287855714
0.0034099654 0.042965565 0.78300005 4287462764
0.0047617573 0.042855818 0.78100002 4287068262
0.0061222594 0.042855818 0.78100002 4286609996
0.0075019244 0.042965565 0.78300005 4286807119
0.0088432636 0.042855818 0.78100002 4286742359
0.010203766 0.042855818 0.78100002 4286742359
0.011564268 0.042855818 0.78100002 4286807875
0.012924771 0.042855818 0.78100002 4286676545
0.014321854 0.042965565 0.78300005 4287004221
0.015645776 0.042855818 0.78100002 4287136063
0.017006276 0.042855818 0.78100002 4287136018
0.018413812 0.042965565 0.78300005 4287464983
0.019777799 0.042965565 0.78300005 4287267872
0.021141784 0.042965565 0.78300005 4287991338
0.022505773 0.042965565 0.78300005 4288187214
0.023869758 0.042965565 0.78300005 4288647765
0.025233746 0.042965565 0.78300005 4288515926
0.026597731 0.042965565 0.78300005 4288384340
0.028033137 0.043075308 0.78500003 4287924309
0.029400608 0.043075308 0.78500003 4287990103
0.030768078 0.043075308 0.78500003 4288054905
0.032135546 0.043075308 0.78500003 4286673252
0.033503018 0.043075308 0.78500003 4284237419
0.034959335 0.043185059 0.78700006 4282395215
0.036330286 0.043185059 0.78700006 4283448321
0.037749145 0.043239933 0.78800005 4289172312
0.039221134 0.043349672 0.79000002 4288714577
0.040597312 0.043349672 0.79000002 4287464510
0.045688309 0.044282518 0.80700004 4287795508
0.04721082 0.044392262 0.80900002 4289440333
0.048740294 0.044502009 0.81100005 4289766773
-0.02454043 0.045575082 0.80500007 4286333184
-0.02308063 0.045461852 0.80300003 4288372493
-0.021681806 0.045461852 0.80300003 4288186153
-0.020232461 0.045348618 0.80100006 4287923237
-0.018837119 0.045348618 0.80100006 4286677820
-0.017398227 0.045235388 0.79900002 4285625389
-0.016006369 0.045235388 0.79900002 4283851264
-0.014614511 0.045235388 0.79900002 4284180224
-0.013206104 0.045178775 0.79800004 4285755136
-0.0089451708 0.044725854 0.79000002 4287991338
-0.0075689908 0.044725854 0.79000002 4287991620
-0.0061928104 0.044725854 0.79000002 4287728448
-0.0048044366 0.044612624 0.78800005 4285166925
-0.0034273856 0.044556011 0.78700006 4281614102
-0.0020564313 0.044556011 0.78700006 4280751104
-0.00068547711 0.044556011 0.78700006 4285553974
0.00068547711 0.044556011 0.78700006 4286671185
0.0020512051 0.04444278 0.78500003 4286934614
0.0034186754 0.04444278 0.78500003 4287133010
0.0047861454 0.04444278 0.78500003 4286935375
0.0061536157 0.04444278 0.78500003 4286278996
0.0075210854 0.04444278 0.78500003 4286936670
0.0088885557 0.04444278 0.78500003 4287069025
0.010256026 0.04444278 0.78500003 4287266405
0.011593882 0.04432955 0.78300005 4287397725
0.012957868 0.04432955 0.78300005 4287200602
0.014358437 0.04444278 0.78500003 4287462736
0.015685841 0.04432955 0.78300005 4287594323
0.017049827 0.04432955 0.78300005 4287594577
0.018413812 0.04432955 0.78300005 4287660370
0.019777799 0.04432955 0.78300005 4287398476
0.021195788 0.04444278 0.78500003 4287727698
0.022563256 0.04444278 0.78500003 4288186210
0.023930727 0.04444278 0.78500003 4288975726
0.025298197 0.04444278 0.78500003 4288779128
0.026665669 0.04444278 0.78500003 4288055405
0.028033137 0.04444278 0.78500003 4287659877
0.029400608 0.04444278 0.78500003 4288186477
0.030846467 0.044556011 0.78700006 4288251255
0.032217424 0.044556011 0.78700006 4284303419
0.03358838 0.044556011 0.78700006 4283183616
0.035003752 0.044612624 0.78800005 4282262528
0.03637645 0.044612624 0.78800005 4282598144
0.037844952 0.044725854 0.79000002 4289177427
0.039221134 0.044725854 0.79000002 4289769577
0.045688309 0.045688309 0.80700004 4287862057
0.04721082 0.045801535 0.80900002 4289967177
0.048740294 0.045914773 0.81100005 4290490504
-0.02454043 0.046977393 0.80500007 4285736448
-0.02308063 0.046860676 0.80300003 4285078272
-0.021681806 0.046860676 0.80300003 4286140416
-0.020232461 0.046743963 0.80100006 4289166876
-0.018837119 0.046743963 0.80100006 4287661875
-0.017441778 0.046743963 0.80100006 4287332911
-0.016046437 0.046743963 0.80100006 4284902974
-0.014651093 0.046743963 0.80100006 4284113201
-0.013222652 0.046627246 0.79900002 4283916079
-0.0062084887 0.046218749 0.79200006 4288913181
-0.0048166304 0.046102032 0.79000002 4287991086
-0.0034317404 0.045985319 0.78800005 4286214931
-0.0020590443 0.045985319 0.78800005 4283648768
-0.00068634807 0.045985319 0.78800005 4280753920
0.00068547711 0.045926966 0.78700006 4281409024
0.0020564313 0.045926966 0.78700006 4282000896
0.0034273856 0.045926966 0.78700006 4283577885
0.0047861454 0.045810249 0.78500003 4287262293
0.0061536157 0.045810249 0.78500003 4287133299
0.0075210854 0.045810249 0.78500003 4286870127
0.0088885557 0.045810249 0.78500003 4287134307
0.010256026 0.045810249 0.78500003 4287331430
0.011623496 0.045810249 0.78500003 4287527276
0.012990966 0.045810249 0.78500003 4287264360
0.014358437 0.045810249 0.78500003 4287528029
0.015725907 0.045810249 0.78500003 4287725409
0.017093375 0.045810249 0.78500003 4288053622
0.018460847 0.045810249 0.78500003 4288053622
0.019828318 0.045810249 0.78500003 4288185462
0.021195788 0.045810249 0.78500003 4288382584
0.022563256 0.045810249 0.78500003 4288448380
0.023930727 0.045810249 0.78500003 4288514173
0.025298197 0.045810249 0.78500003 4287988079
0.026733607 0.045926966 0.78700006 4286606426
0.02810456 0.045926966 0.78700006 4286409322
0.029475516 0.045926966 0.78700006 4286541164
0.030846467 0.045926966 0.78700006 4285356622
0.032217424 0.045926966 0.78700006 4281672214
0.033631057 0.045985319 0.78800005 4282922496
0.035092592 0.046102032 0.79000002 4285883418
0.036468774 0.046102032 0.79000002 4286084445
0.037844952 0.046102032 0.79000002 4288847751
0.039320432 0.046218749 0.79200006 4287994370
0.044282518 0.047094107 0.80700004 4288257369
0.045801535 0.04721082 0.80900002 4288913222
0.047327533 0.047327533 0.81100005 4290953061
0.048740294 0.047327533 0.81100005 4291278247
-0.023138119 0.048379704 0.80500007 4285339136
-0.021681806 0.0482595 0.80300003 4284883200
-0.020282978 0.0482595 0.80300003 4287712280
-0.018884154 0.0482595 0.80300003 4288249365
-0.017485326 0.0482595 0.80300003 4288447001
-0.0160865 0.0482595 0.80300003 4285889851
-0.014651093 0.048139308 0.80100006 4284705833
-0.013255751 0.048139308 0.80100006 4283195922
-0.011860408 0.048139308 0.80100006 4282143234
-0.0034491604 0.047598414 0.79200006 4287923517
-0.0020642702 0.047478214 0.79000002 4285165378
-0.00068809005 0.047478214 0.79000002 4280625664
0.00068809005 0.047478214 0.79000002 4278192896
0.0020590443 0.047358017 0.78800005 4278917376
0.0034273856 0.047297921 0.78700006 4281868544
0.0047983397 0.047297921 0.78700006 4286539828
0.006169294 0.047297921 0.78700006 4286936422
0.0075402479 0.047297921 0.78700006 4286015320
0.0089112027 0.047297921 0.78700006 4286275887
0.010282157 0.047297921 0.78700006 4287525953
0.01165311 0.047297921 0.78700006 4287593321
0.013024065 0.047297921 0.78700006 4287593321
0.014395018 0.047297921 0.78700006 4287921522
0.015765974 0.047297921 0.78700006 4287855473
0.017136928 0.047297921 0.78700006 4288052588
0.018507883 0.047297921 0.78700006 4288184175
0.019878836 0.047297921 0.78700006 4288578934
0.02124979 0.047297921 0.78700006 4288644728
0.022620745 0.047297921 0.78700006 4288578680
0.023991698 0.047297921 0.78700006 4288512887
0.025362652 0.047297921 0.78700006 4286936674
0.026733607 0.047297921 0.78700006 4285357642
0.02810456 0.047297921 0.78700006 4284766511
0.029475516 0.047297921 0.78700006 4284700462
0.030885665 0.047358017 0.78800005 4284107530
0.032258362 0.047358017 0.78800005 4284041737
0.033631057 0.047358017 0.78800005 4284831232
0.035092592 0.047478214 0.79000002 4287726120
0.036468774 0.047478214 0.79000002 4288648780
0.037940763 0.047598414 0.79200006 4287267127
0.042982981 0.048620094 0.80900002 4287008568
0.044392262 0.048620094 0.80900002 4288850772
0.045914773 0.048740294 0.81100005 4289833070
0.047327533 0.048740294 0.81100005 4291148930
0.048740294 0.048740294 0.81100005 4291475110
-0.021681806 0.049658328 0.80300003 4285144832
-0.020282978 0.049658328 0.80300003 4285144832
-0.018884154 0.049658328 0.80300003 4286337792
-0.017528879 0.049782015 0.80500007 4289430303
-0.016126567 0.049782015 0.80500007 4287661875
-0.014724256 0.049782015 0.80500007 4286872360
-0.013288849 0.049658328 0.80300003 4284773688
-0.011890023 0.049658328 0.80300003 4283786537
-0.010491196 0.049658328 0.80300003 4283390748
-0.0034578703 0.049101759 0.79400003 4289569841
-0.0020694963 0.048978075 0.79200006 4288056922
-0.00068983209 0.048978075 0.79200006 4286412354
0.00068983209 0.048978075 0.79200006 4284178985
0.0020642702 0.048854392 0.79000002 4283455262
0.0034404502 0.048854392 0.79000002 4283123498
0.0048044366 0.048730712 0.78800005 4282531105
0.0061771329 0.048730712 0.78800005 4283513096
0.0075498288 0.048730712 0.78800005 4282197248
0.0089112027 0.048668873 0.78700006 4283249664
