# .PCD v0.7 - Point Cloud Data file format
VERSION 0.7
FIELDS x y z
SIZE 4 4 4
TYPE F F F
COUNT 1 1 1
WIDTH 1356
HEIGHT 1
VIEWPOINT 0 0 0 1 0 0 0
POINTS 1356
DATA ascii
0.024867579 0.012590256 0.76219976
0.020840982 0.011952134 0.76120609
0.018810542 0.011790286 0.76089483
0.047677513 0.041376073 0.79769737
0.046692558 0.044103403 0.8008759
0.045329802 0.046753719 0.80394083
0.043602984 0.04931289 0.80687624
0.041523296 0.0517601 0.80965805
0.039101213 0.054071538 0.81225872
0.036348049 0.05622052 0.81464708
0.033277683 0.058177151 0.81678861
0.029908752 0.059908014 0.81864476
0.02626735 0.061376132 0.82017303
0.022390578 0.062541485 0.82132828
0.018331146 0.063362315 0.82206392
0.014166403 0.06379725 0.82233554
0.01210735 0.06385766 0.82228631
-0.019504223 0.039709635 0.79177529
-0.019225542 0.042468309 0.79506516
-0.018551696 0.045169145 0.79830968
-0.017492712 0.047797412 0.80149066
-0.016054371 0.050331891 0.8045826
-0.014240966 0.05274839 0.80755657
-0.01205689 0.055019837 0.81038022
-0.009508267 0.057115845 0.81301707
-0.0066050282 0.059002291 0.81542605
-0.0033636205 0.06064114 0.81756109
0.00018936825 0.061990786 0.81937122
0.0040122806 0.063007131 0.82080173
0.0080388775 0.063645259 0.8217954
0.010069317 0.063807108 0.82210666
-0.018546667 0.034411103 0.7852115
-0.017568903 0.031703703 0.78205621
-0.016216109 0.029072754 0.77901369
-0.014501909 0.026532291 0.77609968
-0.012437421 0.024102962 0.7733382
-0.010033038 0.021808414 0.7707566
-0.0072999904 0.019675139 0.76838565
-0.0042520659 0.017732807 0.76625973
-0.00090775121 0.016014591 0.76441723
0.002707039 0.0145572 0.76290005
0.0065554795 0.013400364 0.76175326
0.010585246 0.012585537 0.76102298
0.014719554 0.012153776 0.76075339
0.01676356 0.012093811 0.76080227
0.048144128 0.036065366 0.79109031
0.047867477 0.033326849 0.78782445
0.047198556 0.030645752 0.78460366
0.046147309 0.028036691 0.78144592
0.044719484 0.025520736 0.77837658
0.04291933 0.023121895 0.7754243
0.040751211 0.020867046 0.77262133
0.038221214 0.018786354 0.77000374
0.035339192 0.016913695 0.7676124
0.032121472 0.015286824 0.76549292
0.028594449 0.01394704 0.76369601
0.024799474 0.012938119 0.76227599
0.0208023 0.012304659 0.7612896
0.0187867 0.012143996 0.76098061
0.047442719 0.041513577 0.79751414
0.046464957 0.044220977 0.80066943
0.045112163 0.046851926 0.80371201
0.043397963 0.049392391 0.80662596
0.041333474 0.05182172 0.80938751
0.03892909 0.054116264 0.8119691
0.036196046 0.05624954 0.81434005
0.033148121 0.058191873 0.81646591
0.029803805 0.059910089 0.81830847
0.026189014 0.061367478 0.81982559
0.022340573 0.062524319 0.82097238
0.018310808 0.063339144 0.82170266
0.014176499 0.063770905 0.82197231
0.012132494 0.063830867 0.82192343
-0.019248074 0.039859314 0.79163539
-0.018971421 0.04259783 0.79490125
-0.018302504 0.045278925 0.79812199
-0.017251257 0.047887988 0.80127972
-0.015823429 0.050403945 0.80434906
-0.014023276 0.052802786 0.80730134
-0.011855159 0.055057634 0.81010431
-0.0093251616 0.057138324 0.81272191
-0.0064431382 0.059010986 0.81511331
-0.0032254185 0.060637858 0.81723273
0.00030160532 0.06197764 0.81902963
0.0040965807 0.06298656 0.82044971
0.0080937529 0.063620023 0.82143611
0.010109354 0.063780688 0.8217451
-0.018295828 0.03459809 0.78512126
-0.017325269 0.031910621 0.78198916
-0.015982427 0.029299038 0.77896905
-0.014280847 0.026777273 0.7760765
-0.012231557 0.024365827 0.77333534
-0.0098448703 0.02208817 0.7707727
-0.0071319416 0.019970598 0.76841921
-0.004106455 0.018042564 0.76630896
-0.00078675692 0.016336996 0.76447999
0.0028014244 0.014890333 0.76297402
0.0066215363 0.013742013 0.76183569
0.010621639 0.012933183 0.76111078
0.014725515 0.012504601 0.76084316
0.016754474 0.012445077 0.76089168
0.047904044 0.036240175 0.79095674
0.047629435 0.033521816 0.78771496
0.046965435 0.030860456 0.78451788
0.045921929 0.0282706 0.7813834
0.044504613 0.025773166 0.77833664
0.042717706 0.023391983 0.77540612
0.04056555 0.021153731 0.77262378
0.038054179 0.019088356 0.77002543
0.035193369 0.017229483 0.76765168
0.031999335 0.015614585 0.76554781
0.028498273 0.014284664 0.76376414
0.024731234 0.01328317 0.76235455
0.020763485 0.012654372 0.76137543
0.018762721 0.012494892 0.7610687
0.047207799 0.04164828 0.79733336
0.046237241 0.044335753 0.8004654
0.044894397 0.046947334 0.80348557
0.043192819 0.049469098 0.80637807
0.041143529 0.051880542 0.80911922
0.038756844 0.0541582 0.81168187
0.036043912 0.056275774 0.81403536
0.033018425 0.058203805 0.8161456
0.029698728 0.059909374 0.81797457
0.026110547 0.061356038 0.81948054
0.022290435 0.062504359 0.82061887
0.018290332 0.063313186 0.82134378
0.014186457 0.063741766 0.8216114
0.012157497 0.063801296 0.82156295
-0.018992072 0.040006198 0.79149783
-0.018717462 0.042724553 0.79473966
-0.018053463 0.045385916 0.79793668
-0.017009957 0.047975771 0.80107117
-0.015592639 0.050473206 0.80411798
-0.013805737 0.052854389 0.8070485
-0.011653579 0.05509264 0.80983084
-0.009142207 0.057158016 0.81242913
-0.0062813978 0.059016887 0.81480294
-0.0030873639 0.060631786 0.81690675
0.00041369771 0.061961707 0.81869048
0.0041807378 0.062963203 0.82010007
0.0081484858 0.063591994 0.82107919
0.01014925 0.063751481 0.82138592
-0.01804514 0.034782343 0.78503329
-0.017081777 0.032114804 0.78192443
-0.015748892 0.029522587 0.77892667
-0.014059929 0.027019523 0.77605563
-0.012025836 0.024625957 0.77333474
-0.0096568475 0.02236519 0.77079111
-0.0069640363 0.02026332 0.76845509
-0.0039609838 0.018349584 0.76636052
-0.00066590426 0.016656665 0.76454508
0.00289567 0.015220728 0.76305032
0.0066874549 0.014080921 0.76192039
0.010657895 0.01327809 0.76120085
0.014731339 0.012852688 0.76093525
0.016745254 0.012793603 0.76098335
0.047663841 0.036412254 0.79082555
0.047391266 0.033714052 0.78760773
0.046732191 0.031072427 0.78443438
0.045696419 0.028501777 0.78132313
0.044289615 0.026022861 0.77829897
0.04251596 0.023659334 0.77539021
0.040379763 0.02143768 0.77262843
0.037887011 0.019387621 0.77004939
0.035047419 0.017542532 0.76769322
0.031877071 0.01593961 0.76560497
0.028401969 0.014619549 0.76383454
0.024662863 0.013625483 0.76243538
0.020724537 0.01300135 0.76146352
0.018738609 0.012843048 0.76115906
0.046972759 0.041780256 0.79715484
0.046009395 0.044447798 0.80026364
0.044676509 0.047040015 0.8032614
0.042987548 0.049543079 0.8061325
0.040953454 0.051936645 0.80885333
0.038584467 0.054197412 0.81139696
0.035891656 0.05629928 0.81373298
0.032888602 0.058213018 0.81582755
0.029593524 0.059905935 0.81764299
0.026031949 0.061341874 0.81913781
0.022240164 0.062481679 0.82026768
0.018269723 0.063284509 0.82098722
0.014196279 0.063709915 0.82125288
0.012182365 0.063768998 0.82120472
-0.018736221 0.040150348 0.79136258
-0.018463647 0.042848546 0.79458034
-0.01780457 0.045490175 0.79775369
-0.016768802 0.048060827 0.80086493
-0.015361995 0.050539743 0.8038891
-0.013588342 0.052903268 0.80679792
-0.011452144 0.05512492 0.80955964
-0.0089593939 0.057174981 0.81213868
-0.0061198003 0.059020068 0.81449485
-0.0029494509 0.06062299 0.8165831
0.00052564911 0.061943054 0.81835353
0.0042647556 0.062937118 0.81975269
0.0082030818 0.063561253 0.82072455
0.01018901 0.063719556 0.82102901
-0.0177946 0.034963936 0.78494751
-0.016838429 0.032316323 0.7818619
-0.015515504 0.02974347 0.77888656
-0.013839158 0.027259104 0.77603698
-0.01182026 0.024883421 0.77333641
-0.0094689699 0.022639541 0.7708118
-0.0067962743 0.020553373 0.76849324
-0.003815654 0.018653933 0.76641428
-0.00054518913 0.016973659 0.76461244
0.002989779 0.015548449 0.76312876
0.0067532384 0.014417159 0.7620073
0.010694019 0.013620324 0.76129317
0.014737033 0.0131981 0.76102954
0.016735902 0.013139458 0.76107728
0.047423519 0.036581669 0.7906965
0.047152981 0.033903625 0.78750277
0.046498828 0.031281732 0.78435314
0.045470797 0.028730284 0.78126514
0.044074498 0.026269889 0.77826357
0.042314097 0.023924017 0.7753765
0.040193856 0.02171896 0.7726354
0.037719727 0.019684216 0.77007562
0.034901347 0.017852908 0.76773703
0.03175468 0.016261961 0.7656644
0.02830554 0.014951763 0.76390713
0.024594365 0.013965121 0.76251847
0.02068546 0.01334565 0.76155388
0.018714366 0.013188533 0.76125169
0.0467376 0.041909572 0.79697853
0.045781434 0.044557188 0.80006415
0.044458505 0.047130037 0.80303949
0.042782161 0.049614403 0.80588913
0.040763263 0.051990088 0.80858964
0.038411971 0.054233968 0.81111425
0.035739277 0.056320135 0.81343287
0.032758657 0.058219578 0.81551182
0.029488191 0.059899852 0.81731367
0.025953224 0.061325062 0.81879729
0.022189764 0.062456351 0.81991875
0.018248985 0.063253187 0.82063293
0.01420597 0.063675411 0.82089657
0.0122071 0.063734055 0.82084876
-0.018480517 0.040291842 0.79122955
-0.018209977 0.042969882 0.79442328
-0.017555827 0.045591775 0.79757297
-0.016527796 0.048143223 0.80066097
-0.015131497 0.050603621 0.80366254
-0.013371095 0.052949492 0.80654961
-0.011250855 0.055154547 0.80929071
-0.0087767243 0.057189293 0.81185043
-0.0059583434 0.059020601 0.81418902
-0.0028116775 0.06061155 0.81626165
0.00063746294 0.061921746 0.81801891
0.0043486371 0.062908389 0.81940758
0.0082575427 0.06352786 0.82037222
0.010228636 0.063684978 0.82067436
-0.017544197 0.035142921 0.78486401
-0.016595224 0.032515235 0.78180164
-0.015282256 0.029961746 0.77884865
-0.013618526 0.027496077 0.77602047
-0.011614822 0.025138274 0.77334028
-0.0092812274 0.022911282 0.77083468
-0.006628646 0.020840814 0.76853353
-0.0036704598 0.01895567 0.76647019
-0.00042460967 0.017288044 0.76468194
0.0030837555 0.015873557 0.76320946
0.0068188896 0.014750782 0.76209646
0.010730011 0.013959943 0.76138765
0.014742598 0.013540898 0.76112598
0.016726423 0.013482696 0.76117343
0.047183082 0.03674848 0.79056972
0.046914577 0.034090593 0.78740001
0.046265353 0.031488433 0.78427404
0.045245055 0.028956186 0.78120929
0.043859266 0.026514307 0.77823031
0.042112112 0.024186091 0.775365
0.04000783 0.021997631 0.77264452
0.037552323 0.019978199 0.77010399
0.034755152 0.018160677 0.76778305
0.031632166 0.016581699 0.76572597
0.028208986 0.015281362 0.763982
0.024525743 0.014302147 0.76260376
0.020646255 0.013687337 0.76164639
0.018689997 0.013531403 0.76134652
0.046502326 0.042036284 0.79680443
0.045553353 0.044663973 0.79986686
0.044240385 0.047217462 0.80281979
0.042576656 0.049683131 0.80564797
0.040572952 0.052040935 0.80832821
0.038239356 0.054267924 0.81083381
0.035586774 0.056338392 0.81313497
0.032628588 0.058223538 0.81519824
0.029382739 0.059891164 0.8169865
0.025874373 0.06130565 0.81845903
0.022139238 0.062428426 0.81957203
0.018228117 0.063219264 0.82028079
0.014215531 0.063638307 0.82054245
0.012231705 0.063696511 0.82049507
-0.018224953 0.040430728 0.79109871
-0.017956449 0.043088615 0.79426843
-0.017307222 0.045690775 0.79739439
-0.016286928 0.048223022 0.80045915
-0.014901139 0.050664902 0.80343813
-0.013153985 0.052993115 0.8063035
-0.011049701 0.055181578 0.80902392
-0.0085941926 0.057201009 0.81156445
-0.0057970234 0.059018534 0.81388545
-0.0026740388 0.060597509 0.81594247
0.00074914208 0.061897844 0.8176865
0.0044323858 0.062877059 0.81906474
0.0083118724 0.063491873 0.82002205
0.010268131 0.063647807 0.82032198
-0.017293932 0.035319369 0.78478259
-0.016352156 0.032711606 0.78174347
-0.015049146 0.03017748 0.77881289
-0.013398032 0.027730508 0.77600616
-0.011409521 0.025390582 0.77334625
-0.0090936208 0.023180477 0.77085966
-0.0064611556 0.02112571 0.76857597
-0.0035253994 0.01925486 0.76652831
-0.00030415988 0.017599877 0.76475358
0.0031776 0.016196119 0.76329225
0.0068844128 0.015081856 0.76218766
0.010765878 0.014297015 0.76148427
0.014748037 0.013881146 0.76122457
0.016716819 0.013823385 0.76127166
0.046942528 0.03691275 0.79044503
0.046676062 0.034275018 0.78729939
0.046031762 0.031692587 0.78419715
0.045019202 0.029179545 0.78115565
0.043643922 0.02675618 0.7781992
0.041910015 0.024445619 0.77535564
0.039821692 0.022273753 0.77265579
0.037384801 0.020269634 0.77013451
0.034608841 0.018465891 0.76783115
0.031509537 0.016898891 0.76578975
0.028112313 0.015608414 0.76405895
0.024456998 0.014636623 0.76269114
0.020606929 0.014026475 0.76174104
0.018665506 0.013871723 0.76144344
0.046266936 0.042160459 0.79663253
0.04532516 0.044768222 0.79967171
0.04402215 0.047302347 0.80260229
0.042371035 0.049749319 0.80540895
0.040382523 0.052089248 0.80806887
0.038066626 0.054299351 0.81055546
0.03543416 0.056354117 0.81283915
0.032498404 0.058224969 0.81488681
0.029277163 0.059879951 0.81666154
0.025795404 0.061283711 0.81812286
0.022088591 0.062397972 0.81922746
0.018207127 0.063182816 0.81993085
0.014224967 0.063598685 0.82019055
0.012256184 0.063656442 0.82014346
-0.017969526 0.040567078 0.79097009
-0.01770306 0.04320481 0.79411572
-0.017058758 0.045787238 0.79721797
-0.0160462 0.048300285 0.80025947
-0.014670919 0.05072365 0.80321592
-0.012937012 0.053034209 0.80605948
-0.010848687 0.055206075 0.80875933
-0.0084117968 0.057210192 0.81128061
-0.0056358362 0.059013937 0.81358397
-0.0025365343 0.060580939 0.81562543
0.00086069055 0.061871413 0.81735623
0.0045160051 0.062843204 0.81872398
0.0083660744 0.063453354 0.81967407
0.010307499 0.063608103 0.81997168
-0.017043805 0.035493325 0.78470331
-0.016109224 0.032905489 0.78168738
-0.014816168 0.030390725 0.77877915
-0.013177669 0.027962448 0.77599388
-0.011204352 0.0256404 0.77335435
-0.0089061465 0.023447182 0.77088672
-0.0062937927 0.021408113 0.76862049
-0.0033804667 0.019551557 0.76658845
-0.00018383987 0.017909219 0.76482731
0.003271319 0.016516186 0.76337713
0.0069498103 0.015410436 0.762281
0.010801619 0.014631593 0.76158297
0.014753353 0.014218901 0.7613253
0.016707094 0.014161583 0.76137197
0.046701871 0.037074536 0.79032248
0.046437439 0.034456957 0.78720087
0.04579806 0.031894259 0.78412229
0.044793237 0.029400414 0.78110403
0.043428462 0.026995566 0.77817023
0.041707806 0.024702659 0.77534831
0.039635435 0.022547385 0.77266914
0.037217163 0.020558579 0.77016717
0.034462411 0.018768618 0.76788139
0.031386789 0.017213589 0.76585555
0.02801552 0.01593297 0.76413792
0.024388134 0.014968605 0.76278061
0.02056748 0.01436312 0.76183778
0.018640891 0.014209551 0.76154244
0.046031438 0.042282149 0.79646266
0.045096856 0.044869989 0.79947859
0.0438038 0.047384754 0.80238682
0.042165302 0.049813028 0.80517209
0.040191986 0.052135076 0.80781162
0.03789378 0.054328296 0.81027925
0.035281423 0.056367364 0.81254554
0.032368097 0.058223922 0.81457752
0.029171472 0.059866257 0.81633866
0.025716314 0.061259292 0.81778884
0.022037823 0.06236504 0.81888497
0.018186014 0.063143887 0.819583
0.014234279 0.063556574 0.81984067
0.012280539 0.063613892 0.819794
-0.017714238 0.040700942 0.79084349
-0.017449806 0.043318521 0.7939651
-0.016810425 0.045881219 0.79704368
-0.015805604 0.048375063 0.80006194
-0.014440831 0.050779913 0.80299574
-0.012720173 0.053072818 0.80581766
-0.010647802 0.055228092 0.80849683
-0.0082295304 0.057216898 0.8109988
-0.0054747802 0.059006859 0.81328458
-0.0023991573 0.060561888 0.81531042
0.00097211119 0.061842509 0.81702805
0.0045994977 0.062806875 0.81838536
0.0084201517 0.063412353 0.81932819
0.010346742 0.063565925 0.81962353
-0.016793812 0.035664856 0.78462607
-0.015866427 0.033096939 0.78163332
-0.014583324 0.030601539 0.7787475
-0.012957438 0.028191956 0.77598369
-0.010999313 0.025887785 0.77336442
-0.0087188007 0.023711452 0.77091581
-0.0061265603 0.021688081 0.76866704
-0.0032356624 0.019845819 0.76665068
-6.3646185e-05 0.018216124 0.76490307
0.0033649122 0.016833816 0.76346409
0.007015083 0.01573658 0.76237637
0.010837238 0.014963731 0.7616837
0.01475855 0.014554217 0.761428
0.016697248 0.01449734 0.76147431
0.046461105 0.037233893 0.79020196
0.046198707 0.034636464 0.78710437
0.045564249 0.032093495 0.78404951
0.044567164 0.02961885 0.7810545
0.043212894 0.027232517 0.77814323
0.041505486 0.024957262 0.77534312
0.03944907 0.022818582 0.77268451
0.037049416 0.020845087 0.7702018
0.034315873 0.019068908 0.76793361
0.031263929 0.01752585 0.76592338
0.027918616 0.016255092 0.76421905
0.024319155 0.01529815 0.76287216
0.020527916 0.014697326 0.76193655
0.018616157 0.014544938 0.76164347
0.045795832 0.042401414 0.79629487
0.044868447 0.044969331 0.79928762
0.043585345 0.047464732 0.80217338
0.041959461 0.049874317 0.80493724
0.040001333 0.052178487 0.80755651
0.037720822 0.05435482 0.81000507
0.035128582 0.056378189 0.81225389
0.032237682 0.058220454 0.81427026
0.029065667 0.059850145 0.81601787
0.025637109 0.061232455 0.81745684
0.021986939 0.062329691 0.81854457
0.018164784 0.063102543 0.81923723
0.014243472 0.063512057 0.81949294
0.012304773 0.063568935 0.81944656
-0.017459083 0.040832378 0.79071897
-0.017196687 0.043429807 0.79381657
-0.016562229 0.045972776 0.79687136
-0.015565142 0.048447419 0.79986644
-0.014210875 0.050833754 0.80277765
-0.012503464 0.053109009 0.80557781
-0.010447049 0.055247687 0.80823642
-0.0080473945 0.057221182 0.81071913
-0.0053138528 0.058997363 0.81298733
-0.0022619083 0.060540423 0.81499755
0.0010834051 0.061811179 0.81670189
0.0046828659 0.062768124 0.81804878
0.008474105 0.063368946 0.81898433
0.010385863 0.063521333 0.81927741
-0.016543945 0.035834003 0.78455079
-0.015623756 0.033286013 0.78158128
-0.014350607 0.030809969 0.77871788
-0.012737337 0.028419081 0.77597547
-0.010794402 0.026132785 0.77337652
-0.0085315825 0.023973336 0.77094692
-0.0059594526 0.021965664 0.76871556
-0.0030909823 0.020137692 0.76671487
5.6425117e-05 0.018520642 0.76498079
0.0034583844 0.017149059 0.76355296
0.0070802364 0.016060336 0.7624737
0.010872738 0.015293481 0.7617864
0.014763627 0.014887146 0.76153272
0.016687287 0.014830709 0.76157868
0.046220228 0.037390865 0.79008347
0.045959871 0.03481359 0.78700989
0.045330334 0.032290351 0.78397876
0.044340983 0.029834906 0.78100693
0.042997222 0.027467085 0.77811825
0.041303057 0.025209481 0.77533984
0.039262597 0.023087393 0.77270192
0.036881559 0.02112921 0.77023846
0.034169223 0.019366808 0.76798785
0.031140957 0.017835723 0.76599318
0.027821597 0.016574822 0.76430207
0.024250062 0.015625305 0.76296562
0.020488234 0.015029144 0.76203734
0.018591307 0.014877939 0.76174653
0.045560118 0.042518299 0.79612911
0.04463993 0.045066293 0.79909861
0.043366782 0.047542337 0.80196202
0.041753512 0.049933225 0.80470443
0.039810576 0.052219521 0.80730331
0.037547756 0.054378968 0.80973291
0.034975626 0.056386642 0.81196427
0.032107156 0.058214612 0.81396502
0.028959749 0.059831664 0.81569904
0.02555779 0.061203245 0.81712687
0.021935938 0.062291969 0.81820613
0.018143436 0.063058823 0.81889343
0.014252547 0.063465156 0.81914717
0.012328887 0.063521594 0.81910115
-0.017204054 0.040961437 0.79059643
-0.016943695 0.043538716 0.79367
-0.01631416 0.046061955 0.79670113
-0.015324809 0.048517399 0.79967296
-0.013981048 0.050885219 0.80256158
-0.012286884 0.053142823 0.80533999
-0.010246422 0.055264913 0.80797797
-0.0078653842 0.057223096 0.81044143
-0.0051530497 0.058985498 0.81269199
-0.0021247824 0.060516581 0.81468666
0.0011945773 0.061777484 0.81637782
0.0047661127 0.062726997 0.81771421
0.0085279392 0.063323162 0.81864256
0.010424866 0.063474365 0.81893337
-0.016294207 0.036000829 0.78447747
-0.01538121 0.033472758 0.78153116
-0.014118016 0.031016072 0.77869016
-0.012517358 0.028643878 0.77596921
-0.010589615 0.026375458 0.77339059
-0.0083444864 0.024232892 0.77098
-0.005792466 0.022240916 0.76876611
-0.0029464238 0.020427236 0.76678103
0.00017637684 0.01882283 0.76506048
0.0035517367 0.01746197 0.76364386
0.0071452721 0.016381759 0.762573
0.010908123 0.0156209 0.76189113
0.014768591 0.01521774 0.76163936
0.01667721 0.015161747 0.76168501
0.045979254 0.037545521 0.78996688
0.045720927 0.034988392 0.78691733
0.045096315 0.032484882 0.78390992
0.044114698 0.030048633 0.78096133
0.042781446 0.027699325 0.77809525
0.041100524 0.025459373 0.77533859
0.039076015 0.023353877 0.77272123
0.036713596 0.021411002 0.77027702
0.034022465 0.019662382 0.76804405
0.031017875 0.018143268 0.766065
0.027724467 0.016892225 0.76438707
0.024180856 0.01595013 0.76306111
0.020448441 0.015358629 0.76214004
0.018566346 0.015208607 0.76185155
0.045324303 0.042632863 0.79596525
0.044411309 0.045160934 0.79891157
0.043148115 0.047617622 0.80175257
0.041547455 0.049989816 0.80447352
0.039619714 0.052258234 0.80705214
0.037374586 0.054400802 0.80946273
0.034822565 0.056392778 0.81167668
0.031976521 0.058206458 0.81366175
0.02885372 0.059810862 0.81538224
0.025478361 0.061171722 0.81679887
0.021884825 0.062251933 0.81786972
0.018121975 0.063012794 0.81855166
0.014261506 0.063415952 0.81880337
0.012352888 0.063471943 0.81875777
-0.016949156 0.041088175 0.79047585
-0.01669083 0.0436453 0.7935254
-0.016066216 0.046148811 0.79653281
-0.015084601 0.048585061 0.79948139
-0.013751347 0.050934367 0.80234748
-0.012070428 0.053174321 0.8051042
-0.010045919 0.055279817 0.8077215
-0.0076834979 0.05722269 0.8101657
-0.0049923682 0.058971312 0.81239867
-0.0019877781 0.060490426 0.81437773
0.00130563 0.061741468 0.81605566
0.0048492416 0.06268356 0.81738162
0.008581656 0.063275062 0.81830269
0.010463753 0.063425086 0.81859124
-0.016044589 0.036165372 0.78440607
-0.015138786 0.033657223 0.78148299
-0.013885546 0.031219894 0.77866435
-0.012297502 0.028866392 0.77596486
-0.010384949 0.026615847 0.77340657
-0.0081575122 0.024490163 0.77101493
-0.0056256009 0.022513883 0.7688185
-0.0028019848 0.020714495 0.76684904
0.00029620924 0.019122731 0.76514214
0.0036449737 0.017772594 0.76373661
0.0072101927 0.016700894 0.76267427
0.010943393 0.015946032 0.7619977
0.014773442 0.015546049 0.76174796
0.016667021 0.015490495 0.7617932
0.045738172 0.037697893 0.78985226
0.045481883 0.035160914 0.78682673
0.044862192 0.032677129 0.78384298
0.043888312 0.030260077 0.78091764
0.042565562 0.027929282 0.7780742
0.040897887 0.02570698 0.77533919
0.038889334 0.023618074 0.77274251
0.036545526 0.021690508 0.77031755
0.033875603 0.019955667 0.76810217
0.030894687 0.018448522 0.76613867
0.02762723 0.017207338 0.76447403
0.024111541 0.016272668 0.7631585
0.020408537 0.015685827 0.7622447
0.018541271 0.015536985 0.76195842
0.045088384 0.042745151 0.79580337
0.044182584 0.045253299 0.79872644
0.042929344 0.047690626 0.80154508
0.041341297 0.050044131 0.80424458
0.039428744 0.052294675 0.80680287
0.037201308 0.054420359 0.80919451
0.034669396 0.056396637 0.81139094
0.031845782 0.058196027 0.81336039
0.028747587 0.059787791 0.81506735
0.025398821 0.061137926 0.81647283
0.021833602 0.062209629 0.81753522
0.018100401 0.062964492 0.81821173
0.014270353 0.063364476 0.81846148
0.012376773 0.063420027 0.81841624
-0.016694378 0.04121263 0.79035717
-0.016438087 0.043749608 0.7933827
-0.015818395 0.046233393 0.79636645
-0.014844515 0.048650444 0.79929179
-0.013521768 0.050981242 0.80213529
-0.011854094 0.053203542 0.80487025
-0.0098455371 0.055292446 0.80746698
-0.0075017321 0.057220012 0.80989188
-0.0048318077 0.058954854 0.81210732
-0.0018508916 0.060461998 0.81407076
0.0014165648 0.061703183 0.81573546
0.0049322541 0.062637851 0.81705099
0.0086352583 0.063224696 0.81796479
0.010502525 0.063373536 0.81825101
-0.015795091 0.036327682 0.78433657
-0.014896483 0.033839453 0.78143674
-0.013653196 0.031421483 0.77864045
-0.012077765 0.02908667 0.77596241
-0.0101804 0.026853999 0.77342445
-0.0079706525 0.024745198 0.77105182
-0.0054588513 0.022784615 0.7688728
-0.0026576594 0.020999517 0.76691902
0.00041592814 0.019420395 0.76522565
0.0037380964 0.01808098 0.76383126
0.0072750007 0.017017791 0.76277733
0.010978553 0.016268924 0.76210618
0.014778183 0.015872119 0.7618584
0.016656725 0.015817005 0.76190329
0.045496989 0.037848029 0.78973949
0.045242738 0.035331201 0.78673798
0.044627968 0.032867145 0.78377795
0.043661822 0.030469289 0.78087586
0.042349577 0.028157003 0.77805495
0.040695149 0.025952352 0.77534169
0.038702544 0.023880037 0.77276564
0.036377352 0.02196778 0.77035993
0.033728633 0.020246714 0.76816213
0.030771393 0.018751539 0.76621425
0.027529886 0.017520213 0.76456279
0.024042118 0.016592965 0.76325774
0.020368524 0.016010787 0.76235116
0.018516088 0.015863128 0.7620672
0.044852365 0.042855203 0.79564333
0.043953754 0.045343436 0.79854321
0.042710468 0.047761403 0.80133945
0.041135035 0.050096214 0.80401754
0.039237671 0.052328888 0.80655551
0.037027925 0.054437686 0.80892813
0.034516122 0.056398273 0.81110716
0.031714931 0.058183368 0.81306094
0.028641343 0.059762493 0.81475431
0.025319176 0.061101906 0.81614864
0.021782272 0.062165093 0.81720257
0.01807872 0.062913962 0.81787378
0.014279089 0.063310765 0.81812155
0.012400548 0.063365877 0.81807661
-0.016439719 0.041334856 0.79024041
-0.016185464 0.043851685 0.79324192
-0.015570695 0.046315745 0.79620194
-0.01460455 0.048713598 0.79910409
-0.013292305 0.051025882 0.80192494
-0.011637876 0.053230535 0.80463821
-0.009645273 0.055302851 0.80721432
-0.0073200809 0.057215106 0.80961996
-0.0046713622 0.058936171 0.81181777
-0.0017141207 0.060431346 0.81376565
0.0015273858 0.061662674 0.81541711
0.005015153 0.062589921 0.81672221
0.0086887488 0.063172102 0.81762874
0.010541185 0.063319758 0.8179127
-0.015545717 0.036487807 0.78426892
-0.014654302 0.034019493 0.78139228
-0.013420967 0.031620879 0.7786184
-0.011858147 0.02930476 0.77596176
-0.0099759698 0.027089961 0.77344412
-0.007783914 0.024998041 0.77109051
-0.0052922182 0.023053151 0.76892889
-0.0025134501 0.021282343 0.76699078
0.00053553266 0.019715862 0.76531094
0.0038311067 0.018387171 0.76392776
0.0073396973 0.017332491 0.76288223
0.011013601 0.016589621 0.76221645
0.014782815 0.01619599 0.76197064
0.016646318 0.01614132 0.76201522
0.045255717 0.037995983 0.78962857
0.045003496 0.035499301 0.78665113
0.044393647 0.033054966 0.78371477
0.043435238 0.030676309 0.78083587
0.042133499 0.028382532 0.77803761
0.040492311 0.02619553 0.77534604
0.038515661 0.024139803 0.77279055
0.03620908 0.022242853 0.77040416
0.033581566 0.020535568 0.76822394
0.030647997 0.019052362 0.76629168
0.02743244 0.017830892 0.76465344
0.023972593 0.016911067 0.76335877
0.020328404 0.016333548 0.76245952
0.018490797 0.016187072 0.76217782
0.044616248 0.042963073 0.79548514
0.043724835 0.045431387 0.79836184
0.042491499 0.047830001 0.80113566
0.04092868 0.050146118 0.8037923
0.039046504 0.052360918 0.80630994
0.036854446 0.054452837 0.80866361
0.034362752 0.056397729 0.81082517
0.031583983 0.058168534 0.81276333
0.028534999 0.059735015 0.81444317
0.025239427 0.061063707 0.8158263
0.021730835 0.062118385 0.81687182
0.018056931 0.062861256 0.81753761
0.014287717 0.063254885 0.81778342
0.012424214 0.063309558 0.81773889
-0.016185183 0.041454896 0.79012549
-0.015932966 0.043951575 0.79310298
-0.015323116 0.046395909 0.79603934
-0.014364704 0.04877457 0.79891819
-0.013062965 0.051068343 0.80171651
-0.01142178 0.053255349 0.80440801
-0.0094451271 0.055311076 0.8069635
-0.0071385484 0.057208024 0.80934995
-0.0045110332 0.05891531 0.81153011
-0.0015774649 0.060398515 0.81346238
0.0016380924 0.061619986 0.81510067
0.0050979401 0.062539808 0.81639528
0.0087421276 0.063117333 0.8172946
0.010579735 0.063263804 0.81757629
-0.015296453 0.036645785 0.78420305
-0.01441223 0.03419739 0.7813496
-0.01318885 0.031818133 0.77859813
-0.011638639 0.029520702 0.77596295
-0.0097716516 0.027323775 0.77346563
-0.0075972844 0.025248736 0.77113098
-0.0051256944 0.023319541 0.76898682
-0.0023693522 0.021563023 0.76706433
0.00065502792 0.020009182 0.76539809
0.0039240085 0.018691212 0.76402605
0.0074042864 0.017645044 0.76298898
0.011048543 0.016908169 0.76232857
0.014787342 0.016517714 0.76208472
0.016635807 0.016463486 0.76212895
0.04501434 0.038141791 0.78951949
0.044764157 0.035665259 0.78656602
0.04415923 0.03324065 0.78365338
0.043208551 0.030881183 0.78079772
0.041917317 0.028605917 0.77802199
0.040289376 0.026436562 0.77535218
0.038328674 0.024397425 0.77281731
0.036040708 0.022515783 0.77045017
0.033434395 0.020822274 0.76828754
0.0305245 0.019351035 0.76637089
0.027334889 0.018139422 0.76474583
0.023902962 0.017227022 0.76346165
0.020288181 0.016654162 0.76256967
0.018465402 0.016508868 0.76229018
0.044380035 0.0430688 0.7953288
0.043495812 0.045517191 0.79818225
0.04227243 0.047896452 0.80093372
0.040722221 0.050193883 0.8035689
0.038855232 0.05239081 0.80606622
0.036680866 0.054465849 0.80840087
0.034209274 0.056395043 0.81054503
0.031452931 0.058151558 0.81246752
0.028428553 0.059705399 0.81413376
0.025159571 0.061023369 0.8155058
0.021679295 0.062069539 0.81654286
0.018035037 0.062806413 0.81720328
0.014296238 0.063196868 0.81744713
0.012447773 0.0632511 0.8174029
-0.015930759 0.041572791 0.79001236
-0.015680576 0.044049326 0.79296583
-0.015075648 0.046473935 0.79587847
-0.014124971 0.0488334 0.79873413
-0.012833736 0.051108666 0.80150986
-0.011205795 0.053278022 0.80417967
-0.0092450911 0.05531716 0.80671453
-0.0069571282 0.0571988 0.80908167
-0.0043508145 0.05889231 0.81124431
-0.0014409184 0.060363546 0.81316096
0.0017486908 0.061575159 0.81478602
0.0051806192 0.062487561 0.8160702
0.0087954002 0.063060418 0.81696218
0.010618178 0.063205712 0.81724167
-0.015047306 0.036801662 0.78413898
-0.014170277 0.034373183 0.78130877
-0.012956847 0.032013282 0.77857965
-0.011419247 0.029734539 0.77596587
-0.0095674479 0.027555484 0.77348888
-0.0074107675 0.025497325 0.77117324
-0.0049592848 0.023583824 0.76904655
-0.0022253627 0.021841595 0.76713967
0.00077441282 0.020300394 0.76548696
0.0040168012 0.018993147 0.76412612
0.0074687689 0.017955488 0.76309747
0.011083381 0.017224606 0.76244241
0.014791765 0.016837327 0.76220059
0.016625194 0.016783539 0.7622444
0.044772875 0.038285498 0.78941214
0.044524726 0.035829112 0.78648269
0.043924719 0.033424225 0.78359377
0.042981774 0.031083953 0.78076136
0.041701045 0.028827196 0.77800822
0.040086344 0.026675489 0.77536011
0.038141593 0.024652939 0.77284586
0.03587224 0.022786604 0.77049798
0.03328713 0.021106871 0.76835293
0.030400904 0.019647602 0.76645184
0.02723724 0.018445844 0.76484007
0.02383323 0.017540865 0.76356632
0.020247856 0.016972665 0.76268154
0.018439906 0.016828554 0.76240438
0.044143729 0.043172427 0.79517418
0.043266699 0.045600902 0.79800439
0.042053267 0.047960807 0.80073351
0.040515669 0.050239548 0.80334729
0.038663868 0.052418604 0.80582428
0.036507189 0.05447676 0.80813992
0.034055706 0.056390263 0.81026661
0.031321783 0.058132492 0.81217349
0.028322008 0.059673693 0.8138262
0.025079621 0.060980942 0.8151871
0.021627652 0.062018599 0.81621569
0.01801304 0.062749483 0.81687075
0.014304657 0.063136756 0.81711257
0.012471228 0.06319055 0.81706876
-0.015676452 0.041688588 0.78990102
-0.015428305 0.044144977 0.79283047
-0.014828296 0.04654986 0.79571939
-0.013885353 0.048890132 0.7985518
-0.012604623 0.051146891 0.801305
-0.010989924 0.053298596 0.80395305
-0.0090451716 0.05532115 0.80646729
-0.0067758183 0.057187483 0.80881518
-0.0041907085 0.058867216 0.81096023
-0.0013044834 0.060326483 0.81286132
0.0018591804 0.061528243 0.81447309
0.0052631903 0.06243322 0.81574684
0.0088485656 0.063001424 0.81663162
0.010656516 0.063145533 0.81690878
-0.014798271 0.036955472 0.78407663
-0.013928434 0.034546912 0.78126961
-0.012724955 0.032206364 0.7785629
-0.011199966 0.029946309 0.77597058
-0.0093633533 0.027785126 0.77351385
-0.0072243614 0.025743846 0.77121717
-0.0047929822 0.023846038 0.76910794
-0.002081482 0.022118097 0.76721674
0.00089369272 0.020589534 0.76557755
0.0041094893 0.019293008 0.76422787
0.0075331465 0.01826386 0.76320767
0.011118114 0.017538972 0.76255798
0.014796086 0.017154871 0.76231813
0.016614478 0.017101523 0.76236159
0.044531316 0.038427141 0.78930652
0.044285201 0.035990898 0.78640115
0.043690115 0.033605736 0.7835359
0.042754903 0.031284656 0.78072667
0.041484676 0.029046409 0.77799612
0.039883222 0.026912346 0.7753697
0.037954416 0.024906384 0.77287614
0.035703678 0.023055356 0.77054751
0.033139765 0.021389397 0.76842004
0.030277211 0.019942097 0.76653457
0.027139494 0.018750194 0.76493597
0.023763401 0.017852638 0.76367265
0.020207429 0.0172891 0.76279515
0.018414307 0.017146168 0.76252025
0.043907329 0.043273989 0.79502136
0.043037489 0.045682549 0.79782838
0.041834012 0.048023101 0.80053508
0.040309023 0.050283153 0.80312741
0.03847241 0.052444339 0.80558407
0.036333419 0.054485615 0.80788076
0.033902042 0.056383427 0.80998999
0.031190539 0.058111366 0.81188124
0.028215365 0.059639927 0.81352037
0.024999568 0.060936455 0.81487006
0.021575911 0.061965603 0.81589031
0.017990943 0.062690489 0.81653994
0.014312972 0.063074589 0.81677979
0.01249458 0.063127942 0.81673634
-0.015422258 0.041802321 0.78979141
-0.015176144 0.044238564 0.79269683
-0.014581056 0.046623725 0.79556209
-0.013645846 0.048944805 0.79837126
-0.01237562 0.051183056 0.80110186
-0.010774164 0.053317115 0.80372822
-0.00884536 0.055323079 0.80622184
-0.0065946188 0.057174109 0.80855048
-0.0040307087 0.058840066 0.81067789
-0.0011681541 0.060287364 0.81256342
0.0019695631 0.061479267 0.81416202
0.0053456565 0.062376823 0.81542528
0.0089016277 0.062940367 0.81630278
0.010694751 0.063083299 0.81657767
-0.014549339 0.037107259 0.78401595
-0.013686695 0.034718614 0.78123218
-0.012493168 0.032397415 0.77854782
-0.01098079 0.03015605 0.77597696
-0.0091593629 0.028012738 0.77354056
-0.0070380569 0.025988337 0.77126288
-0.0046267835 0.024106221 0.76917106
-0.001937705 0.022392567 0.76729548
0.0010128689 0.020876646 0.76566988
0.0042020753 0.01959084 0.76433134
0.0075974222 0.018570203 0.76331961
0.011152747 0.017851308 0.76267529
0.014800306 0.017470382 0.7624374
0.016603662 0.017417476 0.7624805
0.04428966 0.038566757 0.78920263
0.044045582 0.03615066 0.78632128
0.043455414 0.03378522 0.78347969
0.04252794 0.031483334 0.78069377
0.041268215 0.029263591 0.77798575
0.03968 0.027147176 0.77538109
0.037767146 0.0251578 0.77290809
0.035535015 0.023322077 0.77059871
0.032992307 0.021669894 0.76848888
0.030153422 0.020234561 0.76661897
0.027041649 0.019052517 0.7650336
0.023693472 0.018162381 0.76378071
0.020166906 0.0176035 0.76291049
0.018388608 0.017461751 0.76263785
0.043670833 0.043373529 0.7948702
0.04280819 0.045762174 0.79765397
0.041614663 0.048083369 0.80033833
0.040102284 0.050324734 0.8029092
0.038280856 0.052468047 0.80534559
0.036159549 0.054492448 0.80762327
0.033748277 0.056374565 0.80971509
0.031059198 0.058088217 0.81159067
0.028108625 0.059604138 0.81321627
0.024919417 0.060889944 0.81455481
0.02152407 0.061910581 0.8155666
0.017968746 0.062629476 0.81621087
0.014321187 0.063010402 0.81644875
0.01251783 0.063063309 0.81640565
-0.015168166 0.041914027 0.78968352
-0.014924089 0.044330128 0.79256487
-0.014333922 0.046695568 0.79540646
-0.013406446 0.048997454 0.79819244
-0.012146722 0.051217195 0.8009004
-0.010558507 0.05333361 0.80350506
-0.0086456528 0.055322986 0.80597806
-0.0064135236 0.057158709 0.80828744
-0.0038708134 0.05881089 0.81039727
-0.0010319286 0.060246225 0.81226718
0.0020798435 0.061428268 0.81385255
0.0054280204 0.062318403 0.81510544
0.0089545883 0.062877283 0.81597567
0.010732884 0.063019037 0.8162483
-0.014300521 0.037257057 0.783957
-0.01344507 0.034888327 0.78119642
-0.012261492 0.032586481 0.77853441
-0.010761723 0.030363804 0.775985
-0.0089554824 0.02823836 0.77356893
-0.0068518631 0.026230838 0.77131021
-0.0044606929 0.024364414 0.76923585
-0.0017940326 0.022665048 0.76737589
0.0011319407 0.021161765 0.76576388
0.004294558 0.019886676 0.76443648
0.0076615969 0.01887455 0.76343316
0.011187281 0.018161647 0.7627942
0.014804428 0.017783899 0.76255834
0.01659275 0.017731432 0.76260108
0.044047922 0.038704388 0.78910041
0.043805879 0.036308434 0.78624308
0.043220632 0.033962715 0.78342521
0.042300887 0.031680018 0.78066248
0.041051667 0.029478785 0.77797705
0.039476696 0.027380016 0.77539408
0.03757979 0.025407225 0.77294171
0.035366267 0.023586808 0.77065158
0.032844756 0.021948399 0.76855934
0.030029541 0.020525031 0.76670504
0.026943713 0.019352842 0.7651329
0.02362345 0.018470127 0.76389045
0.020126285 0.017915906 0.76302749
0.018362815 0.017775338 0.76275712
0.043434251 0.043471083 0.79472071
0.042578802 0.045839813 0.7974813
0.041395225 0.048141658 0.80014324
0.039895456 0.050364334 0.80269271
0.038089216 0.05248978 0.80510879
0.035985596 0.054497302 0.8073675
0.033594426 0.056363724 0.80944186
0.030927764 0.05806309 0.81130183
0.028001791 0.059566375 0.81291384
0.024839174 0.060841464 0.81424123
0.021472136 0.061853588 0.81524456
0.017946452 0.062566489 0.81588352
0.014329304 0.062944241 0.81611937
0.012540983 0.062996708 0.81607664
-0.014914188 0.042023752 0.78957731
-0.014672147 0.044419706 0.79243463
-0.0140869 0.046765424 0.7952525
-0.013167155 0.049048118 0.79801524
-0.011917935 0.051249355 0.80070066
-0.010342962 0.053348124 0.80328363
-0.0084460555 0.055320915 0.80573601
-0.0062325345 0.05714133 0.80802613
-0.003711025 0.058779739 0.81011838
-0.00089580892 0.060203109 0.81197268
0.0021900195 0.061375298 0.81354481
0.0055102822 0.062258013 0.81478727
0.0090074474 0.062812231 0.81565022
0.010770918 0.062952802 0.81592059
-0.014051805 0.037404902 0.78389966
-0.013203545 0.035056084 0.78116226
-0.012029919 0.032773595 0.77852267
-0.010542758 0.030569602 0.77599466
-0.0087517034 0.028462028 0.77359891
-0.006665769 0.026471382 0.77135921
-0.0042947005 0.02462065 0.76930231
-0.0016504599 0.022935571 0.76745796
0.0012509145 0.021444926 0.76585948
0.0043869424 0.020180559 0.76454324
0.0077256742 0.019176941 0.76354837
0.011221716 0.018470032 0.76291478
0.014808455 0.01809546 0.76268089
0.01658174 0.018043436 0.76272333
0.043806091 0.038840063 0.78899986
0.043566085 0.036464255 0.78616655
0.04298576 0.034138255 0.78337234
0.042073745 0.031874754 0.78063285
0.040835027 0.029692024 0.77797002
0.039273296 0.027610898 0.77540874
0.037392337 0.025654694 0.77297699
0.035197426 0.02384958 0.77070612
0.032697115 0.022224948 0.76863146
0.029905567 0.020813547 0.76679271
0.026845681 0.019651212 0.76523381
0.023553332 0.018775918 0.76400185
0.020085568 0.018226357 0.7631461
0.018336924 0.018086972 0.762878
0.043197583 0.043566685 0.79457289
0.042349324 0.045915503 0.79731029
0.041175697 0.048197992 0.79994988
0.039688535 0.050401986 0.8024779
0.037897483 0.052509561 0.80487365
0.035811547 0.054500207 0.80711335
0.033440478 0.056350939 0.80917025
0.030796237 0.058036018 0.81101459
0.027894864 0.05952666 0.81261307
0.024758836 0.060791031 0.81392926
0.021420104 0.061794646 0.81492418
0.017924061 0.062501557 0.81555778
0.014337325 0.062876128 0.81579167
0.012564038 0.062928155 0.81574923
-0.014660314 0.042131525 0.7894727
-0.014420306 0.044507332 0.79230601
-0.01383998 0.046833333 0.79510021
-0.012927967 0.049096834 0.7978397
-0.01168925 0.051279563 0.80050254
-0.010127518 0.053360689 0.80306381
-0.0082465578 0.055316892 0.80549556
-0.006051647 0.057122007 0.80776644
-0.0035513355 0.05874664 0.8098411
-0.00075978809 0.06015804 0.81167984
0.0023000976 0.061320376 0.81323874
0.0055924454 0.06219567 0.81447071
0.0090602096 0.062745228 0.81532645
0.010808854 0.062884614 0.81559455
-0.013803191 0.037550829 0.78384393
-0.012962124 0.035221927 0.78112978
-0.011798447 0.032958787 0.77851254
-0.010323894 0.030773481 0.77600598
-0.008548025 0.028683776 0.7736305
-0.0064797751 0.026710007 0.77140981
-0.00412881 0.024874965 0.76937032
-0.0015069889 0.023204172 0.76754165
0.0013697888 0.021726167 0.7659567
0.0044792281 0.020472519 0.76465166
0.0077896542 0.01947741 0.7636652
0.011256057 0.018776493 0.76303697
0.014812385 0.018405098 0.7628051
0.016570637 0.018353513 0.76284713
0.043564174 0.038973827 0.78890085
0.043326203 0.036618158 0.78609157
0.042750798 0.034311879 0.78332108
0.041846517 0.032067567 0.78060478
0.0406183 0.029903345 0.77796453
0.039069809 0.027839864 0.77542502
0.037204798 0.025900243 0.77301389
0.035028495 0.024110435 0.77076226
0.032549381 0.022499574 0.76870519
0.029781502 0.021100139 0.76688206
0.026747558 0.019947659 0.76533633
0.023483124 0.019079786 0.7641148
0.020044759 0.018534888 0.76326632
0.01831094 0.018396681 0.76300055
0.042960826 0.043660372 0.79442668
0.04211976 0.045989275 0.79714084
0.040956084 0.048252415 0.79975808
0.039481528 0.050437722 0.80226463
0.03770566 0.052527428 0.80464011
0.035637408 0.054501198 0.8068608
0.033286445 0.056336239 0.8089003
0.030664623 0.058007032 0.81072897
0.027787846 0.059485037 0.81231391
0.024678407 0.060738686 0.81361896
0.02136798 0.061733793 0.81460541
0.017901579 0.062434711 0.81523365
0.014345249 0.062806107 0.81546551
0.012586997 0.062857695 0.81542349
-0.01440654 0.042237379 0.78936976
-0.014168569 0.044593047 0.79217905
-0.013593162 0.046899326 0.79494953
-0.012688882 0.049143638 0.79766583
-0.011460667 0.051307861 0.80030608
-0.0099121742 0.05337134 0.8028456
-0.0080471626 0.055310961 0.80525672
-0.0058708619 0.057100769 0.80750835
-0.0033917471 0.058711629 0.80956542
-0.00062386744 0.060111064 0.81138855
0.0024100763 0.061263546 0.81293428
0.0056745112 0.06213142 0.81415582
0.0091128759 0.062676318 0.81500429
0.010846694 0.062814526 0.81527013
-0.013554679 0.037694871 0.78378981
-0.012720804 0.035385881 0.78109884
-0.011567079 0.033142094 0.77850401
-0.010105132 0.030975472 0.77601886
-0.0083444472 0.028903633 0.7736637
-0.0062938812 0.026946742 0.77146202
-0.0039630174 0.025127389 0.76943994
-0.0013636145 0.023470884 0.76762688
0.0014885657 0.022005513 0.76605552
0.0045714187 0.020762585 0.76476163
0.0078535397 0.019775983 0.76378357
0.011290302 0.019081064 0.76316077
0.014816223 0.018712841 0.76293087
0.016559441 0.018661698 0.76297253
0.043322176 0.039105698 0.78880352
0.043086238 0.036770172 0.78601825
0.042515751 0.034483615 0.78327143
0.0416192 0.032258492 0.78057837
0.040401489 0.030112773 0.77796066
0.038866237 0.028066937 0.7754429
0.03701717 0.026143901 0.77305233
0.034859478 0.024369396 0.77081996
0.032401562 0.022772308 0.76878047
0.029657347 0.021384841 0.76697296
0.026649345 0.020242212 0.76544046
0.023412824 0.019381762 0.76422936
0.020003857 0.01884152 0.76338816
0.018284865 0.018704496 0.76312459
0.042723984 0.043752175 0.79428208
0.041890107 0.046061166 0.79697305
0.040736381 0.048304953 0.79956788
0.039274435 0.050471574 0.80205303
0.037513752 0.052543413 0.80440813
0.035463184 0.054500304 0.80660987
0.033132322 0.056319658 0.8086319
0.030532919 0.057976164 0.81044495
0.027680738 0.059441533 0.81201637
0.024597885 0.060684461 0.81331027
0.021315765 0.061671063 0.81428826
0.017879002 0.062365983 0.81491113
0.014353082 0.062734209 0.81514102
0.012609863 0.06278535 0.81509936
-0.01415287 0.042341348 0.78926837
-0.013916933 0.044676874 0.79205364
-0.013346448 0.046963431 0.79480046
-0.012449898 0.049188554 0.79749352
-0.011232184 0.051334273 0.80011117
-0.0096969325 0.053380109 0.80262899
-0.007847867 0.055303145 0.8050195
-0.0056901746 0.05707765 0.80725187
-0.0032322572 0.058674738 0.80929136
-0.0004880437 0.060062207 0.81109893
0.0025199589 0.061204836 0.81263143
0.0057564816 0.062065285 0.81384248
0.0091654463 0.06260553 0.81468374
0.010884441 0.062742554 0.81494725
-0.013306268 0.037837062 0.78373724
-0.012479582 0.035547983 0.78106946
-0.011335806 0.033323545 0.77849704
-0.0098864697 0.031175608 0.77603328
-0.0081409672 0.029121637 0.77369845
-0.0061080856 0.027181622 0.77151573
-0.0037973237 0.025377959 0.7695111
-0.0012203346 0.023735737 0.76771373
0.0016072469 0.022283006 0.7661559
0.0046635144 0.021050796 0.76487315
0.0079173306 0.020072702 0.76390356
0.011324455 0.019383775 0.76328611
0.014819969 0.019018728 0.76305819
0.016548155 0.018968027 0.76309949
0.043080091 0.039235722 0.78870767
0.042846188 0.036920335 0.78594643
0.042280622 0.034653496 0.78322333
0.041391805 0.032447562 0.78055352
0.040184591 0.03032035 0.77795839
0.038662579 0.028292155 0.77546227
0.03682946 0.026385704 0.77309239
0.034690373 0.024626501 0.77087927
0.032253657 0.023043189 0.76885736
0.029533107 0.021667685 0.76706541
0.026551045 0.02053491 0.76554614
0.023342434 0.01968188 0.76434547
0.019962868 0.019146297 0.76351148
0.018258696 0.019010458 0.76325023
0.042487059 0.043842129 0.79413903
0.041660372 0.046131205 0.79680675
0.040516596 0.048355643 0.79937923
0.039067261 0.050503582 0.80184293
0.037321758 0.052557554 0.80417776
0.035288878 0.054497566 0.80636048
0.032978114 0.056301229 0.80836511
0.030401126 0.057943452 0.81016254
0.027573545 0.059396185 0.81172037
0.024517277 0.060628392 0.81300312
0.02126346 0.061606485 0.81397271
0.017856335 0.062295415 0.81459016
0.014360822 0.062660463 0.81481808
0.012632636 0.062711164 0.81477678
-0.0138993 0.042443465 0.78916854
-0.013665397 0.044758853 0.79192978
-0.013099831 0.047025692 0.79465294
-0.012211015 0.049231626 0.79732275
-0.011003801 0.051358838 0.79991788
-0.0094817895 0.053387035 0.80241394
-0.0076486701 0.055293486 0.80478388
-0.0055095833 0.057052687 0.806997
-0.0030728644 0.058636002 0.80901891
-0.00035231587 0.060011502 0.81081086
0.0026297455 0.061144277 0.81233013
0.0058383569 0.061997309 0.81353074
0.0092179235 0.062532894 0.81436473
0.010922094 0.062668733 0.81462598
-0.013057954 0.037977431 0.78368622
-0.01223846 0.035708264 0.78104162
-0.011104632 0.033503175 0.77849156
-0.0096679023 0.031373922 0.77604926
-0.007937585 0.029337818 0.77373475
-0.0059223855 0.027414676 0.77157104
-0.0036317226 0.025626704 0.76958382
-0.0010771515 0.023998769 0.76780206
0.0017258353 0.022558672 0.76625776
0.004755517 0.021337181 0.76498622
0.0079810293 0.020367596 0.76402503
0.011358517 0.019684661 0.76341295
0.014823625 0.01932279 0.76318699
0.016536778 0.019272529 0.76322794
0.042837925 0.039363924 0.78861344
0.042606056 0.03706868 0.78587615
0.042045411 0.034821559 0.78317672
0.041164324 0.032634813 0.78053015
0.039967615 0.030526103 0.77795762
0.038458839 0.028515551 0.77548319
0.036641665 0.026625684 0.77313393
0.034521189 0.024881784 0.77094007
0.032105662 0.023312243 0.76893574
0.029408781 0.021948704 0.7671594
0.026452659 0.020825785 0.76565331
0.023271957 0.019980174 0.76446313
0.019921787 0.019449251 0.76363641
0.018232442 0.019314591 0.76337743
0.042250052 0.043930262 0.79399747
0.041430559 0.046199426 0.79664207
0.04029673 0.048404519 0.79919213
0.038860001 0.050533772 0.80163443
0.037129682 0.052569874 0.80394894
0.035114482 0.054493017 0.80611265
0.03282382 0.056280989 0.80809987
0.030269248 0.057908922 0.80988163
0.027466262 0.059349019 0.81142592
0.02443658 0.060570512 0.81269747
0.021211069 0.061540097 0.81365865
0.017833579 0.062223032 0.81427073
0.014368472 0.062584899 0.8144967
0.01265532 0.062635161 0.81445575
-0.013645828 0.042543769 0.78907025
-0.013413959 0.044839013 0.79180747
-0.012853312 0.047086135 0.79450691
-0.011972227 0.04927288 0.79715353
-0.010775516 0.051381588 0.79972607
-0.0092667434 0.053392142 0.80220044
-0.0074495682 0.055282008 0.80454975
-0.0053290897 0.057025909 0.80674362
-0.0029135658 0.058595449 0.80874795
-0.00021668269 0.059958987 0.81052428
0.0027394386 0.061081909 0.81203038
0.005920141 0.06192752 0.81322056
0.0092703095 0.062458441 0.81404728
0.010959656 0.062593102 0.81430626
-0.012809735 0.038116004 0.78363669
-0.011997432 0.035866752 0.78101534
-0.010873553 0.033681013 0.77848762
-0.0094494298 0.031570442 0.77606678
-0.007734294 0.029552203 0.77377254
-0.0057367771 0.027645938 0.77162778
-0.0034662159 0.025873654 0.76965803
-0.00093406049 0.024260003 0.76789188
0.0018443316 0.022832543 0.76636118
0.0048474288 0.021621771 0.76510078
0.0080446387 0.020660693 0.764148
0.01139249 0.01998375 0.76354128
0.014827193 0.019625055 0.76331735
0.016525313 0.019575235 0.76335794
0.042595677 0.039490335 0.78852063
0.042365842 0.037215229 0.78580743
0.041810114 0.034987826 0.78313166
0.040936761 0.032820269 0.78050828
0.03975055 0.030730063 0.77795833
0.038255017 0.028737152 0.77550566
0.036453787 0.026863867 0.77317703
0.034351915 0.025135269 0.77100235
0.031957585 0.023579501 0.76901567
0.029284367 0.022227928 0.76725489
0.026354184 0.021114862 0.76576203
0.023201393 0.020276669 0.76458228
0.019880621 0.019750405 0.76376277
0.018206097 0.019616926 0.76350611
0.04201296 0.044016603 0.79385746
0.041200656 0.046265859 0.79647881
0.040076781 0.048451599 0.79900652
0.038652655 0.050562169 0.80142736
0.03693752 0.052580405 0.80372161
0.034940004 0.054486673 0.80586636
0.032669444 0.056258958 0.80783612
0.030137287 0.057872608 0.8096022
0.027358895 0.059300069 0.81113297
