# .PCD v0.7 - Point Cloud Data file format
VERSION 0.7
FIELDS x y z
SIZE 4 4 4
TYPE F F F
COUNT 1 1 1
WIDTH 1356
HEIGHT 1
VIEWPOINT 0 0 0 1 0 0 0
POINTS 1356
DATA ascii
0.039172586 0.016525947 0.84865832
0.039312534 0.01538079 0.84968573
0.039459165 0.014177527 0.85076535
0.039611425 0.01291615 0.85189718
0.039765738 0.011597302 0.85308081
0.039910462 0.01022331 0.8543148
0.040003899 0.0079717766 0.85634434
0.039101049 0.0057933996 0.85835963
0.033933856 0.0046790796 0.85963535
0.036624726 0.037348919 0.82997584
0.036593389 0.037605014 0.82974607
0.036559805 0.037879489 0.82949978
0.036523812 0.038173664 0.82923585
0.036485229 0.038488954 0.82895297
0.036443882 0.038826875 0.82864982
0.036399566 0.039189044 0.82832485
0.036352072 0.039577205 0.82797658
0.03630117 0.039993212 0.82760334
0.036246616 0.040439032 0.82720339
0.036188163 0.040916748 0.82677478
0.036125537 0.041428544 0.82631558
0.036058467 0.041976683 0.82582378
0.035986666 0.042563479 0.8252973
0.03590985 0.043191276 0.82473403
0.03582773 0.043862399 0.82413191
0.035740029 0.044579126 0.82348889
0.035646483 0.045343634 0.82280296
0.035546839 0.046157978 0.82207233
0.035440866 0.047024041 0.82129526
0.035328358 0.04794351 0.82047033
0.035209134 0.048917841 0.81959617
0.035083037 0.049948249 0.81867164
0.034949932 0.051035691 0.81769603
0.034809638 0.05218083 0.81666857
0.034661807 0.053384043 0.81558907
0.034505401 0.054645248 0.81445765
0.034337036 0.055963509 0.81327528
0.034145754 0.057335556 0.81204545
0.033690043 0.059571948 0.81004846
0.032265991 0.06165307 0.80824208
0.026880069 0.06232632 0.80791402
-0.039612401 0.03416257 0.83682168
-0.039643738 0.034418665 0.8365919
-0.039677322 0.034693141 0.83634567
-0.039713319 0.034987316 0.83608168
-0.039751898 0.035302605 0.8357988
-0.039793245 0.035640523 0.83549565
-0.039837562 0.036002696 0.83517069
-0.039885059 0.036390856 0.83482242
-0.039935961 0.036806863 0.83444923
-0.039990511 0.037252683 0.83404922
-0.040048968 0.0377304 0.83362061
-0.04011159 0.038242195 0.83316141
-0.04017866 0.038790334 0.83266962
-0.040250462 0.039377131 0.83214313
-0.040327281 0.040004928 0.83157986
-0.040409401 0.04067605 0.83097774
-0.040497098 0.041392777 0.83033472
-0.040590644 0.042157281 0.82964879
-0.040690288 0.042971626 0.82891816
-0.040796261 0.043837693 0.82814109
-0.040908769 0.044757161 0.82731616
-0.041027986 0.045731492 0.826442
-0.041154053 0.046761904 0.82551748
-0.041287068 0.047849346 0.82454181
-0.041427016 0.048994504 0.8235144
-0.041573647 0.050197765 0.82243478
-0.041725907 0.051459141 0.82130295
-0.04188022 0.052777991 0.82011932
-0.042024944 0.054151982 0.81888533
-0.042118385 0.056403514 0.81685579
-0.041215532 0.058581892 0.8148405
-0.036048338 0.059696212 0.81356478
-0.038169228 0.027531868 0.84360528
-0.038138345 0.027279479 0.84383172
-0.038105246 0.027008975 0.84407443
-0.03806977 0.026719054 0.84433454
-0.038031749 0.026408328 0.84461331
-0.037990998 0.026075298 0.84491211
-0.037947323 0.025718365 0.84523237
-0.037900515 0.02533582 0.84557557
-0.03785035 0.024925834 0.84594339
-0.037796587 0.024486464 0.84633762
-0.037738979 0.024015658 0.84676003
-0.037677262 0.023511266 0.84721255
-0.03761116 0.022971058 0.84769726
-0.037540399 0.02239275 0.84821612
-0.037464689 0.021774035 0.84877121
-0.037383761 0.021112623 0.84936464
-0.037297331 0.020406269 0.84999835
-0.037205137 0.019652821 0.85067439
-0.037106935 0.018850258 0.85139441
-0.037002496 0.017996725 0.85216022
-0.036891617 0.017090559 0.85297322
-0.036774117 0.016130323 0.85383481
-0.036649846 0.015114821 0.85474586
-0.036518663 0.014043115 0.85570741
-0.036380399 0.01291454 0.85671997
-0.03623471 0.011728736 0.85778385
-0.036080562 0.010485779 0.85889894
-0.035914637 0.0091865892 0.86006421
-0.035726119 0.0078343917 0.86127621
-0.035276998 0.0056303567 0.86324435
-0.033873551 0.0035793418 0.86502457
-0.028565554 0.0029158355 0.86534792
0.036964923 0.030672118 0.83685845
0.036995806 0.03041973 0.83708489
0.037028905 0.030149225 0.8373276
0.037064377 0.029859304 0.83758771
0.037102401 0.029548576 0.83786654
0.037143148 0.029215546 0.83816528
0.037186824 0.028858615 0.83848554
0.037233632 0.028476071 0.8388288
0.037283801 0.028066084 0.83919662
0.03733756 0.027626714 0.83959085
0.037395168 0.027155908 0.84001321
0.037456889 0.026651515 0.84046578
0.037522987 0.026111308 0.84095043
0.037593752 0.025533 0.84146929
0.037669457 0.024914285 0.84202445
0.037750389 0.024252873 0.84261787
0.03783682 0.023546519 0.84325159
0.03792901 0.022793071 0.84392756
0.038027216 0.021990508 0.84464765
0.038131654 0.021136975 0.84541345
0.038242534 0.020230809 0.84622645
0.038360026 0.019270573 0.84708798
0.038484272 0.01825507 0.8479991
0.038615361 0.01718336 0.84896064
0.038753282 0.01605477 0.8499732
0.038897794 0.014868917 0.8510372
0.039047848 0.013625789 0.85215265
0.03919993 0.012326021 0.85331917
0.039342564 0.010971906 0.85453528
0.039434645 0.0087529486 0.85653549
0.038544856 0.0066060866 0.85852164
0.033452421 0.0055078915 0.85977888
0.036104362 0.037705071 0.83054847
0.03607348 0.03795746 0.83032203
0.036040381 0.038227964 0.83007932
0.036004905 0.038517885 0.8298192
0.035966884 0.038828611 0.82954043
0.035926133 0.039161641 0.82924163
0.035882458 0.039518576 0.82892138
0.03583565 0.039901119 0.82857817
0.035785485 0.040311106 0.82821035
0.035731722 0.040750477 0.82781613
0.035674114 0.041221283 0.82739371
0.035612397 0.041725673 0.82694119
0.035546295 0.042265881 0.82645649
0.035475533 0.042844191 0.82593763
0.035399824 0.043462902 0.82538253
0.035318896 0.044124316 0.82478911
0.035232466 0.044830672 0.82415533
0.035140272 0.04558412 0.82347935
0.03504207 0.046386681 0.82275927
0.034937631 0.047240216 0.82199353
0.034826752 0.048146382 0.82118046
0.034709252 0.049106617 0.82031894
0.03458498 0.050122119 0.81940782
0.034453798 0.051193826 0.81844634
0.034315534 0.052322399 0.81743377
0.034169845 0.053508203 0.81636989
0.034015696 0.054751161 0.81525481
0.033849772 0.056050349 0.81408954
0.033661254 0.057402547 0.81287754
0.033212133 0.059606582 0.81090939
0.031808689 0.061657596 0.80912918
0.026500689 0.062321104 0.80880582
-0.039029788 0.034564823 0.83729529
-0.039060671 0.034817211 0.8370688
-0.03909377 0.035087716 0.83682615
-0.039129242 0.035377637 0.83656603
-0.039167266 0.035688363 0.8362872
-0.039208014 0.036021393 0.8359884
-0.039251689 0.036378324 0.83566821
-0.039298497 0.03676087 0.83532494
-0.039348666 0.037170857 0.83495712
-0.039402425 0.037610225 0.8345629
-0.039460033 0.038081031 0.83414054
-0.039521754 0.038585424 0.83368796
-0.039587852 0.039125632 0.83320332
-0.039658617 0.039703939 0.83268446
-0.039734323 0.040322654 0.8321293
-0.039815255 0.040984068 0.83153588
-0.039901685 0.04169042 0.83090216
-0.039993875 0.042443868 0.83022618
-0.040092077 0.043246433 0.8295061
-0.040196519 0.044099964 0.8287403
-0.040307399 0.04500613 0.82792729
-0.040424891 0.045966368 0.82706577
-0.040549137 0.046981871 0.82615465
-0.040680222 0.048053581 0.82519311
-0.040818147 0.049182169 0.82418048
-0.040962659 0.050368022 0.82311654
-0.041112714 0.051611152 0.8220011
-0.041264795 0.05291092 0.82083458
-0.041407425 0.054265033 0.81961846
-0.04149951 0.056483991 0.81761825
-0.040609721 0.058630854 0.8156321
-0.035517287 0.059729047 0.81437486
-0.03760542 0.027955985 0.84389663
-0.037574992 0.02770729 0.84411979
-0.037542377 0.027440745 0.84435892
-0.037507419 0.02715507 0.84461522
-0.037469953 0.026848892 0.84488994
-0.037429802 0.026520737 0.84518439
-0.037386768 0.02616903 0.84549993
-0.037340645 0.025792085 0.84583813
-0.03729121 0.025388101 0.84620059
-0.037238237 0.024955163 0.84658903
-0.037181471 0.024491251 0.84700525
-0.037120655 0.023994243 0.84745115
-0.037055526 0.023461943 0.8479287
-0.036985796 0.022892101 0.84843999
-0.036911201 0.022282444 0.84898698
-0.036831453 0.021630714 0.8495717
-0.036746286 0.020934701 0.85019618
-0.036655445 0.020192284 0.85086226
-0.03655868 0.01940147 0.8515718
-0.036455769 0.018560432 0.85232639
-0.036346514 0.017667532 0.85312748
-0.036230735 0.016721353 0.85397643
-0.036108285 0.015720718 0.85487419
-0.035979021 0.014664701 0.85582167
-0.03584278 0.013552649 0.85681939
-0.035699222 0.012384204 0.85786766
-0.035547335 0.011159444 0.85896641
-0.035383832 0.0098792743 0.86011463
-0.035198078 0.008546873 0.86130893
-0.034755535 0.0063751037 0.86324823
-0.033372637 0.004354116 0.86500239
-0.028142344 0.0037003208 0.86532098
0.036428787 0.031050261 0.83724862
0.036459219 0.030801568 0.83747178
0.03649183 0.030535024 0.83771092
0.036526788 0.030249348 0.83796722
0.036564253 0.029943168 0.83824193
0.036604404 0.029615015 0.83853632
0.036647439 0.029263308 0.83885187
0.036693566 0.028886363 0.83919007
0.036742996 0.028482379 0.83955252
0.03679597 0.028049441 0.83994097
0.036852736 0.027585527 0.84035718
0.036913551 0.027088519 0.84080315
0.036978684 0.02655622 0.8412807
0.037048411 0.025986377 0.84179199
0.037123006 0.025376722 0.84233898
0.037202753 0.024724992 0.8429237
0.037287921 0.024028977 0.84354818
0.037378762 0.023286561 0.84421426
0.037475526 0.022495747 0.84492379
0.037578437 0.021654708 0.84567839
0.037687693 0.020761808 0.84647948
0.037803467 0.019815629 0.84732836
0.037925892 0.018814994 0.84822619
0.038055062 0.017758973 0.84917361
0.038190968 0.016646907 0.85017139
0.03833336 0.015478414 0.85121977
0.038481221 0.014253486 0.85231894
0.038631074 0.012972745 0.85346836
0.038771618 0.011638454 0.85466665
0.038862355 0.0094519816 0.8566376
0.037985593 0.0073365504 0.85859466
0.032967709 0.0062544304 0.85983348
0.035580825 0.037980255 0.83103102
0.035550393 0.038228948 0.83080786
0.035517778 0.038495492 0.83056873
0.035482824 0.03878117 0.83031243
0.035445359 0.039087348 0.83003771
0.035405207 0.039415501 0.82974333
0.035362169 0.039767209 0.82942772
0.035316046 0.040144153 0.82908952
0.035266615 0.040548138 0.82872707
0.035213642 0.040981077 0.82833868
0.035156876 0.041444987 0.82792246
0.03509606 0.041941997 0.8274765
0.035030928 0.042474296 0.82699895
0.034961201 0.043044139 0.82648766
0.034886602 0.043653794 0.82594067
0.034806855 0.044305526 0.82535595
0.034721691 0.045001537 0.82473147
0.03463085 0.045743953 0.82406539
0.034534082 0.046534769 0.82335585
0.034431174 0.047375806 0.82260126
0.034321915 0.048268706 0.82180017
0.034206137 0.049214885 0.82095122
0.034083687 0.05021552 0.82005346
0.033954423 0.051271535 0.81910604
0.033818185 0.05238359 0.81810826
0.033674628 0.053552035 0.81705999
0.03352274 0.054776795 0.81596124
0.033359237 0.056056965 0.81481302
0.033173483 0.057389364 0.81361878
0.032730941 0.059561133 0.81167942
0.031348042 0.061582122 0.80992526
0.026117748 0.062235918 0.80960667
-0.038453382 0.034885976 0.83767903
-0.038483813 0.035134669 0.83745593
-0.038516428 0.035401214 0.83721673
-0.038551383 0.035686892 0.83696043
-0.038588848 0.035993069 0.83668572
-0.038629003 0.036321223 0.83639133
-0.038672037 0.036672931 0.83607578
-0.03871816 0.037049875 0.83573759
-0.038767591 0.03745386 0.83537513
-0.038820565 0.037886798 0.83498669
-0.038877331 0.038350713 0.83457047
-0.038938146 0.038847718 0.83412457
-0.039003279 0.039380018 0.83364695
-0.039073005 0.03994986 0.83313572
-0.039147604 0.040559515 0.83258873
-0.039227352 0.041211247 0.83200395
-0.039312515 0.041907262 0.83137953
-0.039403357 0.042649679 0.83071339
-0.039500125 0.043440491 0.83000392
-0.039603032 0.044281531 0.82924932
-0.039712291 0.045174431 0.82844818
-0.039828062 0.04612061 0.82759929
-0.03995049 0.047121245 0.82670152
-0.040079657 0.048177265 0.82575405
-0.040215563 0.049289331 0.82475626
-0.040357955 0.050457824 0.82370788
-0.040505815 0.051682752 0.82260877
-0.040655669 0.052963492 0.82145929
-0.040796213 0.054297782 0.820261
-0.040886953 0.056484256 0.81829005
-0.040010188 0.058599688 0.816333
-0.034992304 0.059681807 0.81509417
-0.037046358 0.028316986 0.84411854
-0.037016377 0.028071979 0.84433836
-0.036984246 0.027809387 0.84457397
-0.03694981 0.027527947 0.84482652
-0.036912899 0.027226306 0.84509712
-0.036873344 0.026903018 0.84538716
-0.036830947 0.026556527 0.84569806
-0.036785506 0.02618517 0.84603125
-0.036736809 0.025787177 0.84638834
-0.036684617 0.025360657 0.846771
-0.036628693 0.024903623 0.84718102
-0.036568783 0.024413982 0.84762037
-0.036504615 0.023889575 0.84809083
-0.036435921 0.023328183 0.84859455
-0.036362428 0.022727566 0.84913343
-0.036283866 0.022085499 0.84970945
-0.036199965 0.021399803 0.85032469
-0.036110468 0.020668395 0.85098094
-0.036015138 0.019889306 0.85167992
-0.035913751 0.019060738 0.85242331
-0.035806116 0.018181076 0.85321254
-0.035692055 0.017248927 0.85404885
-0.035571419 0.016263129 0.85493332
-0.035444073 0.015222768 0.85586673
-0.035309851 0.014127203 0.85684967
-0.035168421 0.012976084 0.85788244
-0.035018787 0.011769483 0.85896492
-0.034857713 0.010508292 0.8600961
-0.034674708 0.0091956481 0.86127263
-0.034238726 0.0070560779 0.8631832
-0.032876331 0.0050650556 0.86491138
-0.027723586 0.0044209529 0.86522526
0.035890169 0.031365387 0.83756912
0.035920147 0.031120379 0.83778894
0.035952281 0.030857787 0.8380245
0.035986718 0.030576346 0.83827704
0.036023624 0.030274706 0.83854765
0.036063183 0.029951418 0.83883774
0.036105581 0.029604927 0.83914858
0.036151022 0.029233569 0.83948177
0.036199719 0.028835576 0.83983886
0.03625191 0.028409056 0.84022152
0.036307834 0.027952023 0.8406316
0.036367744 0.027462382 0.84107089
0.036431912 0.026937975 0.84154141
0.036500607 0.026376583 0.84204507
0.036574095 0.025775965 0.84258395
0.036652662 0.025133898 0.84316003
0.036736563 0.024448203 0.84377521
0.036826059 0.023716794 0.84443146
0.036921389 0.022937706 0.84513044
0.037022773 0.022109138 0.84587383
0.037130412 0.021229476 0.84666306
0.037244465 0.020297326 0.84749943
0.037365079 0.019311527 0.8483839
0.037492335 0.018271163 0.84931731
0.037626222 0.017175583 0.85030025
0.037766505 0.016024416 0.85133314
0.037912171 0.014817649 0.85241598
0.038059805 0.013555898 0.85354835
0.038198262 0.012241391 0.85472888
0.038287655 0.010087335 0.85667056
0.037423894 0.0080032703 0.85859865
0.032480408 0.0069371937 0.85981911
0.035054781 0.03819263 0.83144367
0.035024799 0.038437638 0.83122385
0.034992669 0.03870023 0.83098823
0.034958232 0.038981669 0.83073574
0.034921322 0.039283309 0.83046514
0.034881763 0.039606597 0.83017504
0.034839366 0.03995309 0.8298642
0.034793928 0.040324446 0.82953101
0.034745228 0.040722441 0.82917392
0.03469304 0.041148957 0.82879126
0.034637116 0.041605994 0.82838118
0.034577202 0.042095631 0.82794189
0.034513038 0.04262004 0.82747138
0.034444343 0.043181434 0.82696772
0.034370851 0.043782048 0.82642883
0.034292288 0.044424117 0.82585275
0.034208383 0.045109812 0.82523757
0.034118887 0.045841221 0.82458133
0.034023557 0.046620309 0.82388234
0.033922173 0.047448877 0.82313895
0.033814538 0.048328537 0.82234967
0.033700474 0.049260687 0.82151335
0.033579841 0.050246488 0.82062888
0.033452496 0.051286846 0.81969547
0.033318274 0.052382413 0.81871253
0.033176843 0.053533532 0.81767976
0.033027209 0.054740135 0.81659734
0.032866132 0.056001324 0.81546611
0.03268313 0.057313967 0.81428957
0.032247148 0.059453536 0.812379
0.030884752 0.061444558 0.81065089
0.025732007 0.062088661 0.81033701
-0.037881747 0.035144228 0.83799314
-0.037911728 0.035389237 0.83777332
-0.037943859 0.035651829 0.83753771
-0.037978295 0.035933267 0.83728522
-0.038015205 0.036234908 0.83701456
-0.038054761 0.036558196 0.83672452
-0.038097158 0.036904689 0.83641362
-0.038142599 0.037276044 0.83608043
-0.0381913 0.03767404 0.8357234
-0.038243487 0.038100559 0.83534068
-0.038299412 0.038557593 0.83493066
-0.038359325 0.039047234 0.83449131
-0.03842349 0.039571639 0.83402085
-0.038492184 0.040133033 0.83351713
-0.038565677 0.04073365 0.83297825
-0.038644239 0.041375715 0.83240223
-0.03872814 0.042061411 0.83178699
-0.038817637 0.042792819 0.8311308
-0.038912967 0.043571908 0.83043176
-0.039014354 0.044400476 0.82968837
-0.039121989 0.04528014 0.82889915
-0.039236046 0.046212289 0.82806283
-0.039356656 0.047198087 0.82717836
-0.039483912 0.048238453 0.82624495
-0.039617803 0.049334031 0.82526195
-0.039758082 0.050485197 0.82422912
-0.039903749 0.051691964 0.82314628
-0.040051386 0.052953716 0.82201385
-0.040189844 0.054268222 0.82083333
-0.040279236 0.056422278 0.81889164
-0.039415471 0.058506344 0.81696361
-0.034471985 0.059572421 0.81574309
-0.036490999 0.028627995 0.84428543
-0.036461469 0.028386669 0.84450191
-0.036429822 0.028128022 0.84473401
-0.036395904 0.027850812 0.84498268
-0.036359549 0.027553705 0.8452493
-0.036320586 0.027235275 0.84553498
-0.036278825 0.026893988 0.84584117
-0.036234066 0.026528213 0.84616935
-0.036186099 0.026136199 0.84652108
-0.036134694 0.025716091 0.84689796
-0.036079612 0.025265923 0.8473019
-0.036020599 0.024783641 0.84773457
-0.035957396 0.024267115 0.848198
-0.035889737 0.023714157 0.84869415
-0.035817347 0.023122566 0.84922493
-0.035739966 0.022490146 0.8497923
-0.035657324 0.021814756 0.8503983
-0.035569172 0.021094337 0.85104465
-0.035475273 0.020326957 0.85173315
-0.035375413 0.019510839 0.85246539
-0.035269395 0.018644394 0.85324275
-0.035157047 0.017726252 0.85406649
-0.035038222 0.016755266 0.85493767
-0.034912791 0.015730541 0.85585707
-0.034780588 0.014651438 0.85682523
-0.034641284 0.013517615 0.85784245
-0.034493901 0.012329145 0.85890865
-0.034335244 0.011086908 0.86002284
-0.034154989 0.0097939866 0.86118174
-0.03372556 0.0076865694 0.86306357
-0.032383636 0.0057254639 0.86476576
-0.027308319 0.0050910399 0.86507493
0.035349529 0.031630587 0.83783436
0.03537906 0.031389263 0.8380509
0.03541071 0.031130616 0.83828294
0.035444628 0.030853404 0.83853167
0.035480984 0.030556297 0.83879822
0.035519946 0.030237867 0.83908391
0.035561707 0.029896582 0.83939016
0.035606463 0.029530805 0.83971828
0.035654429 0.029138792 0.84007001
0.035705835 0.028718682 0.84044695
0.035760917 0.028268516 0.84085083
0.035819929 0.027786233 0.84128356
0.035883132 0.027269706 0.84174699
0.035950795 0.026716748 0.84224308
0.036023181 0.026125157 0.84277385
0.036100566 0.025492739 0.84334129
0.036183208 0.024817348 0.84394723
0.03627136 0.024096929 0.84459358
0.036365256 0.023329549 0.84528208
0.036465116 0.022513431 0.84601432
0.036571138 0.021646986 0.84679168
0.036683477 0.020728843 0.84761548
0.036802277 0.019757858 0.84848666
0.036927618 0.018733127 0.849406
0.037059497 0.017654013 0.85037422
0.037197672 0.016520143 0.85139155
0.037341151 0.015331509 0.85245812
0.037486564 0.014088718 0.8535735
0.037622944 0.012793963 0.85473633
0.037710994 0.010672278 0.8566488
0.036860209 0.0086195264 0.85854787
0.031991005 0.0075694695 0.85975003
0.034526695 0.038355239 0.831801
0.034497164 0.038596567 0.83158445
0.034465518 0.038855214 0.83135241
0.034431595 0.039132424 0.83110368
0.034395244 0.039429531 0.83083713
0.034356277 0.039747961 0.83055145
0.034314521 0.040089246 0.83024526
0.034269761 0.040455021 0.82991707
0.034221794 0.040847037 0.82956535
0.034170389 0.041267145 0.82918841
0.034115307 0.041717313 0.82878453
0.034056295 0.042199593 0.8283518
0.033993091 0.042716119 0.82788837
0.033925433 0.043269079 0.82739228
0.033853043 0.04386067 0.8268615
0.033775661 0.04449309 0.82629406
0.033693019 0.045168478 0.82568812
0.033604868 0.045888897 0.82504177
0.033510968 0.046656277 0.82435328
0.033411108 0.047472395 0.82362103
0.03330509 0.048338842 0.82284367
0.033192739 0.049256984 0.82201988
0.033073917 0.05022797 0.82114869
0.032948487 0.051252693 0.82022935
0.032816283 0.052331798 0.81926119
0.03267698 0.05346562 0.81824392
0.032529593 0.054654088 0.81717771
0.032370936 0.055896327 0.81606352
0.032190684 0.057189249 0.81490469
0.031761255 0.059296664 0.81302279
0.030419329 0.061257772 0.81132066
0.025344012 0.061892197 0.81101149
-0.037313838 0.035352647 0.83825201
-0.037343364 0.035593972 0.83803552
-0.037375014 0.035852619 0.83780342
-0.037408933 0.036129829 0.83755475
-0.037445288 0.036426939 0.83728814
-0.037484251 0.036745369 0.83700246
-0.037526011 0.037086654 0.83669627
-0.037570767 0.03745243 0.83636808
-0.037618734 0.037844442 0.83601636
-0.037670139 0.038264554 0.83563948
-0.037725221 0.038714718 0.83523554
-0.037784237 0.039197002 0.83480287
-0.037847437 0.039713528 0.83433944
-0.037915099 0.040266488 0.83384329
-0.037987486 0.040858079 0.83331251
-0.038064871 0.041490495 0.83274513
-0.038147513 0.042165887 0.83213913
-0.038235664 0.042886306 0.83149278
-0.03832956 0.043653686 0.83080429
-0.03842942 0.044469804 0.83007205
-0.038535442 0.04533625 0.82929468
-0.038647782 0.046254389 0.82847095
-0.038766582 0.047225378 0.82759976
-0.038891926 0.048250109 0.82668036
-0.039023802 0.049329221 0.82571214
-0.039161976 0.050463092 0.82469481
-0.039305456 0.051651727 0.82362831
-0.039450873 0.052894518 0.82251287
-0.039587248 0.054189272 0.8213501
-0.039675299 0.056310959 0.81943756
-0.038824514 0.05836371 0.8175385
-0.033955313 0.059413765 0.81633633
-0.035938572 0.028898764 0.84440792
-0.035909493 0.028661115 0.84462112
-0.035878327 0.028406411 0.84484965
-0.035844926 0.028133424 0.84509462
-0.035809126 0.027840845 0.84535712
-0.035770755 0.027527267 0.84563845
-0.035729632 0.027191183 0.84593999
-0.035685558 0.026830981 0.84626317
-0.035638321 0.02644494 0.84660953
-0.035587698 0.026031232 0.84698069
-0.035533454 0.025587926 0.84737843
-0.03547534 0.025112992 0.84780455
-0.035413101 0.024604337 0.84826094
-0.035346471 0.024059806 0.84874946
-0.035275187 0.023477228 0.84927213
-0.035198983 0.022854447 0.84983093
-0.0351176 0.022189349 0.85042763
-0.035030793 0.021479908 0.85106415
-0.034938324 0.02072422 0.85174215
-0.034839988 0.019920539 0.85246325
-0.034735583 0.0190673 0.85322875
-0.034624945 0.018163148 0.85403997
-0.034507934 0.017206959 0.85489786
-0.034384415 0.016197847 0.85580325
-0.034254227 0.01513519 0.85675663
-0.034117039 0.014018645 0.8577584
-0.033971906 0.012848286 0.85880834
-0.033815663 0.011624978 0.85990554
-0.033638157 0.010351758 0.86104679
-0.033215273 0.0082764542 0.86289996
-0.031893797 0.0063452329 0.86457616
-0.026895821 0.0057204799 0.86488062
0.034807213 0.031855602 0.83805519
0.034836292 0.031617954 0.8382684
0.034867458 0.031363249 0.83849692
0.034900863 0.031090261 0.83874184
0.034936663 0.030797683 0.83900434
0.034975033 0.030484103 0.83928573
0.035016157 0.030148018 0.83958727
0.035060231 0.029787818 0.83991045
0.035107467 0.029401777 0.84025675
0.035158087 0.028988069 0.84062797
0.035212331 0.028544763 0.84102571
0.035270445 0.02806983 0.84145182
0.035332683 0.027561173 0.84190816
0.035399314 0.027016643 0.84239674
0.035470597 0.026434066 0.84291941
0.035546802 0.025811285 0.8434782
0.035628185 0.025146184 0.8440749
0.035714995 0.024436746 0.84471142
0.035807461 0.023681058 0.84538943
0.035905801 0.022877377 0.84611052
0.036010202 0.022024136 0.84687603
0.036120832 0.021119986 0.84768724
0.036237821 0.020163795 0.84854513
0.036361255 0.019154681 0.84945053
0.036491122 0.018092008 0.85040396
0.036627188 0.016975418 0.8514058
0.036768485 0.015804898 0.85245609
0.036911681 0.014581044 0.85355449
0.037045978 0.01330602 0.85469955
0.037132692 0.011216665 0.85658294
0.03629487 0.0091951946 0.85845309
0.031499866 0.0081611415 0.8596369
0.033996917 0.038477778 0.83211374
0.033967838 0.03871543 0.83190054
0.033936672 0.038970131 0.83167201
0.033903267 0.039243121 0.8314271
0.033867467 0.039535698 0.8311646
0.033829097 0.039849278 0.83088326
0.033787973 0.040185362 0.83058172
0.033743899 0.040545564 0.83025855
0.033696663 0.040931605 0.82991219
0.03364604 0.041345313 0.82954097
0.033591799 0.041788619 0.82914323
0.033533685 0.042263553 0.82871711
0.033471446 0.042772207 0.82826078
0.033404816 0.043316737 0.8277722
0.033333529 0.043899316 0.82724953
0.033257328 0.044522095 0.82669073
0.033175945 0.045187194 0.82609403
0.033089135 0.045896634 0.82545751
0.032996669 0.046652324 0.82477951
0.032898329 0.047456004 0.82405847
0.032793928 0.048309244 0.82329291
0.032683291 0.049213395 0.82248169
0.032566279 0.050169583 0.8216238
0.032442756 0.051178697 0.82071841
0.032312568 0.052241355 0.81976503
0.032175384 0.053357899 0.81876326
0.032030247 0.054528259 0.81771332
0.031874008 0.055751566 0.81661612
0.031696498 0.057024784 0.81547493
0.031273618 0.059100088 0.8136217
0.029952141 0.061031312 0.8119455
0.024954164 0.061656065 0.81164104
-0.036748871 0.035520941 0.83846647
-0.036777951 0.035758592 0.83825326
-0.036809117 0.036013294 0.83802474
-0.036842518 0.036286283 0.83777982
-0.036878318 0.03657886 0.83751732
-0.036916688 0.03689244 0.83723599
-0.036957812 0.037228525 0.83693445
-0.037001885 0.037588727 0.83661127
-0.037049122 0.037974767 0.83626491
-0.037099745 0.038388476 0.83589375
-0.037153989 0.038831782 0.83549601
-0.037212104 0.039306715 0.83506989
-0.037274342 0.03981537 0.8346135
-0.037340973 0.040359899 0.83412492
-0.037412256 0.040942479 0.83360225
-0.037488461 0.041565258 0.83304352
-0.037569843 0.04223036 0.83244675
-0.03765665 0.042939797 0.83181024
-0.037749115 0.043695487 0.83113223
-0.037847456 0.044499166 0.8304112
-0.037951861 0.045352407 0.82964563
-0.038062491 0.046256557 0.82883441
-0.03817948 0.04721275 0.82797652
-0.03830291 0.048221864 0.82707113
-0.038432781 0.049284536 0.82611769
-0.038568843 0.050401125 0.82511586
-0.03871014 0.051571645 0.82406557
-0.03885334 0.0527955 0.82296717
-0.038987637 0.054070525 0.82182211
-0.039074346 0.05615988 0.81993872
-0.038236529 0.058181349 0.81806862
-0.033441525 0.0592154 0.81688476
-0.035388473 0.029136738 0.84449428
-0.035359845 0.028902765 0.84470421
-0.035329159 0.028651997 0.84492922
-0.035296276 0.028383233 0.84517038
-0.035261028 0.028095176 0.84542882
-0.035223249 0.027786447 0.84570581
-0.035182763 0.027455559 0.84600264
-0.035139371 0.027100926 0.84632087
-0.035092864 0.026720855 0.84666187
-0.035043024 0.026313543 0.8470273
-0.034989621 0.02587709 0.84741884
-0.034932405 0.025409501 0.8478384
-0.034871127 0.02490871 0.8482877
-0.034805529 0.024372598 0.84876871
-0.034735344 0.02379903 0.84928334
-0.034660321 0.023185877 0.84983343
-0.034580197 0.022531062 0.85042095
-0.034494732 0.021832591 0.85104764
-0.034403693 0.021088587 0.85171515
-0.034306873 0.020297332 0.85242504
-0.034204084 0.019457284 0.85317874
-0.034095157 0.018567113 0.85397744
-0.033979956 0.017625708 0.85482204
-0.033858348 0.016632199 0.85571343
-0.033730172 0.015585971 0.85665208
-0.033595111 0.01448669 0.85763836
-0.033452213 0.013334427 0.85867208
-0.033298392 0.012130033 0.8597523
-0.033123627 0.0108765 0.8608759
-0.032707281 0.0088332836 0.8627004
-0.031406239 0.0069319219 0.86435074
-0.02648554 0.0063168262 0.86465049
0.034263466 0.032047857 0.83823979
0.034292094 0.031813886 0.83844972
0.03432278 0.031563118 0.83867472
0.034355666 0.031294353 0.83891582
0.034390911 0.031006295 0.83917427
0.03442869 0.030697566 0.83945125
0.034469176 0.030366678 0.83974814
0.034512568 0.030012045 0.84006631
0.034559075 0.029631974 0.84040731
0.034608915 0.029224664 0.84077275
0.034662321 0.028788211 0.84116435
0.034719534 0.028320622 0.84158391
0.034780812 0.027819829 0.84203321
0.03484641 0.027283719 0.84251422
0.034916595 0.026710149 0.84302878
0.034991618 0.026096996 0.84357893
0.035071746 0.025442181 0.84416646
0.035157211 0.02474371 0.84479308
0.035248246 0.023999706 0.84546065
0.035345066 0.023208451 0.84617054
0.035447855 0.022368405 0.84692425
0.035556775 0.021478232 0.84772289
0.035671953 0.020536827 0.84856755
0.03579348 0.019543314 0.84945893
0.035921339 0.018497074 0.85039765
0.036055304 0.017397746 0.85138398
0.03619441 0.016245324 0.85241801
0.036335398 0.015040394 0.85349941
0.036467619 0.013785083 0.85462683
0.036552984 0.011728032 0.85648108
0.035728123 0.0097378185 0.85832226
0.031007258 0.0087197516 0.85948783
0.033465695 0.038567647 0.83239019
0.033437066 0.038801622 0.83218026
0.033406384 0.03905239 0.83195531
0.033373497 0.039321154 0.83171415
0.033338249 0.039609209 0.83145571
0.033300474 0.039917938 0.83117872
0.033259984 0.040248826 0.83088183
0.033216592 0.040603459 0.83056366
0.033170085 0.040983532 0.83022267
0.033120248 0.041390844 0.82985723
0.033066843 0.041827295 0.82946563
0.033009626 0.042294886 0.82904613
0.032948349 0.042795677 0.82859683
0.03288275 0.043331787 0.82811582
0.032812569 0.043905355 0.82760119
0.032737542 0.044518508 0.82705104
0.032657418 0.045173325 0.82646358
0.032571953 0.045871794 0.8258369
0.032480914 0.046615798 0.82516938
0.032384098 0.047407053 0.82445943
0.032281306 0.048247103 0.82370573
0.032172382 0.049137272 0.82290709
0.032057177 0.050078679 0.82206243
0.031935569 0.051072188 0.8211711
0.031807393 0.052118413 0.82023239
0.031672332 0.053217694 0.81924617
0.031529434 0.05436996 0.81821245
0.031375613 0.055574354 0.81713217
0.03120085 0.056827884 0.81600863
0.030784503 0.058871102 0.81418413
0.029483462 0.060772464 0.8125338
0.024562761 0.061387561 0.81223404
-0.036186244 0.035656527 0.83864474
-0.036214873 0.035890501 0.83843482
-0.036245558 0.036141269 0.83820981
-0.036278442 0.036410034 0.83796865
-0.03631369 0.036698088 0.8377102
-0.036351468 0.037006821 0.83743322
-0.036391955 0.037337709 0.83713633
-0.036435347 0.037692342 0.83681816
-0.036481854 0.038072411 0.83647716
-0.036531694 0.038479723 0.83611172
-0.036585096 0.038916174 0.83572012
-0.036642313 0.039383765 0.83530062
-0.03670359 0.039884556 0.83485132
-0.036769189 0.040420666 0.83437032
-0.036839373 0.040994238 0.83385569
-0.036914397 0.041607387 0.8333056
-0.036994521 0.042262204 0.83271807
-0.037079986 0.042960677 0.83209139
-0.037171025 0.043704681 0.83142388
-0.037267845 0.044495936 0.83071399
-0.037370633 0.045335982 0.82996029
-0.037479553 0.046226155 0.82916158
-0.037594732 0.047167558 0.82831699
-0.037716258 0.048161071 0.8274256
-0.037844118 0.049207311 0.82648689
-0.037978083 0.050306641 0.82550055
-0.038117189 0.051459063 0.82446647
-0.038258176 0.052663993 0.82338506
-0.038390398 0.053919304 0.8222577
-0.038475763 0.055976354 0.82040346
-0.037650898 0.057966568 0.81856221
-0.032930035 0.058984634 0.8173967
-0.034840237 0.029347733 0.84455091
-0.034812059 0.029117431 0.84475756
-0.034781855 0.028870599 0.84497899
-0.034749486 0.028606053 0.84521633
-0.034714792 0.028322518 0.84547073
-0.03467761 0.028018633 0.84574336
-0.034637757 0.027692938 0.8460356
-0.034595042 0.027343873 0.84634876
-0.03454927 0.026969766 0.84668446
-0.034500211 0.026568849 0.84704417
-0.034447644 0.026139246 0.84742957
-0.034391329 0.025678996 0.84784251
-0.034331013 0.025186064 0.84828478
-0.034266442 0.024658367 0.84875822
-0.03419736 0.024093801 0.84926474
-0.034123514 0.023490272 0.84980625
-0.034044646 0.022845734 0.85038453
-0.033960521 0.022158226 0.85100138
-0.033870913 0.021425899 0.8516584
-0.033775613 0.020647064 0.85235721
-0.033674438 0.0198202 0.85309905
-0.033567224 0.018944003 0.85388517
-0.033453826 0.018017372 0.85471654
-0.033334129 0.017039457 0.85559392
-0.033207964 0.016009651 0.85651791
-0.03307502 0.014927624 0.85748863
-0.032934368 0.013793445 0.85850614
-0.032782961 0.012607954 0.85956943
-0.032610942 0.011374096 0.86067539
-0.032201126 0.0093629491 0.86247128
-0.030920506 0.0074914312 0.86409569
-0.02607704 0.0068859882 0.86439073
0.033718485 0.032213163 0.83839458
0.033746663 0.031982858 0.83860117
0.033776868 0.031736027 0.83882266
0.033809237 0.03147148 0.83906001
0.033843931 0.031187946 0.8393144
0.033881113 0.030884063 0.83958703
0.033920966 0.030558368 0.83987927
0.03396368 0.030209301 0.84019244
0.034009457 0.029835194 0.84052807
0.034058511 0.029434277 0.84088778
0.034111079 0.029004674 0.84127325
0.034167394 0.028544424 0.84168619
0.03422771 0.028051492 0.84212846
0.034292281 0.027523795 0.8426019
0.034361362 0.026959229 0.84310842
0.034435209 0.026355701 0.84364992
0.034514077 0.025711162 0.84422821
0.034598202 0.025023654 0.844845
0.03468781 0.024291327 0.84550208
0.03478311 0.023512492 0.84620082
0.034884285 0.022685628 0.84694272
0.034991495 0.021809431 0.84772885
0.035104867 0.020882798 0.84856021
0.035224486 0.01990488 0.84943759
0.035350338 0.018875062 0.85036159
0.035482198 0.017792989 0.85133243
0.035619121 0.016658654 0.85235029
0.035757896 0.015472637 0.85341471
0.035888046 0.014237028 0.85452437
0.035972066 0.012212263 0.85634953
0.03516015 0.010253288 0.85816187
0.030513385 0.0092511987 0.85930908
0.032933235 0.03863062 0.83263677
0.032905057 0.038860921 0.83243018
0.032874852 0.039107751 0.83220869
0.032842483 0.039372299 0.83197135
0.03280779 0.039655834 0.83171695
0.032770608 0.039959718 0.83144432
0.032730754 0.040285412 0.83115208
0.03268804 0.040634479 0.83083892
0.032642268 0.041008584 0.83050328
0.032593209 0.041409504 0.83014357
0.032540642 0.041839104 0.82975811
0.032484327 0.042299356 0.82934517
0.03242401 0.042792287 0.82890296
0.03235944 0.043319985 0.82842946
0.032290358 0.043884549 0.82792294
0.032216512 0.04448808 0.82738143
0.032137644 0.045132618 0.82680315
0.032053519 0.045820124 0.82618636
0.031963911 0.046552453 0.82552928
0.031868614 0.047331288 0.82483053
0.031767435 0.04815815 0.82408863
0.031660222 0.04903435 0.82330251
0.031546824 0.049960978 0.82247114
0.031427126 0.050938893 0.82159376
0.031300962 0.051968701 0.82066983
0.031168019 0.053050727 0.81969905
0.031027365 0.054184906 0.81868154
0.030875959 0.055370398 0.81761825
0.030703939 0.056604255 0.81651235
0.030294124 0.058615401 0.81471646
0.029013503 0.06048692 0.81309205
0.024170037 0.061092362 0.81279701
-0.035625488 0.03576519 0.83879316
-0.035653666 0.035995491 0.83858651
-0.03568387 0.036242325 0.83836508
-0.035716239 0.036506869 0.83812773
-0.035750933 0.036790404 0.83787334
-0.035788115 0.037094288 0.83760065
-0.035827968 0.037419982 0.83730847
-0.035870682 0.037769049 0.83699524
-0.035916459 0.038143154 0.83665961
-0.035965513 0.038544074 0.8362999
-0.036018081 0.038973678 0.83591449
-0.036074396 0.039433926 0.83550155
-0.036134712 0.03992686 0.83505929
-0.036199283 0.040454555 0.83458585
-0.036268365 0.041019123 0.83407927
-0.036342211 0.04162265 0.83353782
-0.036421079 0.042267188 0.83295953
-0.036505204 0.042954698 0.83234268
-0.036594812 0.043687023 0.83168566
-0.036690112 0.044465858 0.83098686
-0.036791287 0.045292724 0.83024502
-0.036898497 0.04616892 0.82945889
-0.037011869 0.047095552 0.82862747
-0.037131485 0.048073471 0.82775009
-0.03725734 0.04910329 0.82682616
-0.0373892 0.050185364 0.82585526
-0.037526123 0.051319696 0.82483745
-0.037664898 0.052505717 0.82377303
-0.037795044 0.053741325 0.82266331
-0.037879068 0.055766087 0.82083815
-0.037067153 0.057725064 0.81902587
-0.032420386 0.058727153 0.8178786
-0.034293488 0.029536368 0.84458286
-0.034265757 0.029309737 0.84478617
-0.034236036 0.02906684 0.84500408
-0.034204181 0.028806509 0.84523767
-0.034170039 0.028527495 0.84548801
-0.034133449 0.028228454 0.84575629
-0.034094233 0.027907953 0.84604388
-0.034052201 0.027564449 0.84635204
-0.034007154 0.027196307 0.84668237
-0.033958878 0.026801778 0.8470363
-0.033907149 0.026379025 0.84741563
-0.033851732 0.025926109 0.84782201
-0.033792377 0.025441036 0.84825718
-0.033728838 0.024921751 0.84872311
-0.033660855 0.024366183 0.84922159
-0.033588186 0.023772275 0.84975439
-0.033510577 0.023138011 0.8503235
-0.033427794 0.022461461 0.85093051
-0.033339612 0.021740809 0.85157704
-0.033245832 0.020974386 0.8522647
-0.03314627 0.020160705 0.85299474
-0.033040762 0.019298472 0.85376835
-0.032929175 0.018386612 0.85458648
-0.032811381 0.017424284 0.85544986
-0.032687228 0.016410893 0.85635906
-0.032556403 0.015346113 0.85731435
-0.032417998 0.014230013 0.85831565
-0.032268997 0.013063421 0.85936201
-0.032099724 0.011849228 0.86045027
-0.031696443 0.009870139 0.86221755
-0.030436235 0.0080284514 0.86381608
-0.025669971 0.0074326633 0.86410642
0.033172421 0.032356121 0.83852464
0.033200152 0.032129493 0.83872795
0.033229873 0.031886596 0.83894587
0.033261728 0.031626265 0.83917946
0.033295866 0.031347249 0.8394298
0.03333246 0.031048208 0.83969808
0.033371676 0.030727705 0.83998567
0.033413708 0.030384203 0.84029382
0.033458754 0.030016061 0.84062415
0.033507027 0.029621532 0.84097815
0.033558756 0.029198777 0.84135741
0.033614177 0.028745864 0.84176379
0.033673529 0.02826079 0.84219897
0.033737071 0.027741505 0.8426649
0.03380505 0.027185937 0.84316337
0.033877723 0.026592029 0.84369618
0.033955332 0.025957765 0.84426528
0.034038115 0.025281215 0.8448723
0.034126293 0.024560561 0.84551883
0.034220073 0.023794141 0.84620649
0.034319639 0.022980457 0.84693652
0.034425139 0.022118224 0.84771013
0.034536704 0.021206364 0.84852827
0.034654412 0.020244034 0.84939164
0.034778263 0.019230628 0.85030091
0.034908019 0.018165804 0.85125631
0.035042763 0.017049551 0.85225791
0.035179321 0.01588244 0.85330534
0.035307396 0.014666526 0.85439736
0.035390083 0.012674036 0.85619342
0.034591109 0.010746285 0.85797685
0.030018408 0.009760173 0.85910577
0.032399688 0.038671285 0.83285862
0.032371957 0.038897917 0.83265531
0.032342236 0.039140813 0.8324374
0.032310382 0.039401144 0.83220381
0.032276243 0.039680161 0.83195347
0.032239653 0.039979201 0.83168519
0.032200433 0.040299702 0.83139759
0.032158405 0.040643204 0.83108944
0.032113355 0.041011348 0.83075911
0.032065082 0.041405875 0.83040518
0.032013353 0.041828629 0.83002585
0.031957932 0.042281546 0.82961953
0.03189858 0.042766619 0.82918429
0.031835038 0.043285903 0.82871836
0.031767059 0.04384147 0.82821995
0.031694386 0.044435378 0.82768708
0.031616777 0.045069642 0.82711798
0.031533994 0.045746192 0.82651103
0.031445816 0.046466846 0.82586443
0.031352036 0.047233269 0.82517678
0.031252474 0.04804695 0.82444674
0.031146964 0.048909184 0.82367313
0.031035377 0.049821042 0.82285506
0.030917585 0.05078337 0.82199162
0.030793432 0.05179676 0.82108241
0.030662607 0.052861542 0.82012713
0.0305242 0.053977642 0.81912583
0.030375201 0.055144232 0.81807947
0.030205926 0.056358427 0.81699121
0.029802645 0.058337517 0.81522393
0.028542437 0.060179204 0.8136254
0.023776174 0.060774989 0.81333506
-0.035066217 0.035851531 0.83891684
-0.035093948 0.036078162 0.83871353
-0.035123669 0.036321059 0.83849561
-0.035155524 0.03658139 0.83826202
-0.035189666 0.036860406 0.83801168
-0.035226256 0.037159447 0.8377434
-0.035265472 0.037479948 0.83745581
-0.035307504 0.03782345 0.83714765
-0.03535255 0.038191594 0.83681732
-0.035400826 0.038586121 0.83646339
-0.035452556 0.039008878 0.83608407
-0.035507973 0.039461792 0.83567774
-0.035567328 0.039946865 0.83524251
-0.035630867 0.040466148 0.83477658
-0.03569885 0.041021716 0.83427817
-0.035771519 0.041615624 0.8337453
-0.035849128 0.042249888 0.8331762
-0.035931911 0.042926438 0.83256924
-0.036020093 0.043647092 0.83192265
-0.036113873 0.044413514 0.83123499
-0.036213435 0.045227196 0.83050495
-0.036318935 0.046089429 0.82973135
-0.0364305 0.047001291 0.82891327
-0.036548212 0.047963619 0.82804984
-0.036672059 0.048977025 0.82714057
-0.036801815 0.050041851 0.82618523
-0.036936563 0.0511581 0.82518357
-0.03707312 0.052325215 0.82413614
-0.037201192 0.053541128 0.82304412
-0.037283879 0.055533618 0.82124805
-0.036484905 0.05746137 0.81946462
-0.031912204 0.05844748 0.81833571
-0.033747911 0.029706372 0.84459418
-0.033720627 0.029483411 0.84479421
-0.033691388 0.029244449 0.84500861
-0.03366005 0.028988333 0.84523845
-0.033626463 0.028713837 0.84548467
-0.033590462 0.02841964 0.84574866
-0.033551883 0.028104328 0.84603155
-0.033510532 0.027766388 0.84633476
-0.033466212 0.027404208 0.84665972
-0.033418722 0.02701607 0.84700793
-0.033367831 0.026600162 0.84738111
-0.033313308 0.026154581 0.84778088
-0.033254914 0.025677364 0.84820902
-0.033192404 0.025166487 0.84866738
-0.033125523 0.024619918 0.84915775
-0.033054031 0.024035629 0.84968203
-0.032977678 0.023411635 0.85024184
-0.032896236 0.022746043 0.85083902
-0.032809485 0.022037061 0.85147512
-0.03271722 0.021283051 0.85215163
-0.032619271 0.020482546 0.85286987
-0.032515474 0.019634278 0.8536309
-0.032405693 0.018737186 0.8544358
-0.032289807 0.017790444 0.85528523
-0.032167666 0.016793463 0.85617971
-0.032038961 0.015745927 0.8571195
-0.03190279 0.014647903 0.85810459
-0.031756211 0.013500203 0.85913396
-0.031589672 0.012305676 0.86020464
-0.031192925 0.010358638 0.8619433
-0.029953124 0.0085467752 0.86351591
-0.025264051 0.0079606343 0.8638016
0.032625388 0.03248046 0.83863407
0.032652669 0.032257501 0.83883411
0.032681908 0.032018535 0.8390485
0.032713249 0.031762421 0.83927834
0.032746837 0.031487927 0.83952457
0.032782834 0.031193728 0.83978856
0.032821417 0.030878415 0.84007144
0.032862768 0.030540476 0.84037465
0.032907084 0.030178295 0.84069961
0.032954577 0.029790157 0.84104782
0.033005469 0.029374249 0.84142101
0.033059988 0.028928669 0.84182078
0.033118382 0.028451452 0.84224892
0.033180896 0.027940575 0.84270728
0.033247773 0.027394006 0.8431977
0.033319268 0.026809717 0.84372193
0.033395622 0.026185723 0.84428173
0.033477064 0.025520131 0.84487891
0.033563815 0.024811149 0.84551501
0.033656076 0.024057139 0.84619153
0.033754028 0.023256635 0.84690976
0.033857819 0.022408366 0.84767079
0.033967577 0.021511272 0.84847569
0.034083381 0.020564526 0.84932512
0.034205224 0.019567534 0.85021961
0.034332879 0.018519955 0.85115957
0.03446544 0.017421778 0.85214496
0.034599788 0.016273569 0.85317546
0.034725785 0.015077346 0.85424978
0.034807138 0.013117126 0.8560167
0.034021098 0.011220594 0.85777128
0.029522454 0.010250449 0.85888195
0.031865172 0.03869335 0.83305985
0.031837892 0.038916308 0.83285981
0.031808652 0.039155275 0.83264542
0.031777311 0.039411388 0.83241564
0.031743724 0.039685883 0.83216935
0.031707726 0.03998008 0.83190542
0.031669144 0.040295392 0.83162248
0.031627793 0.040633332 0.83131927
0.031583477 0.040995512 0.83099437
0.031535983 0.04138365 0.8306461
0.031485092 0.04179956 0.83027297
0.031430572 0.042245138 0.8298732
0.031372178 0.042722359 0.829445
0.031309668 0.043233234 0.82898664
0.031242788 0.043779805 0.82849628
0.031171294 0.044364095 0.82797205
0.03109494 0.044988085 0.82741219
0.031013498 0.045653678 0.82681501
0.030926745 0.046362661 0.82617891
0.030834485 0.047116671 0.8255024
0.030736534 0.047917176 0.82478422
0.030632734 0.048765443 0.82402313
0.030522954 0.049662538 0.82321829
0.030407069 0.050609279 0.82236886
0.030284928 0.051606257 0.82147437
0.030156221 0.052653793 0.82053453
0.030020051 0.053751819 0.81954944
0.029873474 0.054899517 0.81852007
0.029706934 0.056094047 0.81744939
0.029310187 0.058041085 0.81571072
0.028070386 0.059852947 0.81413811
0.023381313 0.060439087 0.81385249
-0.034508128 0.03591926 0.83901995
-0.034535408 0.036142223 0.83881992
-0.034564648 0.036381185 0.83860552
-0.034595985 0.036637299 0.83837575
-0.034629576 0.036911797 0.83812946
-0.034665573 0.037205994 0.83786547
-0.034704156 0.037521306 0.83758259
-0.034745507 0.037859246 0.83727938
-0.034789823 0.038221426 0.83695447
-0.034837317 0.038609564 0.8366062
-0.034888204 0.039025471 0.83623308
-0.034942728 0.039471053 0.83583325
-0.035001121 0.03994827 0.83540511
-0.035063632 0.040459145 0.83494675
-0.035130512 0.041005716 0.83445638
-0.035202004 0.041590005 0.83393216
-0.035278358 0.042213999 0.83337229
-0.0353598 0.042879589 0.83277512
-0.035446551 0.043588571 0.83213902
-0.035538815 0.044342581 0.8314625
-0.035636764 0.045143086 0.83074433
-0.035740554 0.045991357 0.82998323
-0.035850313 0.046888448 0.82917833
-0.035966117 0.047835194 0.82832891
-0.036087964 0.048832186 0.82743442
-0.036215615 0.049879767 0.82649451
-0.036348175 0.050977942 0.82550913
-0.036482528 0.052126154 0.82447863
-0.036608525 0.053322375 0.82340431
-0.036689874 0.055282596 0.82163733
-0.035903838 0.057179127 0.81988281
-0.031405192 0.058149271 0.81877214
-0.033203255 0.029860783 0.84458828
-0.033176422 0.029641492 0.84478503
-0.033147667 0.029406464 0.84499592
-0.033116844 0.029154565 0.84522194
-0.033083808 0.028884588 0.84546411
-0.033048403 0.028595233 0.84572375
-0.033010453 0.02828511 0.84600198
-0.032969784 0.027952733 0.84630018
-0.032926198 0.027596515 0.84661978
-0.032879487 0.027214766 0.84696233
-0.032829434 0.026805703 0.84732932
-0.032775808 0.026367459 0.84772253
-0.032718375 0.025898095 0.84814364
-0.032656893 0.02539563 0.84859443
-0.032591116 0.024858057 0.84907675
-0.032520797 0.024283385 0.84959233
-0.032445703 0.023669664 0.85014302
-0.032365602 0.023015028 0.85073036
-0.032280277 0.022317715 0.85135597
-0.032189533 0.021576118 0.85202134
-0.032093197 0.020788791 0.85272771
-0.031991106 0.019954484 0.85347629
-0.031883132 0.019072158 0.8542679
-0.031769153 0.018141001 0.85510331
-0.031649023 0.017160432 0.85598308
-0.031522438 0.016130138 0.85690743
-0.03138851 0.01505019 0.8578763
-0.031244339 0.013921381 0.85888875
-0.031080548 0.012746517 0.85994178
-0.030690325 0.010831527 0.86165184
-0.029470935 0.009049491 0.86319858
-0.02485905 0.0084729996 0.8634795
0.032077488 0.032589208 0.83872628
0.032104317 0.032369919 0.83892304
0.032133076 0.032134887 0.83913392
0.032163899 0.03188299 0.83935994
0.032196935 0.031613011 0.83960217
0.03223234 0.031323656 0.83986175
0.032270286 0.031013535 0.84013999
0.032310959 0.030681157 0.84043819
0.032354545 0.03032494 0.84075779
0.032401256 0.029943191 0.84110034
0.032451309 0.029534128 0.84146732
0.032504935 0.029095883 0.84186053
0.032562364 0.02862652 0.84228164
0.032623846 0.028124055 0.84273243
0.032689627 0.027586481 0.84321475
0.032759942 0.027011808 0.84373039
0.03283504 0.026398089 0.84428102
0.032915141 0.025743451 0.84486836
0.033000465 0.02504614 0.84549397
0.033091206 0.024304543 0.84615934
0.033187546 0.023517214 0.84686571
0.03328963 0.022682907 0.84761429
0.033397581 0.021800581 0.8484059
0.033511478 0.020869421 0.84924132
0.033631317 0.019888841 0.85012114
0.033756871 0.018858504 0.85104561
0.033887248 0.017778406 0.85201472
0.034019385 0.016649093 0.8530283
0.034143314 0.015472564 0.85408491
0.034223318 0.013544609 0.8558228
0.03345022 0.011679296 0.85754848
0.029025629 0.010725123 0.85864085
0.031329785 0.038699828 0.83324385
0.031302951 0.038919121 0.83304709
0.031274192 0.03915415 0.83283621
0.031243369 0.039406046 0.83261019
0.031210335 0.039676026 0.83236796
0.031174928 0.03996538 0.83210838
0.031136982 0.040275503 0.83183014
0.031096311 0.040607881 0.83153188
0.031052725 0.040964097 0.83121228
0.031006014 0.041345846 0.83086979
0.030955959 0.041754909 0.83050281
0.030902335 0.042193152 0.8301096
0.030844904 0.042662516 0.82968849
0.030783422 0.043164983 0.82923764
0.030717643 0.043702554 0.82875538
0.030647326 0.044277228 0.82823974
0.03057223 0.044890948 0.82768911
0.030492129 0.045545585 0.82710177
0.030406805 0.046242896 0.82647616
0.030316062 0.046984494 0.82581079
0.030219723 0.047771823 0.82510442
0.030117633 0.048606128 0.82435584
0.030009659 0.049488455 0.82356423
0.02989568 0.05041961 0.82272881
0.029775552 0.051400181 0.82184905
0.029648965 0.052430473 0.82092464
0.029515037 0.053510424 0.81995583
0.029370867 0.054639231 0.81894338
0.029207075 0.055814095 0.81789029
0.028816853 0.057729084 0.81618029
0.027597461 0.059511121 0.81463355
0.022985578 0.060087614 0.81435263
-0.033950958 0.035971403 0.83910578
-0.033977792 0.036190696 0.83890909
-0.034006551 0.036425725 0.83869821
-0.034037374 0.036677621 0.83847219
-0.034070406 0.036947601 0.83822995
-0.034105811 0.037236955 0.83797038
-0.034143761 0.037547078 0.83769214
-0.03418443 0.037879456 0.83739388
-0.034228016 0.038235672 0.83707428
-0.034274727 0.038617421 0.83673179
-0.034324784 0.039026484 0.83636481
-0.034378406 0.039464731 0.83597159
-0.034435838 0.039934091 0.83555049
-0.034497321 0.040436558 0.83509964
-0.034563098 0.040974133 0.83461738
-0.034633417 0.041548803 0.83410174
-0.034708511 0.042162526 0.83355111
-0.034788612 0.04281716 0.83296376
-0.034873936 0.043514472 0.83233815
-0.034964681 0.044256072 0.83167279
-0.03506102 0.045043398 0.83096641
-0.035163101 0.045877706 0.83021784
-0.035271052 0.04676003 0.82942623
-0.035384949 0.047691192 0.82859075
-0.035504788 0.048671775 0.82771099
-0.035630345 0.049702108 0.82678652
-0.035760723 0.050782207 0.82581735
-0.035892859 0.051911518 0.82480383
-0.036016785 0.05308805 0.82374722
-0.036096793 0.055016004 0.82200933
-0.035323694 0.056881316 0.82028365
-0.030899102 0.05783549 0.81919128
-0.032659315 0.030002113 0.84456789
-0.032632932 0.029786494 0.84476137
-0.032604653 0.029555399 0.84496868
