# .PCD v0.7 - Point Cloud Data file format
VERSION 0.7
FIELDS x y z rgba
SIZE 4 4 4 4
TYPE F F F U
COUNT 1 1 1 1
WIDTH 990
HEIGHT 1
VIEWPOINT 0 0 0 1 0 0 0
POINTS 990
DATA ascii
-0.024797373 -0.0082657905 0.73000002 4284486166
-0.023557939 -0.0082771135 0.73100001 4284420373
-0.022193084 -0.0082431454 0.72800004 4284746773
-0.020896163 -0.0082318224 0.72700006 4284812567
-0.01962973 -0.0082318224 0.72700006 4285603088
-0.018363295 -0.0082318224 0.72700006 4286129432
-0.017049827 -0.0082091754 0.72500002 4285736986
-0.015786877 -0.0082091754 0.72500002 4286789675
-0.014523927 -0.0082091754 0.72500002 4286463270
-0.013260976 -0.0082091754 0.72500002 4286331683
-0.011998027 -0.0082091754 0.72500002 4286135315
-0.010720269 -0.0081978533 0.72400004 4286529817
-0.0094590615 -0.0081978533 0.72400004 4286399236
-0.0081978533 -0.0081978533 0.72400004 4286859787
-0.0069462257 -0.0082091754 0.72500002 4286134057
-0.0056754365 -0.0081978533 0.72400004 4286397229
-0.0044142287 -0.0081978533 0.72400004 4285938765
-0.0031443106 -0.0081752073 0.72200006 4285807436
-0.0018865862 -0.0081752073 0.72200006 4285675568
-0.00062886212 -0.0081752073 0.72200006 4285280810
0.00062886212 -0.0081752073 0.72200006 4286069348
0.0018865862 -0.0081752073 0.72200006 4285806432
0.0031443106 -0.0081752073 0.72200006 4285344023
0.0043959371 -0.0081638834 0.72100002 4283830784
0.0056519196 -0.0081638834 0.72100002 4284483099
0.0069079017 -0.0081638834 0.72100002 4284548892
0.0081638834 -0.0081638834 0.72100002 4284221965
0.0094198659 -0.0081638834 0.72100002 4284353294
0.010675848 -0.0081638834 0.72100002 4284287517
0.01193183 -0.0081638834 0.72100002 4284287517
0.013187813 -0.0081638834 0.72100002 4284287517
0.014443794 -0.0081638834 0.72100002 4283826966
0.015699776 -0.0081638834 0.72100002 4283564044
0.016908726 -0.0081412373 0.71900004 4286260789
0.018161224 -0.0081412373 0.71900004 4286009928
0.019413721 -0.0081412373 0.71900004 4287391581
0.020666219 -0.0081412373 0.71900004 4286932077
0.021918718 -0.0081412373 0.71900004 4286603112
0.024491651 -0.0081638834 0.72100002 4288051321
0.025747633 -0.0081638834 0.72100002 4287067258
0.027003614 -0.0081638834 0.72100002 4285290847
0.028259596 -0.0081638834 0.72100002 4282795340
0.029515579 -0.0081638834 0.72100002 4281545273
0.030771563 -0.0081638834 0.72100002 4280762962
0.032027543 -0.0081638834 0.72100002 4279381309
0.0331912 -0.0081412373 0.71900004 4279052876
0.034443699 -0.0081412373 0.71900004 4285368747
0.035696197 -0.0081412373 0.71900004 4288385705
0.036794525 -0.0081072692 0.71600002 4291083475
0.0380418 -0.0081072692 0.71600002 4291344835
-0.049495451 -0.0070707784 0.73800004 4278847281
-0.048209853 -0.0070707784 0.73800004 4280757808
-0.046797093 -0.0070516169 0.73600006 4283784030
-0.045514982 -0.0070516169 0.73600006 4284310137
-0.044172768 -0.0070420355 0.73500001 4284113015
-0.0428924 -0.0070420355 0.73500001 4283128178
-0.041612029 -0.0070420355 0.73500001 4282009697
-0.040331658 -0.0070420355 0.73500001 4281420892
-0.039051287 -0.0070420355 0.73500001 4281815650
-0.03777092 -0.0070420355 0.73500001 4282337882
-0.036490548 -0.0070420355 0.73500001 4281482574
-0.03511437 -0.007022874 0.73300004 4282855502
-0.033745155 -0.0070037115 0.73100001 4282460745
-0.032471754 -0.0070037115 0.73100001 4284093216
-0.031198351 -0.0070037115 0.73100001 4284290851
-0.029924948 -0.0070037115 0.73100001 4284486420
-0.028651547 -0.0070037115 0.73100001 4284486420
-0.027340693 -0.006994131 0.73000002 4284420371
-0.026069032 -0.006994131 0.73000002 4284486420
-0.024797373 -0.006994131 0.73000002 4284485666
-0.023557939 -0.0070037115 0.73100001 4284485666
-0.022254052 -0.006994131 0.73000002 4284615198
-0.020982392 -0.006994131 0.73000002 4284483869
-0.019710733 -0.006994131 0.73000002 4284615698
-0.018439071 -0.006994131 0.73000002 4284813334
-0.017120378 -0.0069749686 0.72800004 4284749072
-0.015852202 -0.0069749686 0.72800004 4285209623
-0.014563993 -0.0069653881 0.72700006 4285209371
-0.013297559 -0.0069653881 0.72700006 4285341213
-0.012031124 -0.0069653881 0.72700006 4285277717
-0.010764691 -0.0069653881 0.72700006 4285804061
-0.0094982563 -0.0069653881 0.72700006 4286066197
-0.0082318224 -0.0069653881 0.72700006 4286395419
-0.0069653881 -0.0069653881 0.72700006 4286001958
-0.0056832754 -0.0069462257 0.72500002 4286001958
-0.0044203256 -0.0069462257 0.72500002 4285610295
-0.0031530203 -0.0069366447 0.72400004 4285807418
-0.0018918123 -0.0069366447 0.72400004 4285479216
-0.00063060404 -0.0069366447 0.72400004 4285150507
0.00063060404 -0.0069366447 0.72400004 4285741652
0.0018918123 -0.0069366447 0.72400004 4285412687
0.0031530203 -0.0069366447 0.72400004 4285540664
0.0044142287 -0.0069366447 0.72400004 4283830302
0.0056754365 -0.0069366447 0.72400004 4284483597
0.0069366447 -0.0069366447 0.72400004 4284615439
0.0081752073 -0.0069174832 0.72200006 4284288271
0.0094329314 -0.0069174832 0.72200006 4284419857
0.010690656 -0.0069174832 0.72200006 4284223761
0.01193183 -0.0069079017 0.72100002 4284223761
0.013187813 -0.0069079017 0.72100002 4284419360
0.014443794 -0.0069079017 0.72100002 4284024345
0.015699776 -0.0069079017 0.72100002 4283304208
0.016979277 -0.0069174832 0.72200006 4285540914
0.018237 -0.0069174832 0.72200006 4285614918
0.019548725 -0.0069366447 0.72400004 4287457122
0.020809935 -0.0069366447 0.72400004 4286932077
0.022071144 -0.0069366447 0.72400004 4286997870
0.023332352 -0.0069366447 0.72400004 4287459450
0.024525622 -0.0069174832 0.72200006 4287854208
0.025783347 -0.0069174832 0.72200006 4286281338
0.02704107 -0.0069174832 0.72200006 4283254603
0.028298793 -0.0069174832 0.72200006 4280632132
0.029556518 -0.0069174832 0.72200006 4280302910
0.030771563 -0.0069079017 0.72100002 4280370000
0.032027543 -0.0069079017 0.72100002 4279119934
0.033283528 -0.0069079017 0.72100002 4278987334
0.03453951 -0.0069079017 0.72100002 4285434792
0.035696197 -0.0068887398 0.71900004 4288254889
0.036948696 -0.0068887398 0.71900004 4291083989
0.038201194 -0.0068887398 0.71900004 4291213762
-0.04692426 -0.0057851826 0.73800004 4284705415
-0.045514982 -0.0057695047 0.73600006 4286411902
-0.044232871 -0.0057695047 0.73600006 4287596433
-0.042950757 -0.0057695047 0.73600006 4286807916
-0.041668646 -0.0057695047 0.73600006 4284636747
-0.040386535 -0.0057695047 0.73600006 4283719018
-0.039104421 -0.0057695047 0.73600006 4283258467
-0.03782231 -0.0057695047 0.73600006 4281552482
-0.036540199 -0.0057695047 0.73600006 4281552482
-0.035210177 -0.0057616658 0.73500001 4282397293
-0.03392981 -0.0057616658 0.73500001 4281476191
-0.032560598 -0.0057459874 0.73300004 4283306503
-0.031283714 -0.0057459874 0.73300004 4283833103
-0.030006822 -0.0057459874 0.73300004 4284485664
-0.028651547 -0.0057303095 0.73100001 4284485664
-0.027378146 -0.0057303095 0.73100001 4284485666
-0.026104743 -0.0057303095 0.73100001 4284485666
-0.024831342 -0.0057303095 0.73100001 4284485414
-0.023622394 -0.0057459874 0.73300004 4284485414
-0.022284538 -0.0057303095 0.73100001 4284550176
-0.021011135 -0.0057303095 0.73100001 4284615969
-0.019737732 -0.0057303095 0.73100001 4284615969
-0.018439071 -0.0057224706 0.73000002 4284813091
-0.017167412 -0.0057224706 0.73000002 4284813091
-0.01589575 -0.0057224706 0.73000002 4284944933
-0.014624092 -0.0057224706 0.73000002 4285075749
-0.01331585 -0.0057067927 0.72800004 4285273129
-0.012047674 -0.0057067927 0.72800004 4285408020
-0.010764691 -0.0056989538 0.72700006 4285605398
-0.0094982563 -0.0056989538 0.72700006 4285670928
-0.0082318224 -0.0056989538 0.72700006 4285670928
-0.0069653881 -0.0056989538 0.72700006 4285736723
-0.0056989538 -0.0056989538 0.72700006 4285736723
-0.0044325194 -0.0056989538 0.72700006 4285738770
-0.0031660853 -0.0056989538 0.72700006 4286067734
-0.0018944253 -0.0056832754 0.72500002 4285542912
-0.00063147506 -0.0056832754 0.72500002 4283634944
0.00063147506 -0.0056832754 0.72500002 4284221965
0.0018944253 -0.0056832754 0.72500002 4284156172
0.0031573751 -0.0056832754 0.72500002 4284550176
0.0044203256 -0.0056832754 0.72500002 4284484382
0.0056754365 -0.0056754365 0.72400004 4284483597
0.0069366447 -0.0056754365 0.72400004 4284747025
0.0082091754 -0.0056832754 0.72500002 4284420361
0.0094721252 -0.0056832754 0.72500002 4284354568
0.010720269 -0.0056754365 0.72400004 4284354577
0.011981477 -0.0056754365 0.72400004 4284354577
0.013242685 -0.0056754365 0.72400004 4284354080
0.014503893 -0.0056754365 0.72400004 4283893529
0.015765101 -0.0056754365 0.72400004 4283105810
0.017026309 -0.0056754365 0.72400004 4285540151
0.018287517 -0.0056754365 0.72400004 4285812296
0.019548725 -0.0056754365 0.72400004 4288180844
0.020809935 -0.0056754365 0.72400004 4288248938
0.022071144 -0.0056754365 0.72400004 4288446318
0.023332352 -0.0056754365 0.72400004 4287002499
0.02459356 -0.0056754365 0.72400004 4284502108
0.025854766 -0.0056754365 0.72400004 4282071894
0.027115975 -0.0056754365 0.72400004 4281742929
0.028377183 -0.0056754365 0.72400004 4281156952
0.029638389 -0.0056754365 0.72400004 4281222745
0.030814242 -0.005659759 0.72200006 4280830036
0.032027543 -0.0056519196 0.72100002 4279251004
0.033283528 -0.0056519196 0.72100002 4279053126
0.03453951 -0.0056519196 0.72100002 4285632426
0.035696197 -0.0056362418 0.71900004 4288583339
0.036948696 -0.0056362418 0.71900004 4291346645
0.038201194 -0.0056362418 0.71900004 4291804614
-0.044413164 -0.0045056837 0.73900002 4288054153
-0.04306747 -0.0044995868 0.73800004 4287529093
-0.041781873 -0.0044995868 0.73800004 4286673784
-0.040496279 -0.0044995868 0.73800004 4283393140
-0.039210681 -0.0044995868 0.73800004 4281879644
-0.037925087 -0.0044995868 0.73800004 4281878852
-0.036639489 -0.0044995868 0.73800004 4282668367
-0.035258085 -0.0044873925 0.73600006 4283979117
-0.033975974 -0.0044873925 0.73600006 4282334035
-0.032649439 -0.0044812951 0.73500001 4283439944
-0.031369068 -0.0044812951 0.73500001 4283045186
-0.030088698 -0.0044812951 0.73500001 4284223262
-0.028729938 -0.0044691018 0.73300004 4284420384
-0.027453052 -0.0044691018 0.73300004 4284486177
-0.026176166 -0.0044691018 0.73300004 4284420384
-0.02489928 -0.0044691018 0.73300004 4284616469
-0.023686847 -0.0044812951 0.73500001 4284616469
-0.022345508 -0.0044691018 0.73300004 4284616469
-0.021068621 -0.0044691018 0.73300004 4284550675
-0.019791735 -0.0044691018 0.73300004 4284550176
-0.018464329 -0.0044569075 0.73100001 4284879140
-0.017190928 -0.0044569075 0.73100001 4284748824
-0.01589575 -0.0044508106 0.73000002 4284748824
-0.014624092 -0.0044508106 0.73000002 4284944922
-0.01335243 -0.0044508106 0.73000002 4285471266
-0.012080772 -0.0044508106 0.73000002 4285277467
-0.010779497 -0.0044386163 0.72800004 4285211674
-0.0095113218 -0.0044386163 0.72800004 4285670174
-0.0082431454 -0.0044386163 0.72800004 4284880914
-0.0069749686 -0.0044386163 0.72800004 4285401857
-0.0057067927 -0.0044386163 0.72800004 4285796615
-0.0044386163 -0.0044386163 0.72800004 4285997342
-0.0031704404 -0.0044386163 0.72800004 4286128928
-0.0018996514 -0.0044325194 0.72700006 4285800983
0.0069653881 -0.0044325194 0.72700006 4284615952
0.0082318224 -0.0044325194 0.72700006 4284484873
0.0094982563 -0.0044325194 0.72700006 4284484873
0.010735076 -0.0044203256 0.72500002 4284288271
0.011998027 -0.0044203256 0.72500002 4284288271
0.013260976 -0.0044203256 0.72500002 4284615198
0.014523927 -0.0044203256 0.72500002 4283957525
0.015786877 -0.0044203256 0.72500002 4282908678
0.017049827 -0.0044203256 0.72500002 4286856515
0.018312778 -0.0044203256 0.72500002 4285749352
0.019575726 -0.0044203256 0.72500002 4287986058
0.020838678 -0.0044203256 0.72500002 4288315522
0.022101626 -0.0044203256 0.72500002 4288249729
0.023364577 -0.0044203256 0.72500002 4285625720
0.024627527 -0.0044203256 0.72500002 4281414968
0.025890477 -0.0044203256 0.72500002 4280758599
0.027153427 -0.0044203256 0.72500002 4281679701
0.028377183 -0.0044142287 0.72400004 4281288539
0.029638389 -0.0044142287 0.72400004 4281288539
0.030899599 -0.0044142287 0.72400004 4280895829
0.032071967 -0.0044020345 0.72200006 4279251004
0.033283528 -0.0043959371 0.72100002 4279053126
0.03453951 -0.0043959371 0.72100002 4285632426
0.035795491 -0.0043959371 0.72100002 4288715179
0.037051473 -0.0043959371 0.72100002 4291346643
0.038307454 -0.0043959371 0.72100002 4292132552
-0.051331524 -0.0032488303 0.74600005 4287859130
-0.05003199 -0.0032488303 0.74600005 4278977075
-0.048601806 -0.0032401201 0.74400002 4280100671
-0.045947868 -0.0032357653 0.74300003 4284307266
-0.043242544 -0.0032270555 0.74100006 4286671467
-0.041951723 -0.0032270555 0.74100006 4287987327
-0.040660899 -0.0032270555 0.74100006 4285493103
-0.039370079 -0.0032270555 0.74100006 4282203453
-0.037976474 -0.0032183453 0.73900002 4281289294
-0.036689136 -0.0032183453 0.73900002 4284118394
-0.035353892 -0.0032139902 0.73800004 4286936199
-0.034068298 -0.0032139902 0.73800004 4287330957
-0.032693859 -0.0032052805 0.73600006 4286406008
-0.031369068 -0.0032009254 0.73500001 4281866547
-0.030088698 -0.0032009254 0.73500001 4283105294
-0.028847525 -0.0032052805 0.73600006 4284091421
-0.027527958 -0.0032009254 0.73500001 4284615969
-0.026247587 -0.0032009254 0.73500001 4284681762
-0.024967218 -0.0032009254 0.73500001 4284484873
-0.023719076 -0.0032052805 0.73600006 4284681995
-0.022436963 -0.0032052805 0.73600006 4284550675
-0.021154851 -0.0032052805 0.73600006 4284682518
-0.019845735 -0.0032009254 0.73500001 4284486420
-0.018514849 -0.0031922155 0.73300004 4284486420
-0.017237963 -0.0031922155 0.73300004 4284682518
-0.015917527 -0.0031835053 0.73100001 4284550675
-0.014644124 -0.0031835053 0.73100001 4284550675
-0.013370722 -0.0031835053 0.73100001 4284550675
-0.01209732 -0.0031835053 0.73100001 4284484873
-0.01080911 -0.0031791502 0.73000002 4284353031
-0.009537451 -0.0031791502 0.73000002 4284812050
-0.0082657905 -0.0031791502 0.73000002 4284746001
-0.0070037115 -0.0031835053 0.73100001 4284942603
-0.0057303095 -0.0031835053 0.73100001 4284942603
-0.0044569075 -0.0031835053 0.73100001 4284942099
-0.0031835053 -0.0031835053 0.73100001 4284942099
-0.0019101031 -0.0031835053 0.73100001 4285008148
-0.00063670106 -0.0031835053 0.73100001 4285008148
0.00063670106 -0.0031835053 0.73100001 4284550675
0.0019101031 -0.0031835053 0.73100001 4284616469
0.0031835053 -0.0031835053 0.73100001 4284616469
0.0044569075 -0.0031835053 0.73100001 4284550675
0.0057303095 -0.0031835053 0.73100001 4284550675
0.006994131 -0.0031791502 0.73000002 4284419089
0.0082431454 -0.0031704404 0.72800004 4284484873
0.0094982563 -0.0031660853 0.72700006 4284681995
0.010764691 -0.0031660853 0.72700006 4284550675
0.012031124 -0.0031660853 0.72700006 4284550675
0.013297559 -0.0031660853 0.72700006 4284352540
0.014563993 -0.0031660853 0.72700006 4283301901
0.015830427 -0.0031660853 0.72700006 4283630848
0.017096862 -0.0031660853 0.72700006 4289026123
0.018312778 -0.0031573751 0.72500002 4288183923
0.019575726 -0.0031573751 0.72500002 4288381558
0.020896163 -0.0031660853 0.72700006 4287133565
0.022101626 -0.0031573751 0.72500002 4284304465
0.023364577 -0.0031573751 0.72500002 4281744976
0.024627527 -0.0031573751 0.72500002 4281284425
0.025890477 -0.0031573751 0.72500002 4281090907
0.027153427 -0.0031573751 0.72500002 4281354336
0.028416377 -0.0031573751 0.72500002 4281288791
0.029679328 -0.0031573751 0.72500002 4281222997
0.030942278 -0.0031573751 0.72500002 4281157204
0.032160807 -0.0031530203 0.72400004 4279512380
0.033329692 -0.0031443106 0.72200006 4279641662
0.034587413 -0.0031443106 0.72200006 4286220962
0.035845138 -0.0031443106 0.72200006 4288845993
0.037102863 -0.0031443106 0.72200006 4291477713
0.038360588 -0.0031443106 0.72200006 4292264653
-0.052842703 -0.0019571371 0.74900001 4293123808
-0.05140033 -0.0019519113 0.74700004 4289243068
-0.050099056 -0.0019519113 0.74700004 4279176738
-0.048732456 -0.0019492983 0.74600005 4279641662
-0.047305755 -0.0019440722 0.74400002 4281747295
-0.046009708 -0.0019440722 0.74400002 4281680707
-0.044653561 -0.0019414593 0.74300003 4282404173
-0.043359257 -0.0019414593 0.74300003 4286341207
-0.04206495 -0.0019414593 0.74300003 4288643962
-0.040770642 -0.0019414593 0.74300003 4286412684
-0.039476339 -0.0019414593 0.74300003 4282596689
-0.038079254 -0.0019362331 0.74100006 4281876033
-0.036788434 -0.0019362331 0.74100006 4284836974
-0.035497613 -0.0019362331 0.74100006 4287657860
-0.034114458 -0.0019310071 0.73900002 4288249997
-0.0327827 -0.0019283943 0.73800004 4287656091
-0.031411748 -0.0019231683 0.73600006 4284169062
-0.030129636 -0.0019231683 0.73600006 4283174194
-0.028847525 -0.0019231683 0.73600006 4283305781
-0.027565412 -0.0019231683 0.73600006 4284483597
-0.0262833 -0.0019231683 0.73600006 4284747025
-0.025001187 -0.0019231683 0.73600006 4284682275
-0.023783529 -0.0019283943 0.73800004 4284419360
-0.022497933 -0.0019283943 0.73800004 4284485664
-0.021212338 -0.0019283943 0.73800004 4284485664
-0.019872738 -0.0019231683 0.73600006 4284485664
-0.018590627 -0.0019231683 0.73600006 4284485664
-0.017284997 -0.001920555 0.73500001 4284615969
-0.015961077 -0.0019153293 0.73300004 4284615969
-0.014684191 -0.0019153293 0.73300004 4284615198
-0.013407304 -0.0019153293 0.73300004 4284680992
-0.012130419 -0.0019153293 0.73300004 4284419360
-0.010853532 -0.0019153293 0.73300004 4284221724
-0.0095766466 -0.0019153293 0.73300004 4284615698
-0.0082997596 -0.0019153293 0.73300004 4284681491
-0.007022874 -0.0019153293 0.73300004 4284813071
-0.0057459874 -0.0019153293 0.73300004 4284681484
-0.0044691018 -0.0019153293 0.73300004 4284745488
-0.0031922155 -0.0019153293 0.73300004 4284745488
-0.0019153293 -0.0019153293 0.73300004 4284745992
-0.0006384431 -0.0019153293 0.73300004 4284877578
0.00063670106 -0.0019101031 0.73100001 4284616202
0.0019101031 -0.0019101031 0.73100001 4284747789
0.0031835053 -0.0019101031 0.73100001 4284616469
0.0044569075 -0.0019101031 0.73100001 4284550675
0.0057303095 -0.0019101031 0.73100001 4284551179
0.0070037115 -0.0019101031 0.73100001 4284485386
0.0082771135 -0.0019101031 0.73100001 4284616202
0.0095505156 -0.0019101031 0.73100001 4284681995
0.010779497 -0.0019022641 0.72800004 4284550675
0.012031124 -0.0018996514 0.72700006 4284419089
0.013297559 -0.0018996514 0.72700006 4284221211
0.014563993 -0.0018996514 0.72700006 4283432974
0.015830427 -0.0018996514 0.72700006 4283702559
0.017096862 -0.0018996514 0.72700006 4288768364
0.018363295 -0.0018996514 0.72700006 4287987593
0.01962973 -0.0018996514 0.72700006 4287395456
0.020896163 -0.0018996514 0.72700006 4284704117
0.022162598 -0.0018996514 0.72700006 4281480260
0.023429032 -0.0018996514 0.72700006 4280302661
0.024695467 -0.0018996514 0.72700006 4280960591
0.025961902 -0.0018996514 0.72700006 4281288541
0.027228335 -0.0018996514 0.72700006 4281222747
0.02849477 -0.0018996514 0.72700006 4281157204
0.029761203 -0.0018996514 0.72700006 4281091411
0.031027636 -0.0018996514 0.72700006 4280894800
0.032205228 -0.0018944253 0.72500002 4279184182
0.033422016 -0.0018918123 0.72400004 4279839046
0.034587413 -0.0018865862 0.72200006 4286286760
0.035845138 -0.0018865862 0.72200006 4288912042
0.037102863 -0.0018865862 0.72200006 4291609299
0.038360588 -0.0018865862 0.72200006 4292397005
-0.052842703 -0.00065237907 0.74900001 4293648868
-0.05140033 -0.00065063708 0.74700004 4289900734
-0.050099056 -0.00065063708 0.74700004 4279176475
-0.048797779 -0.00065063708 0.74700004 4278200132
-0.047432926 -0.00064976607 0.74600005 4280046448
-0.046133392 -0.00064976607 0.74600005 4281354082
-0.044713661 -0.00064802408 0.74400002 4281025116
-0.04341761 -0.00064802408 0.74400002 4284436054
-0.042121563 -0.00064802408 0.74400002 4287988619
-0.040770642 -0.00064715307 0.74300003 4287922065
-0.039476339 -0.00064715307 0.74300003 4286540412
-0.038182031 -0.00064715307 0.74300003 4285163625
-0.036887724 -0.00064715307 0.74300003 4284703074
-0.03559342 -0.00064715307 0.74300003 4286999930
-0.034206789 -0.00064541108 0.74100006 4288710548
-0.032827124 -0.00064366905 0.73900002 4288314509
-0.031539787 -0.00064366905 0.73900002 4286998649
-0.030211508 -0.00064279808 0.73800004 4285352568
-0.028925914 -0.00064279808 0.73800004 4282589262
-0.027640317 -0.00064279808 0.73800004 4283498505
-0.026354721 -0.00064279808 0.73800004 4284089874
-0.025069125 -0.00064279808 0.73800004 4284485414
-0.023815755 -0.00064366905 0.73900002 4284551207
-0.022528417 -0.00064366905 0.73900002 4284552472
-0.02124108 -0.00064366905 0.73900002 4284552472
-0.019953741 -0.00064366905 0.73900002 4284615969
-0.018641144 -0.00064279808 0.73800004 4284681762
-0.017355548 -0.00064279808 0.73800004 4284615719
-0.016069952 -0.00064279808 0.73800004 4284615719
-0.014784356 -0.00064279808 0.73800004 4284550176
-0.013462178 -0.0006410561 0.73600006 4284615969
-0.012180066 -0.0006410561 0.73600006 4284812841
-0.010883146 -0.00064018503 0.73500001 4284681512
-0.0096027758 -0.00064018503 0.73500001 4284682518
-0.0083224056 -0.00064018503 0.73500001 4284682518
-0.0070420355 -0.00064018503 0.73500001 4284812050
-0.0057616658 -0.00064018503 0.73500001 4284812050
-0.0044812951 -0.00064018503 0.73500001 4284616469
-0.0032009254 -0.00064018503 0.73500001 4284550675
-0.001920555 -0.00064018503 0.73500001 4284484873
-0.00064018503 -0.00064018503 0.73500001 4284484873
0.0006384431 -0.0006384431 0.73300004 4284551179
0.0019153293 -0.0006384431 0.73300004 4284616973
0.0031922155 -0.0006384431 0.73300004 4284616202
0.0044691018 -0.0006384431 0.73300004 4284681995
0.0057459874 -0.0006384431 0.73300004 4284616973
0.007022874 -0.0006384431 0.73300004 4284616973
0.0082997596 -0.0006384431 0.73300004 4284616469
0.0095766466 -0.0006384431 0.73300004 4284550675
0.010823918 -0.00063670106 0.73100001 4284550176
0.012080772 -0.00063583005 0.73000002 4284023831
0.01335243 -0.00063583005 0.73000002 4283891971
0.014624092 -0.00063583005 0.73000002 4286589227
0.015852202 -0.00063408806 0.72800004 4285746781
0.017120378 -0.00063408806 0.72800004 4288641673
0.018388554 -0.00063408806 0.72800004 4287068269
0.019656731 -0.00063408806 0.72800004 4283581497
0.020924907 -0.00063408806 0.72800004 4281942859
0.022193084 -0.00063408806 0.72800004 4281811273
0.023461258 -0.00063408806 0.72800004 4281288791
0.024729436 -0.00063408806 0.72800004 4281354584
0.025997611 -0.00063408806 0.72800004 4281288539
0.027265789 -0.00063408806 0.72800004 4281156952
0.028533963 -0.00063408806 0.72800004 4280960343
0.029802142 -0.00063408806 0.72800004 4280894550
0.031070314 -0.00063408806 0.72800004 4280829007
0.032294072 -0.0006332171 0.72700006 4279184182
0.033422016 -0.00063060404 0.72400004 4279707459
0.034587413 -0.00062886212 0.72200006 4286352553
0.035845138 -0.00062886212 0.72200006 4289174443
0.037102863 -0.00062886212 0.72200006 4291937749
0.038360588 -0.00062886212 0.72200006 4292528073
-0.054292049 0.0006541211 0.75100005 4294967295
-0.052842703 0.00065237907 0.74900001 4294701556
-0.051537946 0.00065237907 0.74900001 4290296522
-0.050233185 0.00065237907 0.74900001 4280032814
-0.048928428 0.00065237907 0.74900001 4278992183
-0.047623672 0.00065237907 0.74900001 4281558111
-0.046195231 0.00065063708 0.74700004 4282340710
-0.044833858 0.00064976607 0.74600005 4281419609
-0.043534327 0.00064976607 0.74600005 4283977297
-0.042234793 0.00064976607 0.74600005 4287464583
-0.040825516 0.00064802408 0.74400002 4288577677
-0.039529469 0.00064802408 0.74400002 4288117126
-0.038233418 0.00064802408 0.74400002 4287001463
-0.036937371 0.00064802408 0.74400002 4286277741
-0.03559342 0.00064715307 0.74300003 4286540910
-0.034299113 0.00064715307 0.74300003 4287922563
-0.032915968 0.00064541108 0.74100006 4288511883
-0.031625144 0.00064541108 0.74100006 4287854210
-0.030416194 0.00064715307 0.74300003 4287261567
-0.029043498 0.00064541108 0.74100006 4284564310
-0.027752677 0.00064541108 0.74100006 4283568952
-0.026461855 0.00064541108 0.74100006 4282713643
-0.025171032 0.00064541108 0.74100006 4284286474
-0.023944663 0.00064715307 0.74300003 4284681232
-0.022589387 0.00064541108 0.74100006 4284682275
-0.021298565 0.00064541108 0.74100006 4284682275
-0.019953741 0.00064366905 0.73900002 4284615969
-0.018666402 0.00064366905 0.73900002 4284681762
-0.017379064 0.00064366905 0.73900002 4284813091
-0.016069952 0.00064279808 0.73800004 4284615969
-0.014784356 0.00064279808 0.73800004 4284616469
-0.01349876 0.00064279808 0.73800004 4284682518
-0.012180066 0.0006410561 0.73600006 4284615969
-0.010897954 0.0006410561 0.73600006 4284615969
-0.0096158413 0.0006410561 0.73600006 4284748824
-0.0083337296 0.0006410561 0.73600006 4284683031
-0.0070516169 0.0006410561 0.73600006 4284616469
-0.0057695047 0.0006410561 0.73600006 4284616469
-0.0044873925 0.0006410561 0.73600006 4284486420
-0.0032052805 0.0006410561 0.73600006 4284354577
-0.001920555 0.00064018503 0.73500001 4284616202
-0.00064018503 0.00064018503 0.73500001 4284747789
0.00064018503 0.00064018503 0.73500001 4284616973
0.001920555 0.00064018503 0.73500001 4284814095
0.0032009254 0.00064018503 0.73500001 4284616202
0.0044812951 0.00064018503 0.73500001 4284747789
0.0057616658 0.00064018503 0.73500001 4284616973
0.0070420355 0.00064018503 0.73500001 4284616973
0.0083224056 0.00064018503 0.73500001 4284616973
0.0096027758 0.00064018503 0.73500001 4284419337
0.010853532 0.0006384431 0.73300004 4284745992
0.012130419 0.0006384431 0.73300004 4284351234
0.013370722 0.00063670106 0.73100001 4283892243
0.014644124 0.00063670106 0.73100001 4287774030
0.015917527 0.00063670106 0.73100001 4286669681
0.017190928 0.00063670106 0.73100001 4286801268
0.018464329 0.00063670106 0.73100001 4285096298
0.019737732 0.00063670106 0.73100001 4282332992
0.021011135 0.00063670106 0.73100001 4280960595
0.022254052 0.00063583005 0.73000002 4281355097
0.023525711 0.00063583005 0.73000002 4281289042
0.024831342 0.00063670106 0.73100001 4281289042
0.026104743 0.00063670106 0.73100001 4281288539
0.027378146 0.00063670106 0.73100001 4281222745
0.028651547 0.00063670106 0.73100001 4280830040
0.029924948 0.00063670106 0.73100001 4280698198
0.031198351 0.00063670106 0.73100001 4280960595
0.035944432 0.00063060404 0.72400004 4289240492
-0.052983809 0.0019623633 0.75100005 4294899442
-0.051675566 0.0019623633 0.75100005 4291083987
-0.050367322 0.0019623633 0.75100005 4282201931
-0.049059082 0.0019623633 0.75100005 4283652460
-0.044893958 0.0019519113 0.74700004 4285557851
-0.043534327 0.0019492983 0.74600005 4286474633
-0.042234793 0.0019492983 0.74600005 4288316837
-0.040825516 0.0019440722 0.74400002 4288380788
-0.039529469 0.0019440722 0.74400002 4288117616
-0.038336199 0.0019492983 0.74600005 4287986560
-0.037036669 0.0019492983 0.74600005 4287789180
-0.035641324 0.0019440722 0.74400002 4287789682
-0.034345273 0.0019440722 0.74400002 4287921268
-0.033049226 0.0019440722 0.74400002 4288183159
-0.031710502 0.0019414593 0.74300003 4288248953
-0.030416194 0.0019414593 0.74300003 4288118131
-0.029121889 0.0019414593 0.74300003 4287921009
-0.027827581 0.0019414593 0.74300003 4286734208
-0.026533276 0.0019414593 0.74300003 4283905108
-0.02523897 0.0019414593 0.74300003 4283369247
-0.023944663 0.0019414593 0.74300003 4283040026
-0.022650357 0.0019414593 0.74300003 4283957532
-0.021356052 0.0019414593 0.74300003 4284418083
-0.020007744 0.0019362331 0.74100006 4284614948
-0.018716922 0.0019362331 0.74100006 4284878121
-0.017379064 0.0019310071 0.73900002 4284748824
-0.016091727 0.0019310071 0.73900002 4284683031
-0.014804387 0.0019310071 0.73900002 4284813071
-0.01351705 0.0019310071 0.73900002 4284944400
-0.012213163 0.0019283943 0.73800004 4284944400
-0.010927567 0.0019283943 0.73800004 4284944400
-0.0096419714 0.0019283943 0.73800004 4284683031
-0.0083563756 0.0019283943 0.73800004 4284748824
-0.0070707784 0.0019283943 0.73800004 4284683031
-0.0057851826 0.0019283943 0.73800004 4284683031
-0.0044995868 0.0019283943 0.73800004 4284682518
-0.0032139902 0.0019283943 0.73800004 4284682518
-0.0019231683 0.0019231683 0.73600006 4284616973
-0.0006410561 0.0019231683 0.73600006 4284616973
0.0006410561 0.0019231683 0.73600006 4284616973
0.0019231683 0.0019231683 0.73600006 4284616973
0.0032052805 0.0019231683 0.73600006 4284616973
0.0044873925 0.0019231683 0.73600006 4284616973
0.0057695047 0.0019231683 0.73600006 4284616973
0.0070516169 0.0019231683 0.73600006 4284551179
0.0083337296 0.0019231683 0.73600006 4284419328
0.0096158413 0.0019231683 0.73600006 4283827200
0.010897954 0.0019231683 0.73600006 4284153856
0.012163516 0.001920555 0.73500001 4286390551
0.013443886 0.001920555 0.73500001 4286140744
0.014684191 0.0019153293 0.73300004 4288443499
0.015961077 0.0019153293 0.73300004 4286211709
0.017190928 0.0019101031 0.73100001 4284040796
0.018464329 0.0019101031 0.73100001 4282665565
0.019791735 0.0019153293 0.73300004 4282205014
0.021068621 0.0019153293 0.73300004 4281289572
0.022284538 0.0019101031 0.73100001 4281092193
0.023557939 0.0019101031 0.73100001 4280762958
0.024831342 0.0019101031 0.73100001 4280829007
0.026104743 0.0019101031 0.73100001 4280828503
0.027378146 0.0019101031 0.73100001 4281091931
0.028651547 0.0019101031 0.73100001 4281090907
0.029924948 0.0019101031 0.73100001 4281156700
0.031198351 0.0019101031 0.73100001 4280830040
-0.053054359 0.0032749604 0.75200003 4294963959
-0.051675566 0.0032706053 0.75100005 4291477965
-0.050367322 0.0032706053 0.75100005 4282990925
-0.049059082 0.0032706053 0.75100005 4285947726
-0.040990133 0.0032531854 0.74700004 4288183677
-0.039688859 0.0032531854 0.74700004 4288051834
-0.038387585 0.0032531854 0.74700004 4288117629
-0.037086312 0.0032531854 0.74700004 4288183423
-0.035737135 0.0032488303 0.74600005 4288444786
-0.034437601 0.0032488303 0.74600005 4288510579
-0.03313807 0.0032488303 0.74600005 4288117618
-0.031753179 0.0032401201 0.74400002 4288051825
-0.030457132 0.0032401201 0.74400002 4288249205
-0.029161081 0.0032401201 0.74400002 4288578169
-0.027865034 0.0032401201 0.74400002 4287986575
-0.026568986 0.0032401201 0.74400002 4285815406
-0.025272937 0.0032401201 0.74400002 4284627021
-0.023976889 0.0032401201 0.74400002 4281863715
-0.022680841 0.0032401201 0.74400002 4284219438
-0.021384794 0.0032401201 0.74400002 4284481841
-0.020061744 0.0032357653 0.74300003 4284286474
-0.018767439 0.0032357653 0.74300003 4284747025
-0.0174261 0.0032270555 0.74100006 4284814117
-0.016135277 0.0032270555 0.74100006 4284616482
-0.014844455 0.0032270555 0.74100006 4284813071
-0.013553632 0.0032270555 0.74100006 4284944400
-0.012262811 0.0032270555 0.74100006 4284812067
-0.010971989 0.0032270555 0.74100006 4284943396
-0.0096811661 0.0032270555 0.74100006 4284944152
-0.0083676977 0.0032183453 0.73900002 4284944152
-0.0070803599 0.0032183453 0.73900002 4284683031
-0.0057930215 0.0032183453 0.73900002 4284683031
-0.0045056837 0.0032183453 0.73900002 4284682518
-0.0032183453 0.0032183453 0.73900002 4284682518
-0.0019283943 0.0032139902 0.73800004 4284683031
-0.00064279808 0.0032139902 0.73800004 4284683031
0.00064279808 0.0032139902 0.73800004 4284683031
0.0019283943 0.0032139902 0.73800004 4284683031
0.0032139902 0.0032139902 0.73800004 4284683031
0.0044995868 0.0032139902 0.73800004 4284683031
0.0057851826 0.0032139902 0.73800004 4284683279
0.0070707784 0.0032139902 0.73800004 4284222728
0.0083563756 0.0032139902 0.73800004 4284483072
0.0096158413 0.0032052805 0.73600006 4284548864
0.010897954 0.0032052805 0.73600006 4283829771
0.012180066 0.0032052805 0.73600006 4286593077
0.013462178 0.0032052805 0.73600006 4286602862
0.01474429 0.0032052805 0.73600006 4286865777
0.016004626 0.0032009254 0.73500001 4284965741
0.017237963 0.0031922155 0.73300004 4282662986
0.018514849 0.0031922155 0.73300004 4280567895
0.019845735 0.0032009254 0.73500001 4280633688
0.021126106 0.0032009254 0.73500001 4280960341
0.022345508 0.0031922155 0.73300004 4280960341
0.023622394 0.0031922155 0.73300004 4280961095
0.02489928 0.0031922155 0.73300004 4280895302
0.026176166 0.0031922155 0.73300004 4280960343
0.027453052 0.0031922155 0.73300004 4281223259
0.028729938 0.0031922155 0.73300004 4281157204
0.030006822 0.0031922155 0.73300004 4281222997
0.031283714 0.0031922155 0.73300004 4281158236
-0.050568525 0.0045971381 0.75400001 4282529338
-0.049385708 0.0046093324 0.75600004 4284501065
-0.048068754 0.0046093324 0.75600004 4287856509
-0.046628118 0.0045971381 0.75400001 4288380286
-0.039795119 0.0045666532 0.74900001 4287920505
-0.038490366 0.0045666532 0.74900001 4287788665
-0.037185606 0.0045666532 0.74900001 4287788665
-0.035785038 0.0045544594 0.74700004 4288181363
-0.034483764 0.0045544594 0.74700004 4288181363
-0.033182491 0.0045544594 0.74700004 4288051312
-0.031838536 0.0045483625 0.74600005 4287985519
-0.030539008 0.0045483625 0.74600005 4288051564
-0.029239476 0.0045483625 0.74600005 4288314479
-0.027939942 0.0045483625 0.74600005 4288446079
-0.02664041 0.0045483625 0.74600005 4288446079
-0.025272937 0.0045361686 0.74400002 4287920003
-0.023976889 0.0045361686 0.74400002 4286801522
-0.022680841 0.0045361686 0.74400002 4286074732
-0.021384794 0.0045361686 0.74400002 4283771977
-0.020088745 0.0045361686 0.74400002 4283301927
-0.018792698 0.0045361686 0.74400002 4283236390
-0.017473133 0.0045300713 0.74300003 4284088339
-0.016178826 0.0045300713 0.74300003 4284154132
-0.01488452 0.0045300713 0.74300003 4284481537
-0.013590215 0.0045300713 0.74300003 4284876295
-0.012295908 0.0045300713 0.74300003 4284745253
-0.011001602 0.0045300713 0.74300003 4284876840
-0.0097072963 0.0045300713 0.74300003 4284812067
-0.0084129898 0.0045300713 0.74300003 4285009189
-0.0070995223 0.0045178775 0.74100006 4284683031
-0.0058086999 0.0045178775 0.74100006 4284748824
-0.0045178775 0.0045178775 0.74100006 4284748824
-0.0032183453 0.0045056837 0.73900002 4284683031
-0.0019310071 0.0045056837 0.73900002 4284746773
-0.00064366905 0.0045056837 0.73900002 4284746773
0.00064541108 0.0045178775 0.74100006 4284680742
0.0019310071 0.0045056837 0.73900002 4284351777
0.0032183453 0.0045056837 0.73900002 4284481802
0.0045056837 0.0045056837 0.73900002 4284481802
0.0057930215 0.0045056837 0.73900002 4284088336
0.0070803599 0.0045056837 0.73900002 4283498503
0.0083563756 0.0044995868 0.73800004 4283958790
0.0096419714 0.0044995868 0.73800004 4287906371
0.010927567 0.0044995868 0.73800004 4287985224
0.012213163 0.0044995868 0.73800004 4288840533
0.01349876 0.0044995868 0.73800004 4286344051
0.01474429 0.0044873925 0.73600006 4283909710
0.016004626 0.0044812951 0.73500001 4282797407
0.017284997 0.0044812951 0.73500001 4282599771
0.018565366 0.0044812951 0.73500001 4282797920
0.019845735 0.0044812951 0.73500001 4282731871
0.021126106 0.0044812951 0.73500001 4283782235
0.022406477 0.0044812951 0.73500001 4284637544
0.023686847 0.0044812951 0.73500001 4285096544
0.024967218 0.0044812951 0.73500001 4285688937
0.026247587 0.0044812951 0.73500001 4284704620
0.027527958 0.0044812951 0.73500001 4282796623
0.028808327 0.0044812951 0.73500001 4281290830
0.030088698 0.0044812951 0.73500001 4281027401
0.031369068 0.0044812951 0.73500001 4281224031
0.032649439 0.0044812951 0.73500001 4279644998
0.03392981 0.0044812951 0.73500001 4279969612
0.035258085 0.0044873925 0.73600006 4286417326
0.036639489 0.0044995868 0.73800004 4289503407
-0.050702658 0.0059262845 0.75600004 4282331446
-0.049451031 0.0059341234 0.75700003 4283578680
-0.048132334 0.0059341234 0.75700003 4286868330
-0.046751801 0.0059262845 0.75600004 4288575852
-0.045434847 0.0059262845 0.75600004 4288839281
-0.044001181 0.0059106066 0.75400001 4288773243
-0.042687714 0.0059106066 0.75400001 4288444534
-0.038593143 0.0058870898 0.75100005 4287854962
-0.037185606 0.0058714114 0.74900001 4287723376
-0.035880849 0.0058714114 0.74900001 4287983468
-0.034576092 0.0058714114 0.74900001 4287983468
-0.033271331 0.0058714114 0.74900001 4287788137
-0.031881217 0.005855734 0.74700004 4287919724
-0.030579941 0.005855734 0.74700004 4287789421
-0.029239476 0.0058478951 0.74600005 4287855214
-0.027939942 0.0058478951 0.74600005 4288183163
-0.02664041 0.0058478951 0.74600005 4288446079
-0.025340877 0.0058478951 0.74600005 4288773765
-0.024041345 0.0058478951 0.74600005 4288970888
-0.022741813 0.0058478951 0.74600005 4287329674
-0.021442281 0.0058478951 0.74600005 4285356141
-0.020142749 0.0058478951 0.74600005 4284627273
-0.018843215 0.0058478951 0.74600005 4282126883
-0.017496651 0.0058322162 0.74400002 4284416029
-0.016200602 0.0058322162 0.74400002 4284481566
-0.014904552 0.0058322162 0.74400002 4284219392
-0.013608505 0.0058322162 0.74400002 4284612864
-0.012312457 0.0058322162 0.74400002 4284743709
-0.011001602 0.0058243778 0.74300003 4285006881
-0.0097072963 0.0058243778 0.74300003 4284879129
-0.0084129898 0.0058243778 0.74300003 4284615700
-0.0071186838 0.0058243778 0.74300003 4284812050
-0.0058243778 0.0058243778 0.74300003 4284877843
-0.0045178775 0.0058086999 0.74100006 4284746274
-0.0032270555 0.0058086999 0.74100006 4284746274
-0.0019362331 0.0058086999 0.74100006 4284944152
-0.00064541108 0.0058086999 0.74100006 4284615187
0.00064715307 0.0058243778 0.74300003 4284613892
0.0019362331 0.0058086999 0.74100006 4284416257
0.0032270555 0.0058086999 0.74100006 4284284928
0.0045178775 0.0058086999 0.74100006 4284219392
0.0057930215 0.0057930215 0.73900002 4283826176
0.0070803599 0.0057930215 0.73900002 4285009152
0.0083676977 0.0057930215 0.73900002 4285149742
0.009655036 0.0057930215 0.73900002 4287913048
0.010942374 0.0057930215 0.73900002 4287854962
0.012229712 0.0057930215 0.73900002 4287657582
0.01351705 0.0057930215 0.73900002 4284769912
0.014804387 0.0057930215 0.73900002 4282335570
0.016091727 0.0057930215 0.73900002 4282730830
0.017308515 0.0057695047 0.73600006 4283717725
0.018590627 0.0057695047 0.73600006 4284571233
0.019872738 0.0057695047 0.73600006 4284637027
0.021154851 0.0057695047 0.73600006 4285488740
0.022436963 0.0057695047 0.73600006 4285817705
0.023719076 0.0057695047 0.73600006 4286735977
0.025001187 0.0057695047 0.73600006 4287393907
0.0262833 0.0057695047 0.73600006 4285952898
0.027565412 0.0057695047 0.73600006 4283979365
0.028847525 0.0057695047 0.73600006 4280766308
0.030129636 0.0057695047 0.73600006 4280766308
0.031411748 0.0057695047 0.73600006 4281288791
0.032693859 0.0057695047 0.73600006 4279775551
0.033975974 0.0057695047 0.73600006 4280165960
0.035353892 0.0057851826 0.73800004 4286613674
0.036639489 0.0057851826 0.73800004 4289569455
0.037976474 0.0057930215 0.73900002 4292464347
-0.05090386 0.0072719804 0.75900006 4282331444
-0.04958168 0.0072719804 0.75900006 4280952912
-0.048132334 0.007252818 0.75700003 4282860909
-0.046813641 0.007252818 0.75700003 4285749572
-0.045434847 0.0072432365 0.75600004 4288183913
-0.044117898 0.0072432365 0.75600004 4288511620
-0.042800944 0.0072432365 0.75600004 4288643462
-0.041374244 0.0072240741 0.75400001 4288248953
-0.038644534 0.0072049126 0.75200003 4288183411
-0.037334546 0.0072049126 0.75200003 4288249205
-0.03597666 0.0071953321 0.75100005 4288445036
-0.034668416 0.0071953321 0.75100005 4287721314
-0.033360176 0.0071953321 0.75100005 4287523694
-0.031966574 0.0071761697 0.74900001 4287589487
-0.030661814 0.0071761697 0.74900001 4287524195
-0.029357059 0.0071761697 0.74900001 4287589989
-0.027977394 0.0071570072 0.74700004 4287524714
-0.02667612 0.0071570072 0.74700004 4287722092
-0.025374847 0.0071570072 0.74700004 4288181865
-0.024073573 0.0071570072 0.74700004 4288773745
-0.022772297 0.0071570072 0.74700004 4288512133
-0.021471024 0.0071570072 0.74700004 4288578182
-0.02016975 0.0071570072 0.74700004 4288117627
-0.018868476 0.0071570072 0.74700004 4287262575
-0.017543685 0.0071474267 0.74600005 4287522134
-0.016244153 0.0071474267 0.74600005 4285811772
-0.014944619 0.0071474267 0.74600005 4285478190
-0.013645088 0.0071474267 0.74600005 4284820259
-0.012345555 0.0071474267 0.74600005 4284486959
-0.011016409 0.0071282643 0.74400002 4284421165
-0.0097203609 0.0071282643 0.74400002 4284023843
-0.0084243128 0.0071282643 0.74400002 4283695134
-0.0071282643 0.0071282643 0.74400002 4283891729
-0.0058243778 0.0071186838 0.74300003 4284022802
-0.0045300713 0.0071186838 0.74300003 4283826199
-0.0032357653 0.0071186838 0.74300003 4283826199
-0.0019414593 0.0071186838 0.74300003 4284023843
-0.00064715307 0.0071186838 0.74300003 4284418858
0.00064802408 0.0071282643 0.74400002 4284683812
0.0019440722 0.0071282643 0.74400002 4285999416
0.0032401201 0.0071282643 0.74400002 4286269954
0.0045300713 0.0071186838 0.74300003 4286927627
0.0058243778 0.0071186838 0.74300003 4287982644
0.0071186838 0.0071186838 0.74300003 4288706366
0.0083903437 0.0070995223 0.74100006 4288642175
0.0096811661 0.0070995223 0.74100006 4289234568
0.010942374 0.0070803599 0.73900002 4287592817
0.012229712 0.0070803599 0.73900002 4285882455
0.01351705 0.0070803599 0.73900002 4285950838
0.014804387 0.0070803599 0.73900002 4286411389
0.016091727 0.0070803599 0.73900002 4287397741
0.017379064 0.0070803599 0.73900002 4287595119
0.018666402 0.0070803599 0.73900002 4287725693
0.01992674 0.0070707784 0.73800004 4287857022
0.021212338 0.0070707784 0.73800004 4287789698
0.022497933 0.0070707784 0.73800004 4287658112
0.023783529 0.0070707784 0.73800004 4287657599
0.025069125 0.0070707784 0.73800004 4287854721
0.026354721 0.0070707784 0.73800004 4287462266
0.027640317 0.0070707784 0.73800004 4287462266
0.028925914 0.0070707784 0.73800004 4285823097
0.030211508 0.0070707784 0.73800004 4282796875
0.031497106 0.0070707784 0.73800004 4281486169
0.0327827 0.0070707784 0.73800004 4280236102
0.034068298 0.0070707784 0.73800004 4280496206
0.035401799 0.0070803599 0.73900002 4286417576
0.036689136 0.0070803599 0.73900002 4289569450
0.037976474 0.0070803599 0.73900002 4292398806
-0.052226041 0.0085941581 0.75900006 4292661458
-0.05090386 0.0085941581 0.75900006 4283187266
-0.04958168 0.0085941581 0.75900006 4278331465
-0.048132334 0.0085715121 0.75700003 4280107876
-0.046813641 0.0085715121 0.75700003 4283975208
-0.045494948 0.0085715121 0.75700003 4286212170
-0.044176254 0.0085715121 0.75700003 4288511091
-0.042857558 0.0085715121 0.75700003 4288971642
-0.041483991 0.008560189 0.75600004 4288577665
-0.040167041 0.008560189 0.75600004 4288380286
-0.038747307 0.008537543 0.75400001 4288249205
-0.03743384 0.008537543 0.75400001 4288380534
-0.036024563 0.008514897 0.75200003 4288315263
-0.03471458 0.008514897 0.75200003 4287788919
-0.033404596 0.008514897 0.75200003 4287195231
-0.032051936 0.0085035739 0.75100005 4286800473
-0.03074369 0.0085035739 0.75100005 4287193182
-0.029435448 0.0085035739 0.75100005 4287587940
-0.028127208 0.0085035739 0.75100005 4287786591
-0.02674754 0.0084809279 0.74900001 4287852384
-0.025442783 0.0084809279 0.74900001 4287655530
-0.024138026 0.0084809279 0.74900001 4288182130
-0.022833267 0.0084809279 0.74900001 4288249216
-0.021528509 0.0084809279 0.74900001 4288381058
-0.02022375 0.0084809279 0.74900001 4287920253
-0.018918993 0.0084809279 0.74900001 4287722874
-0.017567201 0.0084582819 0.74700004 4287788919
-0.016265927 0.0084582819 0.74700004 4287196526
-0.014964653 0.0084582819 0.74700004 4286208590
-0.013663379 0.0084582819 0.74700004 4285550660
-0.012345555 0.0084469598 0.74600005 4285874759
-0.011046024 0.0084469598 0.74600005 4284887608
-0.009746491 0.0084469598 0.74600005 4285149994
-0.0084469598 0.0084469598 0.74600005 4284886566
-0.0071282643 0.0084243128 0.74400002 4284753701
-0.0058322162 0.0084243128 0.74400002 4284556321
-0.0045361686 0.0084243128 0.74400002 4284555819
-0.0032401201 0.0084243128 0.74400002 4284753199
-0.0019440722 0.0084243128 0.74400002 4284951594
-0.00064802408 0.0084243128 0.74400002 4285280558
0.00064802408 0.0084243128 0.74400002 4285480242
0.0019440722 0.0084243128 0.74400002 4285546035
0.0032401201 0.0084243128 0.74400002 4286796863
0.0045361686 0.0084243128 0.74400002 4287520587
0.0058322162 0.0084243128 0.74400002 4288115553
0.0071186838 0.0084129898 0.74300003 4289102448
0.0084129898 0.0084129898 0.74300003 4288578180
0.0097072963 0.0084129898 0.74300003 4288381058
0.010971989 0.0083903437 0.74100006 4287068021
0.012262811 0.0083903437 0.74100006 4285555039
0.013553632 0.0083903437 0.74100006 4286735727
0.014844455 0.0083903437 0.74100006 4288380552
0.016135277 0.0083903437 0.74100006 4288644224
0.017473133 0.0084129898 0.74300003 4288578430
0.018767439 0.0084129898 0.74300003 4288315515
0.023815755 0.0083676977 0.73900002 4287722361
0.025103094 0.0083676977 0.73900002 4287985276
0.026390431 0.0083676977 0.73900002 4288446081
0.027677769 0.0083676977 0.73900002 4288643460
0.028965108 0.0083676977 0.73900002 4287463311
0.030252445 0.0083676977 0.73900002 4283515731
0.031539787 0.0083676977 0.73900002 4281552482
0.032827124 0.0083676977 0.73900002 4280565587
0.034114458 0.0083676977 0.73900002 4280694093
0.035401799 0.0083676977 0.73900002 4286286498
0.036689136 0.0083676977 0.73900002 4289504428
0.037976474 0.0083676977 0.73900002 4292201940
0.039370079 0.0083903437 0.74100006 4292265153
-0.052363656 0.0099424664 0.76100004 4292793298
-0.051037993 0.0099424664 0.76100004 4284042829
-0.049712334 0.0099424664 0.76100004 4278595668
-0.048259504 0.0099163363 0.75900006 4280043114
-0.046937324 0.0099163363 0.75900006 4282795086
-0.045494948 0.0098902062 0.75700003 4283321430
-0.044176254 0.0098902062 0.75700003 4286867274
-0.042857558 0.0098902062 0.75700003 4289235822
-0.041538864 0.0098902062 0.75700003 4289364871
-0.040220171 0.0098902062 0.75700003 4288904320
-0.038850091 0.0098771406 0.75600004 4288576632
-0.037533138 0.0098771406 0.75600004 4288642681
-0.036120374 0.0098510114 0.75400001 4288577665
-0.034806907 0.0098510114 0.75400001 4287985528
-0.033493433 0.0098510114 0.75400001 4287129186
-0.032094613 0.0098248813 0.75200003 4286339926
-0.030784627 0.0098248813 0.75200003 4286602088
-0.029474642 0.0098248813 0.75200003 4286733930
-0.028127208 0.0098118158 0.75100005 4286995791
-0.026818965 0.0098118158 0.75100005 4287324756
-0.025510723 0.0098118158 0.75100005 4287128423
-0.024202481 0.0098118158 0.75100005 4287062629
-0.022894237 0.0098118158 0.75100005 4287326069
-0.021585995 0.0098118158 0.75100005 4287786620
-0.020277753 0.0098118158 0.75100005 4287655782
-0.018918993 0.0097856857 0.74900001 4287392866
-0.017614234 0.0097856857 0.74900001 4287590239
-0.016309476 0.0097856857 0.74900001 4288050790
-0.015004719 0.0097856857 0.74900001 4287788387
-0.01369996 0.0097856857 0.74900001 4287985767
-0.012362105 0.0097595565 0.74700004 4287589487
-0.01106083 0.0097595565 0.74700004 4287260522
-0.0097595565 0.0097595565 0.74700004 4287327073
-0.0084469598 0.009746491 0.74600005 4287327073
-0.0071474267 0.009746491 0.74600005 4287325024
-0.0058478951 0.009746491 0.74600005 4287259231
-0.0045483625 0.009746491 0.74600005 4287586908
-0.0032488303 0.009746491 0.74600005 4287718495
-0.0019492983 0.009746491 0.74600005 4287588192
-0.00064976607 0.009746491 0.74600005 4288114536
0.00064976607 0.009746491 0.74600005 4288115822
0.0019492983 0.009746491 0.74600005 4288773495
0.0032488303 0.009746491 0.74600005 4288381040
0.0045483625 0.009746491 0.74600005 4288249455
0.0058322162 0.0097203609 0.74400002 4288249459
0.0071282643 0.0097203609 0.74400002 4288446581
0.0084243128 0.0097203609 0.74400002 4288315263
0.0097203609 0.0097203609 0.74400002 4287854712
0.011001602 0.0097072963 0.74300003 4287591533
0.012295908 0.0097072963 0.74300003 4287591533
0.013590215 0.0097072963 0.74300003 4287656563
0.01488452 0.0097072963 0.74300003 4288051321
0.016178826 0.0097072963 0.74300003 4288444784
0.017496651 0.0097203609 0.74400002 4288378991
0.018792698 0.0097203609 0.74400002 4288183411
0.020088745 0.0097203609 0.74400002 4288249205
0.021384794 0.0097203609 0.74400002 4288050810
0.022680841 0.0097203609 0.74400002 4288050810
0.023944663 0.0097072963 0.74300003 4287854712
0.026461855 0.0096811661 0.74100006 4287724922
0.027752677 0.0096811661 0.74100006 4286343269
0.029043498 0.0096811661 0.74100006 4284440919
0.030252445 0.009655036 0.73900002 4282861887
0.031539787 0.009655036 0.73900002 4281684332
0.032827124 0.009655036 0.73900002 4280434008
0.034114458 0.009655036 0.73900002 4279907149
0.035401799 0.009655036 0.73900002 4285697189
0.036689136 0.009655036 0.73900002 4289765800
0.037976474 0.009655036 0.73900002 4292726742
