# .PCD v0.7 - Point Cloud Data file format
VERSION 0.7
FIELDS x y z
SIZE 4 4 4
TYPE F F F
COUNT 1 1 1
WIDTH 1332
HEIGHT 1
VIEWPOINT 0 0 0 1 0 0 0
POINTS 1332
DATA ascii
-0.035540931 -0.023261197 0.80487061
-0.033834286 -0.025443804 0.80683923
-0.031791463 -0.027541427 0.80874121
-0.029355954 -0.029450197 0.81048626
-0.026493419 -0.031065093 0.81198263
-0.023219395 -0.032282207 0.81313819
-0.019615667 -0.03302392 0.81388241
-0.015812252 -0.033268321 0.81419271
-0.011936887 -0.033053786 0.81409979
-0.0080705043 -0.0324536 0.81366628
-0.0042269882 -0.031544033 0.81295919
-0.00030463602 -0.030370388 0.81202102
0.001689655 -0.02970906 0.81148702
0.022180831 -0.0014303946 0.78704065
0.023058211 -0.0031314793 0.78856367
0.024080489 -0.005549178 0.79072279
0.024796648 -0.0081025315 0.7929939
0.025066938 -0.010755086 0.79534155
0.024765143 -0.013456981 0.79771847
0.023799129 -0.016130613 0.80005395
0.022146491 -0.018677969 0.80226088
0.019871633 -0.02101035 0.80426264
0.017096873 -0.023080235 0.80602032
0.013947968 -0.024889914 0.80753905
0.010509267 -0.0264819 0.80885845
0.006758152 -0.027944211 0.81005561
0.0047872602 -0.028644985 0.81062502
0.018211059 0.016830066 0.79795557
0.017137751 0.018422017 0.79652399
0.015466756 0.02055903 0.79459649
0.013466606 0.022612834 0.79273421
0.011081973 0.024481732 0.79102558
0.0082792342 0.026062895 0.7895605
0.0050736042 0.027254585 0.78842908
0.0015451562 0.027980801 0.78770041
-0.0021788087 0.028220095 0.78739655
-0.0059732189 0.028010042 0.78748757
-0.0097588338 0.027422396 0.78791201
-0.013522061 0.026531829 0.78860432
-0.017362477 0.025382701 0.78952289
-0.019315109 0.024735186 0.79004574
-0.039378233 -0.0029527519 0.81398141
-0.040237289 -0.0012872032 0.81249022
-0.041238211 0.0010799911 0.81037623
-0.041939408 0.0035800068 0.8081525
-0.042204052 0.0061771525 0.80585396
-0.041908562 0.0088226059 0.80352664
-0.04096273 0.011440388 0.80123997
-0.039344613 0.013934528 0.79907912
-0.037117276 0.016218187 0.7971192
-0.034400478 0.018244836 0.79539824
-0.031317353 0.020016709 0.79391128
-0.027950482 0.021575442 0.79261941
-0.024277728 0.023007205 0.79144722
-0.022348007 0.02369334 0.79088974
-0.03643347 -0.0079169152 0.81843561
-0.035360161 -0.009508865 0.81986719
-0.033689167 -0.011645879 0.82179469
-0.031689014 -0.013699684 0.82365698
-0.029304381 -0.01556858 0.8253656
-0.026501644 -0.017149743 0.82683069
-0.023296013 -0.018341433 0.8279621
-0.019767566 -0.019067649 0.82869077
-0.016043602 -0.019306945 0.82899457
-0.01224919 -0.01909689 0.82890362
-0.0084635755 -0.018509245 0.82847917
-0.0047003487 -0.017618677 0.82778686
-0.00085993181 -0.016469549 0.8268683
0.0010926995 -0.015822036 0.82634544
0.021155823 0.011865903 0.80240971
0.022014881 0.010200354 0.80390096
0.023015801 0.0078331605 0.8060149
0.023716999 0.0053331442 0.80823863
0.023981644 0.0027359985 0.81053722
0.023686154 9.0545538e-05 0.81286448
0.022740321 -0.0025272367 0.81515121
0.021122204 -0.0050213779 0.81731206
0.018894866 -0.0073050372 0.81927198
0.01617807 -0.0093316855 0.82099289
0.013094943 -0.011103558 0.8224799
0.0097280741 -0.01266229 0.82377172
0.0060553183 -0.014094054 0.8249439
0.0041255974 -0.014780188 0.82550144
0.017181063 0.026866896 0.80998367
0.016136732 0.028415866 0.80859071
0.014510853 0.030495184 0.80671525
0.012564702 0.032493539 0.80490327
0.010244451 0.034311976 0.80324078
0.007517383 0.03585045 0.80181521
0.0043982989 0.037009969 0.80071437
0.00096511462 0.037716579 0.80000538
-0.0026583089 0.037949413 0.79970974
-0.0063502761 0.037745029 0.79979825
-0.010033686 0.037173249 0.80021125
-0.013695311 0.036306724 0.80088484
-0.017432041 0.035188623 0.80177867
-0.019331954 0.034558591 0.8022874
-0.038853403 0.0076181847 0.82557684
-0.039689265 0.0092387665 0.82412589
-0.040663168 0.011542049 0.82206899
-0.041345432 0.013974569 0.81990534
-0.041602932 0.016501594 0.8176688
-0.041315421 0.019075625 0.81540436
-0.040395122 0.02162273 0.81317937
-0.038820691 0.024049534 0.81107688
-0.036653489 0.026271539 0.80916989
-0.034010042 0.028243469 0.80749542
-0.031010156 0.029967505 0.80604857
-0.027734187 0.031484153 0.80479157
-0.02416059 0.032877259 0.80365103
-0.022282969 0.033544872 0.80310857
-0.035988145 0.0027880464 0.82991076
-0.034943812 0.0012390771 0.83130372
-0.033317935 -0.00084024057 0.83317918
-0.031371783 -0.0028385965 0.83499116
-0.029051533 -0.0046570352 0.83665365
-0.026324464 -0.0061955093 0.83807921
-0.023205381 -0.007355025 0.83918005
-0.019772196 -0.0080616353 0.83988905
-0.016148772 -0.0082944687 0.84018469
-0.012456805 -0.0080900863 0.84009618
-0.0087733958 -0.0075183064 0.83968318
-0.0051117707 -0.0066517829 0.83900958
-0.00137504 -0.0055336794 0.83811581
0.00052487309 -0.0049036476 0.83760703
0.020046324 0.022036757 0.81431758
0.020882186 0.020416176 0.81576854
0.021856084 0.018112894 0.81782544
0.022538351 0.015680373 0.81998914
0.02279585 0.013153347 0.82222563
0.022508338 0.010579318 0.82449007
0.021588041 0.0080322111 0.82671505
0.02001361 0.0056054089 0.82881755
0.017846409 0.0033834046 0.83072454
0.01520296 0.0014114731 0.83239907
0.012203074 -0.00031256265 0.83384591
0.008927105 -0.0018292107 0.83510286
0.0053535085 -0.0032223184 0.83624339
0.0034758872 -0.0038899286 0.83678585
0.016162772 0.03418123 0.81898385
0.015149943 0.035683479 0.81763291
0.013573104 0.037700076 0.81581402
0.011685655 0.039638154 0.81405669
0.009435392 0.041401744 0.81244433
0.0067905784 0.042893812 0.8110618
0.0037655777 0.044018354 0.8099941
0.0004359484 0.044703651 0.8093065
-0.0030781808 0.044929463 0.8090198
-0.006658786 0.044731244 0.80910563
-0.010231092 0.044176713 0.80950618
-0.013782271 0.043336324 0.8101595
-0.01740629 0.042251948 0.81102628
-0.019248895 0.041640919 0.81151968
-0.038181517 0.015513123 0.83410668
-0.038992167 0.017084822 0.83269948
-0.039936688 0.019318631 0.83070463
-0.040598374 0.021677777 0.82860619
-0.04084811 0.02412858 0.82643718
-0.040569268 0.02662497 0.82424098
-0.03967673 0.029095246 0.82208318
-0.038149789 0.031448849 0.8200441
-0.036047958 0.033603832 0.81819457
-0.033484243 0.035516281 0.81657064
-0.030574845 0.037188314 0.81516743
-0.02739769 0.038659215 0.81394833
-0.023931883 0.040010303 0.81284225
-0.022110898 0.040657777 0.81231612
-0.035402682 0.010828677 0.83830988
-0.034389853 0.0093264291 0.83966082
-0.032813013 0.0073098307 0.84147972
-0.030925564 0.0053717522 0.84323698
-0.028675301 0.003608163 0.84484935
-0.026030488 0.0021160946 0.84623194
-0.023005487 0.00099155342 0.84729958
-0.019675858 0.00030625737 0.84798717
-0.016161729 8.0444639e-05 0.84827387
-0.012581123 0.00027866382 0.84818804
-0.0090088174 0.00083319686 0.8477875
-0.0054576378 0.0016735833 0.84713423
-0.0018336192 0.0027579609 0.8462674
8.986397e-06 0.0033689891 0.84577399
0.018941607 0.029496785 0.82318699
0.019752257 0.027925085 0.8245942
0.02069678 0.025691276 0.82658905
0.021358466 0.02333213 0.82868749
0.0216082 0.020881329 0.83085656
0.021329358 0.018384939 0.83305269
0.02043682 0.015914662 0.8352105
0.018909881 0.013561059 0.83724964
0.01680805 0.011406076 0.83909911
0.014244335 0.0094936257 0.8407231
0.011334935 0.0078215925 0.84212631
0.0081577804 0.0063506914 0.84334534
0.0046919747 0.0049996041 0.84445149
0.0028709883 0.0043521314 0.84497756
0.015174104 0.039611828 0.82587004
0.014193684 0.041066002 0.82456231
0.012667305 0.043018069 0.82280165
0.010840257 0.044894129 0.82110059
0.0086620012 0.046601281 0.81953979
0.0061018243 0.048045602 0.81820148
0.0031736239 0.049134158 0.817168
-4.9454622e-05 0.049797524 0.81650239
-0.0034511315 0.050016109 0.81622487
-0.0069171549 0.049824234 0.81630796
-0.010375146 0.049287446 0.81669569
-0.013812685 0.048473954 0.8173281
-0.017320735 0.047424275 0.81816715
-0.019104376 0.0468328 0.81864476
-0.037431147 0.021541106 0.84050894
-0.038215853 0.02306251 0.83914679
-0.039130151 0.025224837 0.83721578
-0.039770667 0.027508488 0.83518451
-0.040012404 0.029880865 0.83308488
-0.039742488 0.032297369 0.83095896
-0.038878512 0.034688596 0.82887024
-0.037400436 0.036966883 0.82689637
-0.035365861 0.039052904 0.82510608
-0.032884188 0.040904153 0.82353407
-0.030067891 0.042522684 0.82217574
-0.026992405 0.043946516 0.82099569
-0.023637507 0.045254368 0.81992501
-0.021874793 0.045881119 0.81941575
-0.034741234 0.017006563 0.84457761
-0.033760816 0.015552389 0.84588534
-0.032234434 0.013600321 0.84764606
-0.030407388 0.011724262 0.84934711
-0.028229132 0.010017109 0.85090786
-0.025668954 0.008572787 0.85224617
-0.022740755 0.0074842321 0.85327971
-0.019517675 0.006820865 0.85394531
-0.016115999 0.0066022803 0.85422283
-0.012649976 0.0067941556 0.85413969
-0.0091919852 0.0073309429 0.85375202
-0.0057544447 0.0081444373 0.85311961
-0.0022463955 0.0091941133 0.8522805
-0.00046275422 0.0097855888 0.85180295
0.017864015 0.035077285 0.82993871
0.018648723 0.03355588 0.83130091
0.019563021 0.031393554 0.83323193
0.020203535 0.029109901 0.83526319
0.020445274 0.026737524 0.83736283
0.020175358 0.024321022 0.83948869
0.01931138 0.021929795 0.84157747
0.017833304 0.019651508 0.84355134
0.015798731 0.017565487 0.84534162
0.013317057 0.015714236 0.84691364
0.01050076 0.014095707 0.84827197
0.0074252742 0.012671876 0.84945196
0.004070377 0.011364023 0.8505227
0.0023076627 0.01073727 0.85103196
0.014212986 0.043753199 0.83130312
0.013265318 0.045158796 0.83003908
0.011789929 0.047045652 0.82833719
0.010023916 0.048859041 0.82669294
0.0079184277 0.050509166 0.82518435
0.0054437746 0.051905237 0.82389075
0.0026133945 0.052957427 0.82289177
-0.00050201337 0.053598635 0.8222484
-0.0037900547 0.053809918 0.82198012
-0.0071402914 0.053624455 0.82206047
-0.010482765 0.053105596 0.8224352
-0.013805469 0.052319277 0.82304651
-0.017196327 0.051304668 0.82385755
-0.018920386 0.050732952 0.82431918
-0.036634929 0.026286151 0.84545296
-0.037393425 0.027756732 0.8441363
-0.038277179 0.029846823 0.84226984
-0.038896296 0.03205419 0.8403064
-0.039129961 0.034347311 0.83827692
-0.038869057 0.03668309 0.83622205
-0.038033944 0.038994435 0.83420306
-0.036605246 0.041196615 0.83229512
-0.03463864 0.04321295 0.83056462
-0.032239869 0.04500236 0.82904518
-0.029517651 0.046566818 0.82773221
-0.026544906 0.047943085 0.82659161
-0.023302082 0.049207248 0.82555664
-0.021598253 0.049813062 0.82506442
-0.034034878 0.02190309 0.84938574
-0.033087209 0.020497493 0.85064977
-0.031611823 0.018610638 0.85235167
-0.029845808 0.01679725 0.85399592
-0.02774032 0.015147126 0.85550451
-0.025265666 0.013751054 0.85679811
-0.022435287 0.012698864 0.85779709
-0.019319879 0.012057656 0.85844046
-0.016031837 0.011846374 0.85870874
-0.012681601 0.012031838 0.85862839
-0.0093391277 0.012550695 0.85825366
-0.0060164221 0.013337013 0.85764235
-0.0026255636 0.014351625 0.85683131
-0.00090150646 0.01492334 0.85636967
0.016813038 0.039370142 0.83523589
0.017571531 0.037899561 0.83655256
0.018455287 0.035809468 0.83841902
0.019074403 0.033602104 0.84038246
0.019308068 0.031308979 0.84241194
0.019047167 0.028973201 0.84446681
0.018212052 0.026661856 0.84648579
0.016783353 0.024459679 0.84839374
0.014816746 0.022443341 0.85012424
0.012417976 0.020653933 0.85164374
0.00969576 0.019089473 0.85295665
0.0067230142 0.017713208 0.85409725
0.0034801899 0.016449045 0.85513222
0.0017763616 0.015843229 0.85562444
0.013274374 0.046975676 0.83569789
0.01235959 0.048332497 0.83447772
0.010935396 0.050153881 0.83283496
0.0092306631 0.051904343 0.83124775
0.0071982341 0.05349721 0.82979143
0.0048094513 0.054844838 0.82854277
0.0020772847 0.055860519 0.82757843
-0.00093002152 0.056479476 0.8269574
-0.0041039684 0.056683429 0.82669842
-0.0073379534 0.056504399 0.82677597
-0.010564444 0.056003548 0.82713771
-0.013771853 0.055244513 0.82772779
-0.017045051 0.054265108 0.8285107
-0.018709283 0.053713232 0.82895631
-0.035809141 0.030114723 0.84935677
-0.036541317 0.031534277 0.84808582
-0.037394404 0.033551842 0.84628409
-0.037992038 0.035682611 0.84438878
-0.038217593 0.037896167 0.8424297
-0.037965745 0.040150892 0.84044617
-0.037159611 0.042382035 0.83849722
-0.035780486 0.044507802 0.8366555
-0.033882119 0.046454169 0.83498508
-0.031566586 0.048181485 0.83351827
-0.028938828 0.049691658 0.83225095
-0.026069237 0.051020171 0.83114988
-0.022938937 0.052240469 0.83015084
-0.021294231 0.052825261 0.82967567
-0.033299308 0.025883755 0.85315311
-0.032384526 0.024526931 0.85437328
-0.030960331 0.022705548 0.85601604
-0.029255597 0.020955084 0.85760325
-0.02722317 0.019362219 0.85905951
-0.024834387 0.018014589 0.86030823
-0.02210222 0.016998908 0.86127257
-0.019094914 0.016379952 0.86189359
-0.015920967 0.016176 0.86215258
-0.012686981 0.01635503 0.86207503
-0.0094604911 0.016855882 0.86171329
-0.0062530818 0.017614914 0.8611232
-0.0029798846 0.018594321 0.8603403
-0.0013156518 0.019146198 0.85989463
0.015784206 0.042744704 0.83949417
0.01651638 0.041325152 0.84076518
0.01736947 0.039307587 0.84256691
0.017967101 0.037176818 0.84446222
0.018192658 0.034963261 0.8464213
0.01794081 0.032708537 0.84840482
0.017134676 0.030477392 0.85035378
0.015755551 0.028351629 0.85219544
0.013857184 0.026405258 0.85386592
0.011541651 0.024677942 0.85533267
0.0089138942 0.023167768 0.85660005
0.0060443021 0.021839257 0.85770112
0.0029140022 0.020618962 0.85870016
0.0012692955 0.020034168 0.85917532
0.012353768 0.04951486 0.83931953
0.011471915 0.050822835 0.83814329
0.010098994 0.052578647 0.83655965
0.0084556304 0.054266095 0.8350296
0.0064963703 0.055801619 0.83362573
0.0041935844 0.057100732 0.83242196
0.0015597738 0.058079846 0.83149236
-0.0013392669 0.058676522 0.8308937
-0.0043989508 0.058873132 0.83064407
-0.0075165126 0.058700547 0.83071882
-0.010626849 0.058217723 0.83106756
-0.013718791 0.057486016 0.83163637
-0.016874153 0.056541871 0.83239108
-0.018478472 0.056009863 0.83282065
-0.034962732 0.033260904 0.85248673
-0.035668548 0.034629352 0.8512615
-0.036490928 0.036574285 0.84952462
-0.037067045 0.038628347 0.84769756
-0.037284482 0.040762212 0.84580898
-0.037041701 0.04293577 0.84389687
-0.036264583 0.045086592 0.84201807
-0.034935109 0.047135826 0.84024268
-0.033105087 0.049012128 0.83863235
-0.030872909 0.050677259 0.8372184
-0.028339753 0.052133065 0.83599663
-0.025573466 0.053413752 0.83493525
-0.022555858 0.054590117 0.83397216
-0.020970361 0.055153858 0.83351409
-0.032543257 0.02918225 0.85614634
-0.031661402 0.027874272 0.85732257
-0.030288482 0.026118461 0.85890627
-0.028645119 0.024431014 0.86043632
-0.026685858 0.022895491 0.86184013
-0.024383072 0.021596376 0.8630439
-0.021749262 0.020617262 0.8639735
-0.01885022 0.020020587 0.86457217
-0.015790537 0.019823978 0.86482179
-0.012672976 0.019996563 0.86474705
-0.0095626395 0.020479385 0.86439836
-0.006470697 0.021211091 0.86382949
-0.0033153358 0.022155238 0.86307478
-0.0017110155 0.022687247 0.86264521
0.014773244 0.045436203 0.84297919
0.015479061 0.044067755 0.84420437
0.016301438 0.042122822 0.84594125
0.016877556 0.040068761 0.84776831
0.017094994 0.037934896 0.84965688
0.016852213 0.035761338 0.851569
0.016075095 0.033610515 0.85344779
0.014745621 0.031561282 0.85522318
0.012915597 0.029684981 0.85683352
0.010683421 0.028019849 0.85824746
0.0081502646 0.026564041 0.85946923
0.0053839786 0.025283357 0.86053061
0.0023663703 0.024106992 0.86149371
0.00078087329 0.02354325 0.86195177
0.011447606 0.051527947 0.84234536
0.010598702 0.052787054 0.84121311
0.0092770737 0.054477267 0.8396886
0.0076951096 0.056101669 0.83821571
0.0058090491 0.057579823 0.83686429
0.0035922984 0.058830399 0.83570552
0.0010568928 0.059772935 0.83481061
-0.0017338366 0.060347315 0.8342343
-0.0046792063 0.060536578 0.83399403
-0.0076802913 0.060370442 0.83406597
-0.01067442 0.059905659 0.83440167
-0.013650843 0.059201293 0.83494925
-0.016688315 0.058292419 0.83567578
-0.018232696 0.057780284 0.83608931
-0.03410108 0.035881266 0.85502058
-0.034780525 0.037198585 0.85384113
-0.035572179 0.039070852 0.85216916
-0.03612677 0.041048173 0.8504104
-0.036336083 0.043102313 0.8485924
-0.036102373 0.045194663 0.84675169
-0.035354294 0.047265127 0.84494311
-0.034074489 0.049237799 0.843234
-0.032312836 0.051043998 0.84168386
-0.030164059 0.05264692 0.84032273
-0.027725544 0.054048333 0.83914661
-0.025062611 0.05528117 0.83812487
-0.022157745 0.056413587 0.83719778
-0.020631485 0.056956265 0.83675683
-0.031771999 0.031954993 0.85854352
-0.030923095 0.030695885 0.85967577
-0.029601464 0.029005673 0.86120027
-0.028019501 0.027381269 0.86267316
-0.02613344 0.025903117 0.86402458
-0.02391669 0.024652541 0.86518335
-0.021381285 0.023710005 0.86607826
-0.018590555 0.023135623 0.86665457
-0.015645185 0.02294636 0.86689484
-0.0126441 0.023112496 0.8668229
-0.0096499715 0.02357728 0.86648721
-0.0066735484 0.024281649 0.86593962
-0.0036360756 0.025190521 0.8652131
-0.0020916956 0.025702655 0.86479956
0.013776687 0.047601677 0.84586829
0.014456134 0.046284355 0.84704775
0.015247785 0.044412088 0.84871972
0.01580238 0.042434767 0.85047847
0.016011693 0.040380627 0.85229647
0.015777981 0.038288277 0.85413718
0.015029902 0.036217812 0.85594577
0.013750097 0.034245141 0.85765487
0.011988445 0.032438941 0.85920501
0.009839667 0.030836022 0.86056614
0.0074011525 0.029434606 0.86174226
0.0047382191 0.028201768 0.862764
0.0018333532 0.027069354 0.86369109
0.00030709238 0.026526675 0.86413205
0.010553124 0.053124748 0.84489954
0.0097371694 0.054334987 0.84381121
0.0084668389 0.055959594 0.84234589
0.0069462769 0.057520948 0.84093016
0.0051334216 0.058941726 0.8396312
0.0030027132 0.060143765 0.83851743
0.00056571583 0.061049715 0.83765727
-0.0021166941 0.061601803 0.83710331
-0.0049477415 0.06178372 0.83687234
-0.0078323418 0.061624032 0.83694154
-0.010710257 0.061177287 0.83726418
-0.013571152 0.06050026 0.83779049
-0.01649073 0.059626665 0.83848882
-0.017975165 0.059134409 0.83888632
-0.033227634 0.038085375 0.85708278
-0.033880707 0.039351568 0.8559491
-0.034641631 0.041151162 0.85434204
-0.035174698 0.043051735 0.85265154
-0.035375886 0.04502615 0.85090411
-0.035151251 0.047037285 0.8491348
-0.034432203 0.049027387 0.84739643
-0.033202074 0.050923493 0.84575373
-0.0315088 0.052659582 0.84426373
-0.029443424 0.054200288 0.84295541
-0.027099557 0.055547308 0.84182495
-0.024539983 0.056732293 0.8408429
-0.021747867 0.057820756 0.83995175
-0.020280847 0.058342371 0.8395279
-0.030988952 0.034311499 0.86046898
-0.030172998 0.033101264 0.8615573
-0.028902667 0.031476654 0.86302263
-0.027382106 0.029915301 0.86443835
-0.025569249 0.028494522 0.86573732
-0.023438541 0.027292484 0.86685109
-0.021001544 0.026386533 0.86771125
-0.018319134 0.025834447 0.86826521
-0.015488086 0.025652528 0.86849618
-0.012603486 0.025812216 0.86842698
-0.0097255707 0.026258959 0.86810434
-0.0068646753 0.026935989 0.86757803
-0.0039450992 0.027809585 0.8668797
-0.0024606625 0.028301841 0.8664822
0.012791805 0.049350873 0.84828573
0.013444879 0.04808468 0.84941936
0.014205804 0.046285085 0.85102648
0.014738872 0.044384513 0.85271698
0.01494006 0.042410102 0.85446441
0.014715421 0.040398963 0.85623366
0.013996376 0.038408864 0.85797209
0.012766246 0.036512759 0.85961479
0.01107297 0.034776665 0.86110479
0.0090075955 0.03323596 0.86241311
0.0066637299 0.031888939 0.86354357
0.0041041556 0.030703954 0.86452562
0.0013120389 0.029615493 0.86541677
-0.00015498122 0.029093876 0.86584055
0.0096681472 0.054385178 0.84707254
0.0088851415 0.055546548 0.84602815
0.0076661077 0.057105552 0.84462202
0.006206946 0.058603857 0.84326345
0.0044672946 0.059967265 0.84201694
0.002422624 0.061120763 0.8409481
8.4033643e-05 0.061990134 0.8401227
-0.002490059 0.06251993 0.83959115
-0.005206788 0.062694497 0.83936948
-0.0079749078 0.062541261 0.83943588
-0.010736612 0.062112559 0.83974552
-0.013481984 0.061462864 0.84025055
-0.016283667 0.060624547 0.84092069
-0.017708162 0.060152169 0.84130216
-0.032344729 0.039953101 0.85876381
-0.032971434 0.041168161 0.85767597
-0.033701632 0.04289509 0.85613376
-0.034213174 0.044718917 0.8545115
-0.034406237 0.046613604 0.85283464
-0.03419067 0.048543528 0.8511368
-0.03350066 0.050453268 0.84946859
-0.032320205 0.052272808 0.84789222
-0.030695304 0.053938799 0.84646237
-0.028713329 0.055417288 0.84520692
-0.026464108 0.056709915 0.84412211
-0.02400789 0.057847053 0.8431797
-0.02132852 0.058891561 0.84232455
-0.01992074 0.059392113 0.84191781
-0.030196447 0.036331616 0.86201328
-0.029413443 0.035170246 0.86305767
-0.028194409 0.033611242 0.86446381
-0.026735246 0.032112937 0.86582237
-0.024995595 0.03074953 0.86706889
-0.022950925 0.029596031 0.86813772
-0.020612335 0.028726662 0.86896312
-0.018038241 0.028196868 0.86949468
-0.015321513 0.028022295 0.86971635
-0.012553392 0.028175535 0.86964995
-0.0097916881 0.028604237 0.8693403
-0.0070463168 0.02925393 0.86883527
-0.0042446335 0.030092249 0.86816514
-0.0028201384 0.030564627 0.86778367
0.011816429 0.050763693 0.85032201
0.012443133 0.049548633 0.85140985
0.013173332 0.047821704 0.85295206
0.013684873 0.045997877 0.85457432
0.013877938 0.044103194 0.85625118
0.013662369 0.042173266 0.85794902
0.01297236 0.040263526 0.85961717
0.011791904 0.038443986 0.8611936
0.010167003 0.036777996 0.86262339
0.0081850281 0.035299506 0.86387891
0.0059358086 0.034006879 0.86496371
0.0034795902 0.032869741 0.86590612
0.00080022035 0.031825233 0.86676127
-0.00060756097 0.031324681 0.86716795
0.0087909345 0.055369414 0.84893262
0.008040878 0.056481909 0.84793216
0.0068731424 0.057975315 0.84658515
0.0054753819 0.059410568 0.84528381
0.0038089375 0.060716603 0.84408975
0.0018503075 0.061821561 0.84306586
-0.0003898736 0.062654346 0.8422752
-0.0028556476 0.06316185 0.841766
-0.0054580555 0.063329071 0.84155369
-0.0081096916 0.063182279 0.84161729
-0.010755182 0.062771618 0.84191388
-0.013385027 0.062149268 0.84239769
-0.016068814 0.061346225 0.84303963
-0.017433366 0.060893726 0.84340501
-0.031454019 0.041544646 0.86013192
-0.03205435 0.042708576 0.85908979
-0.032753821 0.044362836 0.85761249
-0.033243835 0.046109915 0.85605854
-0.033428777 0.047924869 0.85445219
-0.03322228 0.049773581 0.85282582
-0.032561306 0.05160296 0.85122782
-0.031430524 0.053345934 0.8497178
-0.029874001 0.054941818 0.84834814
-0.027975429 0.056358092 0.8471455
-0.025820857 0.057596326 0.84610635
-0.023467997 0.058685608 0.84520358
-0.020901378 0.059686165 0.84438443
-0.019552836 0.060165655 0.8439948
-0.029396137 0.038075555 0.86324459
-0.02864608 0.036963057 0.86424506
-0.027478345 0.035469655 0.86559206
-0.026080584 0.034034401 0.86689341
-0.024414141 0.032728363 0.86808747
-0.02245551 0.031623404 0.8691113
-0.020215329 0.03079062 0.86990201
-0.017749555 0.030283121 0.87041122
-0.015147147 0.030115895 0.87062353
-0.012495511 0.030262686 0.87055993
-0.0098500205 0.030673349 0.87026334
-0.007220176 0.031295702 0.86977953
-0.0045363884 0.03209874 0.86913759
-0.0031718374 0.032551244 0.86877221
0.010848816 0.051900323 0.8520453
0.011449147 0.05073639 0.85308743
0.012148619 0.049082134 0.85456473
0.012638633 0.047335055 0.85611868
0.012823575 0.045520101 0.85772502
0.012617078 0.043671384 0.8593514
0.011956105 0.041842006 0.8609494
0.010825321 0.040099036 0.86245942
0.0092687979 0.038503151 0.86382908
0.0073702256 0.037086874 0.86503172
0.0052156546 0.035848644 0.86607087
0.0028627948 0.034759358 0.86697364
0.00029617493 0.033758804 0.86779279
-0.0010523666 0.033279315 0.86818242
0.0079200557 0.056124076 0.85053265
0.0072029522 0.057187695 0.84957618
0.0060865218 0.058615483 0.84828836
0.0047501759 0.059987679 0.84704411
0.003156947 0.061236333 0.84590256
0.0012843725 0.062292743 0.84492368
-0.0008573829 0.063088939 0.84416777
-0.0032148208 0.063574143 0.84368092
-0.0057028886 0.063734017 0.8434779
-0.0082380213 0.063593678 0.8435387
-0.010767279 0.063201062 0.8438223
-0.013281578 0.062606052 0.84428483
-0.01584745 0.061838292 0.84489858
-0.017152047 0.06140567 0.84524792
-0.030556686 0.04290672 0.86123991
-0.03113064 0.044019509 0.86024356
-0.03179938 0.045601089 0.85883117
-0.032267869 0.047271404 0.85734546
-0.032444682 0.049006619 0.85580975
-0.032247256 0.050774109 0.85425484
-0.031615324 0.052523106 0.85272706
-0.030534223 0.054189503 0.85128331
-0.029046088 0.055715267 0.84997386
-0.027230931 0.057069317 0.84882402
-0.025171025 0.058253147 0.84783053
-0.022921542 0.059294574 0.84696746
-0.020467687 0.060251165 0.84618425
-0.019178396 0.060709588 0.84581178
-0.028589221 0.039590046 0.86421585
-0.027872117 0.038526427 0.86517233
-0.026755687 0.037098639 0.86646014
-0.025419341 0.035726443 0.86770433
-0.023826113 0.034477793 0.86884594
-0.021953538 0.033421379 0.86982477
-0.019811783 0.032625183 0.87058073
-0.017454345 0.032139983 0.87106752
-0.014966277 0.031980105 0.87127054
-0.012431144 0.032120448 0.87120974
-0.0099018868 0.032513063 0.8709262
-0.0073875873 0.033108074 0.87046361
-0.0048217163 0.033875834 0.86984992
-0.0035171183 0.034308452 0.86950058
0.0098875212 0.052807406 0.85350859
0.010461475 0.051694613 0.85450488
0.011130214 0.050113037 0.85591727
0.011598702 0.048442718 0.85740298
0.011775516 0.046707503 0.85893875
0.011578091 0.044940017 0.86049366
0.010946159 0.043191016 0.86202145
0.0098650577 0.041524623 0.86346513
0.0083769225 0.039998855 0.86477464
0.0065617664 0.038644806 0.86592442
0.0045018587 0.037460975 0.86691791
0.0022523762 0.036419552 0.86778104
-0.00020147777 0.035462957 0.86856419
-0.001490769 0.035004534 0.86893666
0.0070543117 0.056686219 0.85191476
0.0063701752 0.057700943 0.85100228
0.0053050681 0.059063096 0.84977365
0.0040301546 0.060372207 0.84858662
0.0025101686 0.061563458 0.84749752
0.00072367763 0.06257131 0.8465637
-0.0013196184 0.063330896 0.84584248
-0.0035686828 0.063793793 0.84537804
-0.0059423712 0.063946322 0.84518439
-0.0083609605 0.063812435 0.84524238
-0.010773946 0.063437864 0.84551293
-0.01317266 0.062870212 0.84595418
-0.015620575 0.062137745 0.84653974
-0.016865199 0.061725013 0.84687299
-0.029653614 0.044076476 0.86212981
-0.030201184 0.045138113 0.86117929
-0.030839179 0.046646982 0.85983181
-0.031286128 0.048240516 0.85841441
-0.031454816 0.049895957 0.85694927
-0.031266466 0.051582195 0.85546583
-0.030663585 0.05325079 0.85400832
-0.029632183 0.05484058 0.85263097
-0.028212458 0.056296203 0.85138166
-0.026480747 0.057588007 0.85028476
-0.024515536 0.058717415 0.84933692
-0.022369463 0.059710965 0.84851348
-0.020028418 0.060623582 0.84776634
-0.018798396 0.061060932 0.84741098
-0.027776593 0.040912274 0.86496896
-0.027092459 0.039897554 0.86588144
-0.026027352 0.038535401 0.86711007
-0.024752438 0.037226286 0.8682971
-0.023232451 0.036035039 0.8693862
-0.02144596 0.035027191 0.87032002
-0.019402664 0.034267597 0.87104124
-0.0171536 0.0338047 0.87150568
-0.014779911 0.033652171 0.87169933
-0.012361322 0.033786062 0.87164134
-0.0099483375 0.034160633 0.87137079
-0.0075496226 0.034728289 0.87092954
-0.0051017068 0.035460752 0.87034398
-0.0038570827 0.03587348 0.87001073
0.0089313304 0.053522017 0.85475391
0.0094789006 0.052460384 0.85570443
0.010116897 0.050951514 0.85705191
0.010563847 0.04935798 0.85846931
0.010732532 0.047702536 0.85993445
0.010544184 0.046016302 0.86141789
0.0099413022 0.044347703 0.8628754
0.0089099007 0.042757917 0.86425275
0.0074901758 0.041302294 0.86550206
0.0057584648 0.04001049 0.86659896
0.0037932533 0.038881082 0.8675468
0.0016471809 0.037887532 0.86837023
-0.00069386535 0.036974914 0.86911738
-0.0019238868 0.036537565 0.86947274
0.0061926749 0.057085887 0.85311323
0.0055415221 0.058051683 0.85224473
0.0045277672 0.059348162 0.85107535
0.0033143212 0.06059416 0.84994555
0.001867619 0.061727978 0.84890896
0.00016726069 0.062687233 0.84802014
-0.0017775226 0.063410208 0.84733373
-0.0039181523 0.063850783 0.84689164
-0.0061773979 0.063995957 0.84670734
-0.008479381 0.063868523 0.84676254
-0.010776028 0.063512012 0.84702003
-0.013059093 0.062971726 0.84744
-0.015388986 0.062274575 0.84799731
-0.016573604 0.061881743 0.84831452
-0.028745448 0.045084096 0.86283576
-0.029266616 0.046094548 0.86193109
-0.029873854 0.04753067 0.86064857
-0.030299256 0.049047373 0.85929948
-0.03045981 0.050623003 0.85790497
-0.030280542 0.05222794 0.85649306
-0.029706726 0.053816088 0.85510582
-0.028725052 0.05532923 0.85379487
-0.027373778 0.056714673 0.85260582
-0.025725557 0.057944193 0.85156178
-0.023855094 0.059019148 0.85065961
-0.021812491 0.059964798 0.84987593
-0.019584313 0.060833417 0.84916478
-0.018413594 0.061249677 0.84882653
-0.026958926 0.042072449 0.865538
-0.026307773 0.041106652 0.8664065
-0.025294019 0.039810173 0.86757588
-0.024080573 0.038564175 0.86870569
-0.022633871 0.037430357 0.86974227
-0.020933513 0.036471102 0.8706311
-0.018988729 0.035748132 0.87131751
-0.0168481 0.035307553 0.87175959
-0.014588853 0.035162378 0.87194389
-0.012286871 0.035289813 0.8718887
-0.0099902237 0.035646323 0.87163121
-0.0077071586 0.036186609 0.87121123
-0.0053772652 0.03688376 0.87065393
-0.004192648 0.037276592 0.87033671
0.0079791974 0.054074239 0.85581547
0.0085003655 0.053063788 0.85672015
0.0091076028 0.051627666 0.85800266
0.0095330039 0.050110962 0.85935175
0.0096935574 0.048535332 0.86074626
0.0095142908 0.046930395 0.86215812
0.0089404751 0.045342248 0.86354542
0.0079587996 0.04382911 0.86485636
0.0066075251 0.042443663 0.86604542
0.0049593048 0.041214142 0.86708945
0.0030888419 0.040139187 0.86799157
0.0010462386 0.039193541 0.86877531
-0.001181939 0.038324922 0.86948645
-0.0023526575 0.037908658 0.86982471
0.0053342441 0.057347886 0.85415626
0.0047161016 0.058264721 0.8533318
0.0037537403 0.059495475 0.85222167
0.00260181 0.060678307 0.8511492
0.0012284501 0.061754644 0.85016513
-0.0003857094 0.062665269 0.84932137
-0.0022319006 0.063351586 0.84866977
-0.0042640097 0.063769832 0.84825009
-0.0064087221 0.063907646 0.84807509
-0.0085940044 0.063786671 0.84812754
-0.010774222 0.063448235 0.84837198
-0.012941546 0.062935337 0.84877068
-0.015153324 0.062273532 0.84929973
-0.016277887 0.061900616 0.84960085
-0.027832674 0.045954533 0.86338592
-0.028327422 0.046913758 0.86252707
-0.028903875 0.048277076 0.86130959
-0.02930771 0.04971689 0.86002892
-0.029460125 0.051212642 0.8587051
-0.029289944 0.052736215 0.85736477
-0.028745219 0.054243851 0.85604781
-0.027813312 0.055680282 0.85480338
-0.02653054 0.056995492 0.85367459
-0.024965877 0.058162682 0.85268348
-0.023190238 0.059183143 0.85182709
-0.021251185 0.060080849 0.8510831
-0.019135967 0.06090543 0.85040802
-0.018024599 0.061300591 0.85008693
-0.026136721 0.043095563 0.86595118
-0.025518578 0.042178724 0.86677563
-0.024556218 0.040947974 0.86788577
-0.023404287 0.039765142 0.86895823
-0.022030927 0.038688805 0.86994231
-0.020416766 0.03777818 0.87078607
-0.018570576 0.037091859 0.87143767
-0.016538467 0.036673617 0.87185735
-0.014393754 0.0365358 0.87203234
-0.012208473 0.036656775 0.87197989
-0.010028254 0.036995213 0.87173545
-0.0078609306 0.037508108 0.87133676
-0.0056491517 0.038169917 0.87080771
-0.0045245895 0.038542833 0.87050658
0.0070301974 0.054488916 0.85672152
0.0075249453 0.053529691 0.85758036
0.0081013981 0.052166373 0.85879785
0.0085052336 0.050726559 0.86007851
0.0086576482 0.049230807 0.86140233
0.0084874677 0.047707234 0.86274266
0.0079427427 0.046199597 0.86405963
0.0070108348 0.044763166 0.86530405
0.0057280627 0.043447956 0.86643285
0.0041634003 0.042280767 0.86742395
0.0023877618 0.041260306 0.86828035
0.00044870892 0.0403626 0.8690244
-0.0016665101 0.039538015 0.86969948
-0.0027778782 0.039142858 0.87002051
0.0044782031 0.057492986 0.85506767
0.0038931062 0.058360808 0.85428721
0.0029821922 0.059525765 0.8532365
0.001891844 0.060645364 0.85222131
0.00059190165 0.06166416 0.85128987
-0.00093596312 0.062526107 0.85049123
-0.0026834588 0.063175738 0.84987444
-0.0046069324 0.063571617 0.84947723
-0.0066369888 0.063702069 0.84931159
-0.0087054474 0.063587561 0.84936118
-0.010769111 0.063267216 0.84959257
-0.012820571 0.062781736 0.84996998
-0.014914109 0.06215531 0.85047072
-0.015978552 0.061802328 0.85075575
-0.026915625 0.046708718 0.86380386
-0.027383924 0.047616664 0.86299098
-0.027929561 0.048907097 0.86183858
-0.028311806 0.050269939 0.86062634
-0.028456071 0.051685728 0.85937333
-0.028294992 0.053127851 0.85810465
-0.027779385 0.054554895 0.85685807
-0.026897298 0.055914532 0.85568017
-0.025683103 0.057159431 0.85461169
-0.024202086 0.058264222 0.85367358
-0.022521373 0.05923013 0.85286295
-0.02068598 0.060079847 0.85215873
-0.01868384 0.060860347 0.85151976
-0.017631885 0.061234381 0.85121584
-0.025310338 0.044002589 0.86623198
-0.02472524 0.043134764 0.86701238
-0.023814326 0.041969806 0.86806315
-0.022723978 0.040850207 0.86907834
-0.021424036 0.039831411 0.87000978
-0.01989617 0.038969468 0.87080842
-0.018148676 0.038319837 0.87142521
-0.016225202 0.037923954 0.87182242
-0.014195145 0.037793506 0.87198806
-0.012126687 0.037908014 0.87193847
-0.010063022 0.038228359 0.87170708
-0.0080115637 0.038713835 0.87132967
-0.005918025 0.039340265 0.87082893
-0.0048535815 0.039693244 0.8705439
0.0060834917 0.054786857 0.85749578
0.0065517901 0.053878911 0.85830867
0.0070974263 0.052588474 0.85946107
0.0074796728 0.051225632 0.86067331
0.0076239384 0.049809843 0.86192632
0.0074628573 0.04836772 0.863195
0.0069472524 0.046940681 0.86444157
0.0060651633 0.045581039 0.86561948
0.0048509687 0.04433614 0.86668789
0.0033699516 0.043231349 0.86762607
0.0016892385 0.042265441 0.86843669
-0.00014615367 0.041415729 0.86914092
-0.0021482937 0.040635224 0.86977988
-0.0032002483 0.04026119 0.87008381
0.0036238029 0.057538807 0.85586756
0.0030717971 0.058357552 0.85513127
0.0022124001 0.059456624 0.85413992
0.0011837168 0.060512904 0.8531822
-4.2705695e-05 0.061474081 0.85230345
-0.0014841622 0.062287278 0.85154992
-0.0031328262 0.062900163 0.850968
-0.0049475161 0.063273661 0.85059327
-0.0068627619 0.06339673 0.85043705
-0.0088142371 0.063288704 0.85048383
-0.010761189 0.062986471 0.85070211
-0.012696628 0.062528454 0.85105819
-0.014671764 0.061937451 0.85153061
-0.015676007 0.061604433 0.85179949
-0.025994528 0.047364451 0.86410969
-0.026436342 0.048221048 0.86334276
-0.026951117 0.049438503 0.86225551
-0.027311746 0.050724268 0.86111188
-0.027447853 0.052059986 0.85992968
-0.027295882 0.053420551 0.85873276
-0.026809437 0.054766882 0.8575567
-0.025977235 0.056049626 0.85644537
-0.02483171 0.057224117 0.8554374
-0.023434453 0.058266427 0.85455233
-0.021848794 0.059177708 0.85378754
-0.020117205 0.059979368 0.85312313
-0.018228296 0.060715728 0.85252029
-0.017235834 0.061068609 0.85223359
-0.024480026 0.044811368 0.86640048
-0.02392802 0.043992624 0.86713678
-0.023068624 0.042893555 0.86812806
-0.022039941 0.041837275 0.86908585
-0.020813517 0.040876098 0.8699646
-0.019372061 0.040062901 0.87071812
-0.017723398 0.039450012 0.87129998
-0.015908707 0.039076518 0.87167472
-0.013993462 0.038953446 0.871831
-0.012041986 0.039061479 0.87178421
-0.010095035 0.039363705 0.87156594
-0.0081595965 0.039821725 0.87120986
-0.0061844597 0.040412728 0.87073743
-0.0051802164 0.040745746 0.8704685
0.0051383036 0.054985728 0.85815835
0.0055801175 0.054129131 0.85892528
0.0060948944 0.052911676 0.86001247
0.0064555225 0.051625911 0.86115617
0.0065916302 0.050290193 0.8623383
0.0064396579 0.048929628 0.86353523
0.0059532137 0.047583297 0.86471128
0.0051210122 0.046300553 0.86582261
0.0039754868 0.045126058 0.86683065
0.0025782299 0.044083748 0.86771572
0.00099256996 0.043172471 0.8684805
-0.0007390196 0.042370811 0.86914486
-0.0026279278 0.041634452 0.8697477
-0.0036203889 0.04128157 0.87003446
0.0027703294 0.057500429 0.85657328
0.0022514702 0.058270007 0.85588121
0.0014436779 0.059303083 0.85494941
0.00047676521 0.060295936 0.85404921
-0.00067601365 0.061199397 0.8532232
-0.0020309146 0.061963763 0.85251492
-0.0035805809 0.062539846 0.85196799
-0.0052863024 0.062890917 0.85161573
-0.007086542 0.063006595 0.85146886
-0.0089208353 0.062905051 0.85151285
-0.010750879 0.062620975 0.85171801
-0.012570098 0.062190454 0.85205269
-0.014426632 0.061634943 0.85249674
-0.015370573 0.061321922 0.85274953
-0.02506949 0.047937017 0.86432052
-0.025484774 0.048742175 0.8635996
-0.025968641 0.049886525 0.86257768
-0.026307615 0.051095083 0.86150271
-0.026435548 0.052350596 0.8603915
-0.026292702 0.053629462 0.85926646
-0.025835468 0.05489495 0.85816103
-0.025053237 0.056100667 0.85711646
-0.023976497 0.057204634 0.85616899
-0.022663144 0.058184355 0.85533702
-0.021172699 0.059040915 0.85461819
-0.019545086 0.059794437 0.85399371
-0.017769603 0.060486581 0.85342705
-0.016836736 0.06081827 0.85315752
-0.023645932 0.045537241 0.86647373
-0.023127073 0.044767659 0.8671658
-0.022319281 0.043734584 0.8680976
-0.021352367 0.042741735 0.86899787
-0.020199589 0.041838273 0.86982387
-0.018844688 0.041073907 0.8705321
-0.017295022 0.040497821 0.87107903
-0.015589301 0.040146753 0.87143129
-0.013789061 0.040031072 0.87157816
-0.011954767 0.040132616 0.87153417
-0.010124724 0.040416695 0.87132901
-0.0083055049 0.040847216 0.87099433
-0.0064489706 0.041402727 0.87055027
-0.0055050296 0.041715749 0.87029749
0.0041938876 0.055100653 0.8587265
0.0046091718 0.054295491 0.85944742
0.0050930376 0.053151142 0.86046934
0.0054320111 0.051942587 0.86154431
0.0055599459 0.050687075 0.86265552
0.0054170988 0.049408209 0.86378056
0.0049598641 0.04814272 0.86488599
0.0041776346 0.046937 0.86593062
0.0031008953 0.045833036 0.86687809
0.0017875407 0.044853311 0.86770999
0.00029709548 0.043996755 0.86842883
-0.0013305165 0.043243233 0.86905336
-0.0031060001 0.042551089 0.86962003
-0.0040388661 0.042219397 0.8698895
0.0019170856 0.057390846 0.85719991
0.001431442 0.058111157 0.85655218
0.00067536236 0.059078101 0.85567999
-0.00022965221 0.060007393 0.85483742
-0.0013086339 0.060853019 0.85406429
-0.0025767987 0.06156845 0.85340136
-0.0040272605 0.06210766 0.85288942
-0.0056237886 0.062436253 0.85255975
-0.0073087835 0.062544525 0.85242224
-0.009025652 0.062449485 0.85246342
-0.010738541 0.062183589 0.85265547
-0.012441301 0.061780632 0.85296869
-0.014178986 0.061260682 0.85338438
-0.0150625 0.060967699 0.85362095
-0.024140526 0.048439652 0.86445117
-0.024529224 0.049193267 0.86377645
-0.024982115 0.050264359 0.86281991
-0.025299389 0.051395547 0.86181378
-0.025419133 0.052570686 0.86077374
-0.025285432 0.053767685 0.85972071
-0.024857467 0.05495216 0.85868603
-0.024125313 0.056080692 0.85770828
-0.023117503 0.057113986 0.85682148
-0.021888224 0.058030989 0.8560428
-0.020493193 0.058832716 0.85536999
-0.018969774 0.059537999 0.85478544
-0.017307952 0.060185835 0.85425508
-0.016434804 0.060496293 0.85400283
-0.022808097 0.046193499 0.86646658
-0.022322454 0.045473184 0.86711437
-0.021566374 0.044506244 0.8679865
-0.02066136 0.043576952 0.86882913
-0.019582378 0.042731326 0.8696022
-0.018314214 0.042015892 0.87026513
-0.016863752 0.041476686 0.87077707
-0.015267224 0.041148089 0.8711068
-0.01358223 0.041039817 0.87124425
-0.011865361 0.04113486 0.87120306
-0.010152471 0.041400753 0.87101102
-0.0084497118 0.04180371 0.8706978
-0.0067120264 0.04232366 0.87028217
-0.0058285133 0.042616643 0.87004554
0.0032495128 0.055144694 0.85921532
0.0036382119 0.054391079 0.85989004
0.0040911031 0.053319987 0.86084658
0.0044083763 0.052188795 0.86185271
0.0045281206 0.051013656 0.86289281
0.004394419 0.049816661 0.86394584
0.0039664549 0.048632186 0.86498046
0.0032343005 0.047503654 0.86595821
0.0022264903 0.046470359 0.86684501
0.00099721213 0.045553353 0.86762369
-0.00039781956 0.044751629 0.8682965
-0.0019212378 0.044046346 0.86888105
-0.0035830613 0.043398511 0.86941141
-0.0044562081 0.043088052 0.86966366
0.0010633654 0.057221301 0.85776049
0.00061102223 0.057892226 0.85715717
-9.3215443e-05 0.058792867 0.85634482
-0.00093617511 0.059658438 0.85555995
-0.0019411736 0.06044608 0.85483986
-0.0031223823 0.06111246 0.85422242
-0.0044733887 0.061614692 0.85374558
-0.0059604454 0.061920755 0.8534385
-0.0075299041 0.062021606 0.85331041
-0.0091290502 0.061933082 0.85334879
-0.010724491 0.061685417 0.85352767
-0.012310495 0.06131009 0.85381943
-0.013929031 0.060825791 0.85420656
-0.014751963 0.060552899 0.85442692
-0.023207527 0.048883874 0.86451459
-0.023569575 0.049585816 0.86388612
-0.023991412 0.050583463 0.86299515
-0.02428693 0.051637091 0.86205798
-0.024398463 0.052731652 0.86108923
-0.02427393 0.053846572 0.86010844
-0.023875309 0.054949831 0.85914469
-0.023193358 0.056000981 0.85823405
-0.022254651 0.056963429 0.85740799
-0.021109663 0.057817552 0.85668272
-0.019810285 0.058564305 0.85605603
-0.018391324 0.05922123 0.85551161
-0.016843449 0.059824646 0.8550176
-0.016030172 0.060113814 0.85478264
-0.021966461 0.046791736 0.86639178
-0.02151412 0.046120811 0.8669951
-0.020809881 0.04522017 0.86780745
-0.019966921 0.044354599 0.86859232
-0.018961923 0.043566957 0.86931241
-0.017780714 0.042900577 0.86992985
-0.016429707 0.042398345 0.87040669
-0.014942652 0.042092282 0.87071377
-0.013373192 0.041991431 0.87084186
-0.011774046 0.042079955 0.87080348
-0.010178606 0.04232762 0.8706246
-0.0085926019 0.042702947 0.87033284
-0.0069740657 0.043187246 0.8699457
-0.0061511328 0.043460138 0.86972535
0.0023044308 0.055129163 0.85963768
0.0026664783 0.054427221 0.86026615
0.0030883148 0.053429574 0.86115712
0.0033838332 0.052375946 0.86209428
0.003495367 0.051281385 0.86306304
0.0033708329 0.050166465 0.86404383
0.0029722133 0.049063206 0.86500758
0.0022902619 0.048012055 0.86591822
0.0013515546 0.047049608 0.86674428
0.00020656569 0.046195485 0.86746955
-0.0010928116 0.045448732 0.86809623
-0.0025117719 0.044791806 0.86864066
-0.0040596472 0.044188391 0.86913466
-0.0048729242 0.043899223 0.86936963
0.00020842637 0.057001576 0.85826653
-0.00021051579 0.057622958 0.85770774
-0.00086275116 0.058457091 0.85695535
-0.0016434649 0.059258752 0.85622847
-0.0025742527 0.05998823 0.85556155
-0.0036682391 0.060605403 0.85498971
-0.0049194861 0.061070554 0.85454804
-0.0062967362 0.061354015 0.85426366
-0.007750303 0.061447419 0.85414505
-0.0092313662 0.061365429 0.85418057
-0.010708996 0.061136056 0.85434622
-0.012177888 0.060788441 0.85461646
-0.013676909 0.060339905 0.85497499
-0.014439075 0.060087163 0.85517907
-0.022270268 0.049279794 0.86452186
-0.022605579 0.049929906 0.86393982
-0.022996267 0.050853886 0.86311466
-0.023269964 0.051829711 0.86224669
-0.023373263 0.052843448 0.86134946
-0.023257926 0.053876042 0.86044109
-0.022888741 0.054897834 0.85954851
-0.022257145 0.055871367 0.8587051
-0.021387754 0.056762744 0.85794008
-0.020327313 0.057553798 0.85726833
-0.019123884 0.058245409 0.8566879
-0.0178097 0.058853827 0.85618371
-0.016376123 0.059412684 0.85572612
-0.015622899 0.059680503 0.85550851
-0.021120844 0.047342144 0.86626047
-0.020701902 0.046720762 0.86681926
-0.020049667 0.045886628 0.86757159
-0.019268952 0.045084968 0.86829847
-0.018338164 0.044355489 0.86896539
-0.017244179 0.043738317 0.86953729
-0.015992932 0.043273166 0.8699789
-0.014615682 0.042989705 0.87026334
-0.013162115 0.042896301 0.87038189
-0.011681052 0.04297829 0.87034643
-0.010203421 0.043207664 0.87018073
-0.0087345298 0.043555278 0.86991048
-0.0072355089 0.044003814 0.86955196
-0.0064733429 0.044256557 0.86934787
0.0013578496 0.055063926 0.86000508
0.0016931624 0.054413814 0.86058718
0.0020838501 0.053489834 0.86141229
0.0023575474 0.052514009 0.86228031
0.0024608455 0.051500272 0.86317748
0.0023455073 0.050467677 0.86408591
0.0019763219 0.049445886 0.86497843
0.0013447272 0.048472352 0.8658219
0.00047533575 0.047580976 0.86658692
-0.00058510568 0.046789922 0.86725867
-0.0017885349 0.046098311 0.86783904
-0.0031027177 0.045489892 0.86834329
-0.0045362953 0.044931035 0.86880082
-0.0052895187 0.044663217 0.86901844
-0.00064854656 0.056740113 0.85872805
-0.0010339619 0.05731177 0.85821402
-0.0016340017 0.058079153 0.85752183
-0.0023522379 0.058816656 0.85685313
-0.0032085388 0.05948776 0.85623956
-0.0042149788 0.060055543 0.85571349
-0.0053660925 0.060483467 0.85530716
-0.0066331271 0.060744245 0.85504556
-0.0079703704 0.060830172 0.85493642
-0.0093329102 0.060754746 0.85496908
-0.010692292 0.060543727 0.85512149
-0.012043633 0.060223933 0.8553701
-0.013422694 0.05981129 0.85569996
-0.014123867 0.059578773 0.85588771
-0.02132836 0.049636275 0.86448282
-0.02163684 0.050234359 0.86394733
-0.021996262 0.051084399 0.86318821
-0.022248056 0.051982135 0.86238968
-0.022343088 0.052914746 0.86156434
-0.022236979 0.053864706 0.86072862
-0.021897338 0.054804727 0.85990751
-0.021316288 0.055700351 0.85913152
-0.02051647 0.056520395 0.85842776
-0.019540891 0.057248145 0.85780978
-0.018433768 0.05788441 0.85727578
-0.017224755 0.058444135 0.85681194
-0.0159059 0.05895827 0.85639101
-0.015212954 0.059204657 0.8561908
-0.020270921 0.04785369 0.86608225
-0.019885505 0.047282033 0.86659634
-0.019285465 0.046514649 0.86728853
-0.018567229 0.045777146 0.86795723
-0.017710928 0.045106042 0.86857074
-0.016704489 0.04453826 0.86909688
-0.015553375 0.044110335 0.86950314
-0.01428634 0.043849558 0.8697648
-0.012949097 0.043763626 0.86987394
-0.011586557 0.043839056 0.86984128
-0.010227175 0.044050075 0.86968887
-0.0088758329 0.044369869 0.86944026
-0.0074967733 0.044782512 0.86911041
-0.0067956005 0.04501503 0.86892265
0.0004088929 0.054957528 0.86032754
0.00071737234 0.054359443 0.86086303
0.0010767949 0.053509403 0.8616221
0.0013285892 0.052611668 0.86242062
0.0014236205 0.051679056 0.86324602
0.0013175119 0.050729096 0.86408174
0.00097787112 0.049789075 0.86490285
0.00039682037 0.048893452 0.86567879
-0.00040299742 0.048073407 0.8663826
-0.0013785756 0.047345657 0.86700058
-0.002485699 0.046709392 0.86753458
-0.0036947129 0.046149664 0.86799842
-0.0050135669 0.045635533 0.86841935
-0.0057065133 0.045389146 0.86861956
-0.0015084872 0.056444172 0.85915399
-0.0018602239 0.056965873 0.85868484
-0.00240783 0.057666197 0.85805321
-0.0030633046 0.058339257 0.85744292
-0.0038447781 0.058951717 0.85688299
-0.0047632712 0.059469886 0.85640281
-0.0058137961 0.059860416 0.85603207
-0.0069701127 0.060098406 0.85579324
-0.0081905024 0.060176827 0.8556937
-0.0094339792 0.060107987 0.8557235
-0.010674573 0.059915412 0.85586262
-0.011907829 0.059623558 0.85608947
-0.013166381 0.059246976 0.85639054
-0.013806283 0.05903478 0.85656184
-0.020381222 0.049961094 0.86440587
-0.020662744 0.050506916 0.86391717
-0.020990759 0.051282674 0.86322445
-0.02122055 0.052101959 0.86249566
-0.021307278 0.052953076 0.86174238
-0.021210441 0.053820025 0.86097974
-0.02090048 0.054677907 0.86023033
-0.020370202 0.055495266 0.85952222
-0.019640276 0.056243651 0.85887992
-0.018749949 0.05690781 0.85831594
-0.01773957 0.057488475 0.85782862
-0.016636204 0.057999291 0.8574053
-0.015432595 0.058468498 0.85702115
-0.014800202 0.058693353 0.85683846
-0.019416185 0.048334274 0.86586559
-0.019064449 0.047812574 0.86633474
-0.018516842 0.047112245 0.86696637
-0.017861368 0.046439189 0.86757666
-0.017079893 0.045826729 0.86813658
-0.016161401 0.04530856 0.86861676
-0.015110875 0.044918031 0.8689875
-0.013954559 0.04468004 0.86922634
-0.012734169 0.044601619 0.86932588
-0.011490693 0.044670455 0.86929607
-0.0102501 0.044863034 0.86915696
-0.0090168435 0.045154884 0.8689301
-0.0077582905 0.04553147 0.8686291
-0.0071183885 0.045743667 0.86845773
-0.00054345082 0.054817352 0.8606137
-0.00026192775 0.05427153 0.8611024
6.6086912e-05 0.053495772 0.86179519
0.00029587786 0.052676484 0.86252391
0.00038260559 0.051825367 0.8632772
0.0002857692 0.050958421 0.86403984
-2.4191915e-05 0.050100539 0.86478925
-0.00055446936 0.04928318 0.86549735
-0.0012843952 0.048534796 0.86613965
-0.0021747244 0.047870636 0.86670363
-0.0031851027 0.047289971 0.86719096
-0.0042884685 0.046779156 0.86761427
-0.0054920763 0.046309948 0.86799842
-0.0061244699 0.046085093 0.86818111
-0.0023725287 0.056119934 0.85955215
-0.0026903967 0.056591399 0.85912818
-0.0031852722 0.057224292 0.85855734
-0.0037776313 0.057832539 0.85800582
-0.0044838558 0.058386028 0.85749984
-0.0053139059 0.058854297 0.85706592
-0.0062632756 0.059207227 0.85673082
-0.0073082489 0.059422299 0.85651505
-0.0084111271 0.059493169 0.85642505
-0.0095348665 0.059430961 0.85645199
-0.010656003 0.059256922 0.85657769
-0.011770507 0.058993176 0.85678273
-0.012907873 0.058652855 0.85705477
-0.013486158 0.058461089 0.85720962
-0.019427989 0.050261118 0.86429834
-0.019682404 0.050754383 0.86385673
-0.019978834 0.051455442 0.86323065
