# .PCD v0.7 - Point Cloud Data file format
VERSION 0.7
FIELDS x y z rgba
SIZE 4 4 4 4
TYPE F F F U
COUNT 1 1 1 1
WIDTH 1006
HEIGHT 1
VIEWPOINT 0 0 0 1 0 0 0
POINTS 1006
DATA ascii
0.013241814 -0.082329541 0.66100001 4286008924
0.014415052 -0.0824541 0.66200006 4285737016
0.015568257 -0.0824541 0.66200006 4283236626
0.016873015 -0.083201416 0.66800004 4285857792
0.018090671 -0.083450519 0.67000002 4286709760
0.019286554 -0.08357507 0.671 4286910233
0.020455437 -0.08357507 0.671 4288028714
0.021624317 -0.08357507 0.671 4287703095
0.02286114 -0.08382418 0.67300004 4288689990
0.024104927 -0.084073283 0.67500001 4289147461
-0.037423391 -0.08375711 0.68200004 4290413446
-0.036235344 -0.08375711 0.68200004 4285939265
-0.034893133 -0.083388679 0.67900002 4287111712
-0.033611026 -0.083143063 0.67700005 4287967021
-0.032335877 -0.082897432 0.67500001 4286787628
-0.030975375 -0.082406186 0.671 4285603097
-0.029717654 -0.08216057 0.66900003 4285732387
-0.028424215 -0.081792131 0.66600001 4284679699
-0.027264044 -0.081792131 0.66600001 4284547355
-0.026103873 -0.081792131 0.66600001 4284350488
-0.024868796 -0.081546515 0.66400003 4284219392
-0.023640685 -0.081300899 0.66200006 4283891712
-0.022487482 -0.081300899 0.66200006 4284219392
-0.021302048 -0.081178077 0.66100001 4284809216
-0.020150587 -0.081178077 0.66100001 4284816132
-0.018970381 -0.081055269 0.66000003 4285342476
-0.017820662 -0.081055269 0.66000003 4284950812
-0.016645683 -0.080932461 0.65900004 4286924858
-0.015497705 -0.080932461 0.65900004 4287522647
-0.014349726 -0.080932461 0.65900004 4288115040
-0.013161682 -0.08068683 0.65700001 4287525729
-0.012017188 -0.08068683 0.65700001 4287459936
-0.010872694 -0.08068683 0.65700001 4287459184
-0.0097281989 -0.08068683 0.65700001 4287459184
-0.0085837059 -0.08068683 0.65700001 4287458932
-0.0074392119 -0.08068683 0.65700001 4287458932
-0.0062947175 -0.08068683 0.65700001 4287458932
-0.0051502236 -0.08068683 0.65700001 4287196016
-0.0040057292 -0.08068683 0.65700001 4287589487
-0.0028568804 -0.080564022 0.65600002 4287655280
-0.0017115152 -0.080441214 0.65500003 4287787885
-0.00057050504 -0.080441214 0.65500003 4287853678
0.00057050504 -0.080441214 0.65500003 4287985015
0.0017115152 -0.080441214 0.65500003 4287919222
0.0028525253 -0.080441214 0.65500003 4287916389
0.0039935354 -0.080441214 0.65500003 4287324252
0.0051502236 -0.08068683 0.65700001 4286266733
0.0062947175 -0.08068683 0.65700001 4285542754
0.007461858 -0.080932461 0.65900004 4285802559
0.0086229006 -0.081055269 0.66000003 4285539131
0.0097726211 -0.081055269 0.66000003 4284810504
0.010938889 -0.081178077 0.66100001 4283564032
0.012108644 -0.081300899 0.66200006 4284350464
0.013301914 -0.081546515 0.66400003 4285071361
0.014458601 -0.081546515 0.66400003 4285138176
0.015638806 -0.081669323 0.66500002 4285335552
0.016873015 -0.082037754 0.66800004 4286186526
0.018117672 -0.082406186 0.671 4286581028
0.019286554 -0.082406186 0.671 4287042853
0.020516409 -0.082651816 0.67300004 4288161077
0.021721002 -0.082774624 0.67400002 4287833911
0.022929078 -0.082897432 0.67500001 4288755013
0.024212062 -0.083265871 0.67800003 4289145926
-0.036235344 -0.08256907 0.68200004 4285744986
-0.034893133 -0.082205862 0.67900002 4286914847
-0.033660673 -0.08208479 0.67800003 4287967791
-0.032431688 -0.081963725 0.67700005 4286853934
-0.031067703 -0.081479445 0.67300004 4285735197
-0.029806493 -0.081237301 0.671 4285863973
-0.028552255 -0.080995172 0.66900003 4284745492
-0.027386855 -0.080995172 0.66900003 4285138451
-0.026221458 -0.080995172 0.66900003 4285006865
-0.024906248 -0.080510892 0.66500002 4284350464
-0.023747819 -0.080510892 0.66500002 4283826176
-0.022555418 -0.080389827 0.66400003 4283826176
-0.021334277 -0.080147691 0.66200006 4283498496
-0.020181073 -0.080147691 0.66200006 4283432960
-0.018999124 -0.080026619 0.66100001 4283695104
-0.017847663 -0.080026619 0.66100001 4284944896
-0.016670942 -0.079905547 0.66000003 4286721290
-0.015497705 -0.079784483 0.65900004 4285876030
-0.014349726 -0.079784483 0.65900004 4287323476
-0.013201748 -0.079784483 0.65900004 4286539354
-0.01205377 -0.079784483 0.65900004 4286407768
-0.010872694 -0.079542339 0.65700001 4286799712
-0.0097281989 -0.079542339 0.65700001 4287391592
-0.0085837059 -0.079542339 0.65700001 4287524464
-0.0074392119 -0.079542339 0.65700001 4287327084
-0.0062947175 -0.079542339 0.65700001 4287128936
-0.0051502236 -0.079542339 0.65700001 4287128936
-0.0040057292 -0.079542339 0.65700001 4287521897
-0.0028612353 -0.079542339 0.65700001 4287521897
-0.0017115152 -0.079300202 0.65500003 4287521897
-0.00057050504 -0.079300202 0.65500003 4287324775
0.00057050504 -0.079300202 0.65500003 4287258727
0.0017167411 -0.079542339 0.65700001 4286666590
0.0028568804 -0.079421274 0.65600002 4285347637
0.0039996323 -0.079421274 0.65600002 4285018415
0.0051502236 -0.079542339 0.65700001 4285541166
0.00631388 -0.079784483 0.65900004 4284159513
0.007484504 -0.080026619 0.66100001 4285008396
0.0086359652 -0.080026619 0.66100001 4283498496
0.0098022353 -0.080147691 0.66200006 4284022784
0.01095544 -0.080147691 0.66200006 4284153856
0.012145225 -0.080389827 0.66400003 4284547072
0.013321945 -0.080510892 0.66500002 4285595909
0.014480376 -0.080510892 0.66500002 4285794307
0.015709357 -0.0808741 0.66800004 4286254858
0.016923532 -0.081116237 0.67000002 4286320159
0.018117672 -0.081237301 0.671 4286254366
0.019286554 -0.081237301 0.671 4287041833
0.020546891 -0.081600517 0.67400002 4288292156
0.021753227 -0.081721582 0.67500001 4288029748
0.022997016 -0.081963725 0.67700005 4288621628
0.024212062 -0.08208479 0.67800003 4288948022
-0.034995914 -0.081261694 0.68100005 4286980907
-0.033710316 -0.081023037 0.67900002 4287835960
-0.032479592 -0.080903709 0.67800003 4286853934
-0.031160029 -0.080545731 0.67500001 4285538074
-0.029895337 -0.080307081 0.67300004 4285863973
-0.028594933 -0.079949096 0.67000002 4285534752
-0.027427793 -0.079949096 0.67000002 4284942099
-0.026221458 -0.079829775 0.66900003 4284942099
-0.0249437 -0.079471789 0.66600001 4284746507
-0.023747819 -0.079352461 0.66500002 4284549129
-0.022589387 -0.079352461 0.66500002 4284483597
-0.021398731 -0.079233132 0.66400003 4283891717
-0.020242043 -0.079233132 0.66400003 4283957266
-0.01902787 -0.078994483 0.66200006 4283564044
-0.017874664 -0.078994483 0.66200006 4283432960
-0.0166962 -0.078875154 0.66100001 4283301888
-0.015521223 -0.078755833 0.66000003 4283105288
-0.014371501 -0.078755833 0.66000003 4285602093
-0.013201748 -0.078636505 0.65900004 4283635717
-0.01205377 -0.078636505 0.65900004 4282254080
-0.010905792 -0.078636505 0.65900004 4282843142
-0.0097578149 -0.078636505 0.65900004 4282843142
-0.008609836 -0.078636505 0.65900004 4283301888
-0.007461858 -0.078636505 0.65900004 4283432960
-0.00631388 -0.078636505 0.65900004 4283301888
-0.0051659015 -0.078636505 0.65900004 4283301888
-0.0040179235 -0.078636505 0.65900004 4283564032
-0.0028699453 -0.078636505 0.65900004 4283629568
-0.0017141282 -0.078278519 0.65600002 4283432960
-0.00057137606 -0.078278519 0.65600002 4283170816
0.00057137606 -0.078278519 0.65600002 4283039744
0.0017245801 -0.078755833 0.66000003 4283039744
0.0028743003 -0.078755833 0.66000003 4283236352
0.0040301173 -0.078875154 0.66100001 4283301888
0.0051815799 -0.078875154 0.66100001 4283695104
0.0063426229 -0.078994483 0.66200006 4283695104
0.0075184726 -0.079233132 0.66400003 4284088320
0.0086882263 -0.079352461 0.66500002 4284284928
0.0098466557 -0.079352461 0.66500002 4284612624
0.011005086 -0.079352461 0.66500002 4285005846
0.012163516 -0.079352461 0.66500002 4285464605
0.013341979 -0.079471789 0.66600001 4285857827
0.014502151 -0.079471789 0.66600001 4286121231
0.015732875 -0.079829775 0.66900003 4286318866
0.016948789 -0.080068424 0.671 4286252832
0.018117672 -0.080068424 0.671 4286713383
0.019344041 -0.080307081 0.67300004 4287108396
0.020546891 -0.08042641 0.67400002 4288226620
0.021817682 -0.080784388 0.67700005 4288029748
0.023030985 -0.080903709 0.67800003 4288687677
0.024247771 -0.081023037 0.67900002 4288882479
0.025505496 -0.081261694 0.68100005 4286448137
-0.033710316 -0.079840221 0.67900002 4287771439
-0.032479592 -0.079722643 0.67800003 4286725165
-0.031252358 -0.07960505 0.67700005 4285277719
-0.029939756 -0.079252303 0.67400002 4285864223
-0.028637612 -0.07889954 0.671 4285535258
-0.02746873 -0.07889954 0.671 4285140248
-0.026260654 -0.078781962 0.67000002 4284877076
-0.025018606 -0.078546792 0.66800004 4284746001
-0.023854952 -0.078546792 0.66800004 4284548879
-0.022623356 -0.078311615 0.66600001 4284285721
-0.021430958 -0.07819403 0.66500002 4284022804
-0.020272527 -0.07819403 0.66500002 4284153873
-0.019085353 -0.078076452 0.66400003 4283826188
-0.017928667 -0.078076452 0.66400003 4283367424
-0.016721461 -0.077841282 0.66200006 4283236352
-0.015568257 -0.077841282 0.66200006 4283236352
-0.014393276 -0.077723689 0.66100001 4283826176
-0.013221781 -0.077606112 0.66000003 4283695104
-0.012072061 -0.077606112 0.66000003 4283105280
-0.010922342 -0.077606112 0.66000003 4283105280
-0.0097726211 -0.077606112 0.66000003 4282908672
-0.0086229006 -0.077606112 0.66000003 4282974208
-0.0074731805 -0.077606112 0.66000003 4282908672
-0.0063234605 -0.077606112 0.66000003 4282974208
-0.0051737404 -0.077606112 0.66000003 4282974208
-0.0040301173 -0.077723689 0.66100001 4282974208
-0.0028786552 -0.077723689 0.66100001 4282974208
-0.0017271931 -0.077723689 0.66100001 4283236352
-0.00057660206 -0.077841282 0.66200006 4283236352
0.00057834404 -0.078076452 0.66400003 4283301888
0.0017350322 -0.078076452 0.66400003 4283498496
0.0028917203 -0.078076452 0.66400003 4283826176
0.0040484085 -0.078076452 0.66400003 4283760640
0.0052050967 -0.078076452 0.66400003 4284284928
0.0063617849 -0.078076452 0.66400003 4284350464
0.0075297961 -0.07819403 0.66500002 4284547072
0.0086882263 -0.07819403 0.66500002 4284940288
0.0098466557 -0.07819403 0.66500002 4285005835
0.011021635 -0.078311615 0.66600001 4285464850
0.012181806 -0.078311615 0.66600001 4285792783
0.013382046 -0.078546792 0.66800004 4286253334
0.014545701 -0.078546792 0.66800004 4286122514
0.015779909 -0.07889954 0.671 4286122514
0.016948789 -0.07889954 0.671 4286186776
0.018171676 -0.07913471 0.67300004 4286778913
0.019372784 -0.079252303 0.67400002 4287042603
0.020546891 -0.079252303 0.67400002 4288160827
0.021849908 -0.079722643 0.67800003 4287833650
0.023064952 -0.079840221 0.67900002 4288557372
0.024247771 -0.079840221 0.67900002 4288882729
0.025505496 -0.080075398 0.68100005 4286448387
-0.03380961 -0.078889094 0.68100005 4287376181
-0.032527499 -0.078657404 0.67900002 4286919979
-0.031298518 -0.078541562 0.67800003 4285933084
-0.030073019 -0.07842572 0.67700005 4285864223
-0.02872297 -0.077962346 0.67300004 4285535258
-0.027550604 -0.077962346 0.67300004 4285138451
-0.026299847 -0.077730663 0.671 4285072658
-0.02505606 -0.07749898 0.66900003 4284679695
-0.023890661 -0.07749898 0.66900003 4284613902
-0.022691295 -0.077383138 0.66800004 4284352268
-0.021463184 -0.077151448 0.66600001 4284023046
-0.020303011 -0.077151448 0.66600001 4284153873
-0.019114098 -0.077035598 0.66500002 4283957262
-0.017955666 -0.077035598 0.66500002 4283826176
-0.016771978 -0.076919757 0.66400003 4283760640
-0.01561529 -0.076919757 0.66400003 4283695112
-0.014415052 -0.076688074 0.66200006 4283826186
-0.013261848 -0.076688074 0.66200006 4283891712
-0.012090352 -0.076572232 0.66100001 4284088578
-0.010938889 -0.076572232 0.66100001 4283826191
-0.0097874282 -0.076572232 0.66100001 4283695116
-0.0086490316 -0.076688074 0.66200006 4283695104
-0.007495827 -0.076688074 0.66200006 4283367424
-0.0063617849 -0.076919757 0.66400003 4283498501
-0.0052050967 -0.076919757 0.66400003 4283432963
-0.0040484085 -0.076919757 0.66400003 4283498505
-0.0028917203 -0.076919757 0.66400003 4283432968
-0.0017350322 -0.076919757 0.66400003 4283629581
-0.00057834404 -0.076919757 0.66400003 4283891729
0.00057834404 -0.076919757 0.66400003 4284022784
0.0017350322 -0.076919757 0.66400003 4284088320
0.0028917203 -0.076919757 0.66400003 4284153856
0.0040545054 -0.077035598 0.66500002 4284088320
0.0052129356 -0.077035598 0.66500002 4284481536
0.0063713654 -0.077035598 0.66500002 4284481536
0.0075297961 -0.077035598 0.66500002 4284743680
0.00870129 -0.077151448 0.66600001 4284940288
0.0098614627 -0.077151448 0.66600001 4285005827
0.011021635 -0.077151448 0.66600001 4285202437
0.012181806 -0.077151448 0.66600001 4285792783
0.013402078 -0.07749898 0.66900003 4286122005
0.014567477 -0.07749898 0.66900003 4286253332
0.015826942 -0.077962346 0.67300004 4286056210
0.016999308 -0.077962346 0.67300004 4286384157
0.018198676 -0.078078195 0.67400002 4287305259
0.019372784 -0.078078195 0.67400002 4287241765
0.020577377 -0.07819403 0.67500001 4287899695
0.021849908 -0.078541562 0.67800003 4288161583
0.023064952 -0.078657404 0.67900002 4289148478
0.024319194 -0.078889094 0.68100005 4289014819
0.02554295 -0.079004936 0.68200004 4286382848
-0.033859257 -0.077816889 0.68200004 4287312689
-0.03262331 -0.07770279 0.68100005 4287117102
-0.031298518 -0.077360481 0.67800003 4285998877
-0.030073019 -0.077246383 0.67700005 4286257700
-0.028765649 -0.076904081 0.67400002 4285599513
-0.027591541 -0.076904081 0.67400002 4285204748
-0.026378239 -0.076789983 0.67300004 4285072906
-0.025093513 -0.076447681 0.67000002 4284875793
-0.023890661 -0.076333582 0.66900003 4284810000
-0.022725264 -0.076333582 0.66900003 4284483597
-0.021527639 -0.076219477 0.66800004 4284352268
-0.020363983 -0.076219477 0.66800004 4284153859
-0.01914284 -0.075991273 0.66600001 4283826176
-0.017982667 -0.075991273 0.66600001 4283957248
-0.016797235 -0.075877175 0.66500002 4283957248
-0.015638806 -0.075877175 0.66500002 4283957248
-0.014480376 -0.075877175 0.66500002 4284153857
-0.013321945 -0.075877175 0.66500002 4283957249
-0.012145225 -0.075763069 0.66400003 4283957249
-0.010988537 -0.075763069 0.66400003 4283957249
-0.0098318486 -0.075763069 0.66400003 4283957249
-0.0086751617 -0.075763069 0.66400003 4283695104
-0.0075184726 -0.075763069 0.66400003 4283498496
-0.0063617849 -0.075763069 0.66400003 4283760649
-0.0052050967 -0.075763069 0.66400003 4283695112
-0.0040484085 -0.075763069 0.66400003 4283629573
-0.0028917203 -0.075763069 0.66400003 4283498499
-0.0017350322 -0.075763069 0.66400003 4283695110
-0.00057834404 -0.075763069 0.66400003 4283760647
0.00057834404 -0.075763069 0.66400003 4284088320
0.0017350322 -0.075763069 0.66400003 4284153856
0.0028960751 -0.075877175 0.66500002 4284350464
0.0040545054 -0.075877175 0.66500002 4284350464
0.0052129356 -0.075877175 0.66500002 4284481536
0.0063809464 -0.075991273 0.66600001 4284416000
0.0075411187 -0.075991273 0.66600001 4284874752
0.0087274211 -0.076219477 0.66800004 4285136897
0.0098910769 -0.076219477 0.66800004 4285136904
0.011071282 -0.076333582 0.66900003 4285597455
0.012236681 -0.076333582 0.66900003 4285793803
0.013422112 -0.076447681 0.67000002 4286254354
0.014589251 -0.076447681 0.67000002 4286253332
0.015826942 -0.076789983 0.67300004 4286319125
0.017024569 -0.076904081 0.67400002 4286711834
0.018198676 -0.076904081 0.67400002 4287501607
0.019401526 -0.077018179 0.67500001 4287175466
0.020638349 -0.077246383 0.67700005 4287899445
0.021882135 -0.077474587 0.67900002 4287900469
0.023064952 -0.077474587 0.67900002 4288887621
0.024319194 -0.07770279 0.68100005 4289212713
0.02554295 -0.077816889 0.68200004 4286120192
-0.040849905 -0.078651309 0.70000005 4284047369
-0.039630506 -0.078651309 0.70000005 4288916052
-0.038356233 -0.078538947 0.69900006 4290746772
-0.03262331 -0.076516487 0.68100005 4286854436
-0.031344678 -0.07629177 0.67900002 4285999127
-0.030117443 -0.076179415 0.67800003 4285930280
-0.028808327 -0.075842336 0.67500001 4285009178
-0.027591541 -0.075729974 0.67400002 4285270553
-0.026378239 -0.075617611 0.67300004 4285204759
-0.025130965 -0.075392894 0.671 4284812050
-0.023926372 -0.075280532 0.67000002 4284483086
-0.022759233 -0.075280532 0.67000002 4284483597
-0.021592092 -0.075280532 0.67000002 4284154888
-0.020424953 -0.075280532 0.67000002 4284219396
-0.019229069 -0.075168177 0.66900003 4283957248
-0.018036671 -0.075055823 0.66800004 4283957248
-0.016873015 -0.075055823 0.66800004 4284022784
-0.015662324 -0.074831098 0.66600001 4283957249
-0.014502151 -0.074831098 0.66600001 4283957249
-0.013321945 -0.074718744 0.66500002 4283957249
-0.012163516 -0.074718744 0.66500002 4283957249
-0.011005086 -0.074718744 0.66500002 4283957249
-0.0098466557 -0.074718744 0.66500002 4283891712
-0.0086882263 -0.074718744 0.66500002 4283629568
-0.0075297961 -0.074718744 0.66500002 4283498496
-0.0063713654 -0.074718744 0.66500002 4283629571
-0.0052129356 -0.074718744 0.66500002 4283629571
-0.0040545054 -0.074718744 0.66500002 4283629568
-0.0028960751 -0.074718744 0.66500002 4283564032
-0.0017376452 -0.074718744 0.66500002 4283760643
-0.00057921506 -0.074718744 0.66500002 4283891718
0.00057921506 -0.074718744 0.66500002 4284088320
0.0017376452 -0.074718744 0.66500002 4284153856
0.0028960751 -0.074718744 0.66500002 4284350464
0.0040545054 -0.074718744 0.66500002 4284284928
0.0052207741 -0.074831098 0.66600001 4284481539
0.0064001088 -0.075055823 0.66800004 4284416002
0.0075637652 -0.075055823 0.66800004 4284940288
0.0087404866 -0.075168177 0.66900003 4285071360
0.009905884 -0.075168177 0.66900003 4285464583
0.011071282 -0.075168177 0.66900003 4285792268
0.012254971 -0.075280532 0.67000002 4285924106
0.013442145 -0.075392894 0.671 4286187278
0.014654577 -0.075617611 0.67300004 4286318614
0.015850458 -0.075729974 0.67400002 4286384407
0.017024569 -0.075729974 0.67400002 4286777114
0.018225677 -0.075842336 0.67500001 4287106079
0.019459013 -0.076067053 0.67700005 4287241251
0.020638349 -0.076067053 0.67700005 4288096560
0.021882135 -0.07629177 0.67900002 4287900469
0.023132892 -0.076516487 0.68100005 4288953414
0.024354905 -0.076628849 0.68200004 4289081125
0.025617855 -0.076853558 0.68400002 4286120448
-0.042189501 -0.07765314 0.70200002 4281951252
-0.040966615 -0.07765314 0.70200002 4283522304
-0.039743733 -0.07765314 0.70200002 4288588356
-0.038356233 -0.077321298 0.69900006 4290813342
-0.032671213 -0.075440802 0.68200004 4287050534
-0.031437006 -0.07533019 0.68100005 4285997590
-0.030161863 -0.075108953 0.67900002 4285864223
-0.028936364 -0.074998334 0.67800003 4285337879
-0.027755288 -0.074998334 0.67800003 4285336859
-0.026456626 -0.074666478 0.67500001 4285205530
-0.025243323 -0.074555859 0.67400002 4284746773
-0.024069216 -0.074555859 0.67400002 4284944152
-0.02286114 -0.074445255 0.67300004 4284483597
-0.021624317 -0.074224018 0.671 4284286474
-0.020424953 -0.074113399 0.67000002 4284350469
-0.019257812 -0.074113399 0.67000002 4284088321
-0.01806367 -0.07400278 0.66900003 4284022784
-0.016898273 -0.07400278 0.66900003 4284153856
-0.015709357 -0.073892169 0.66800004 4283891971
-0.014545701 -0.073892169 0.66800004 4283826177
-0.013341979 -0.073670924 0.66600001 4283957249
-0.012181806 -0.073670924 0.66600001 4283957249
-0.011021635 -0.073670924 0.66600001 4283891971
-0.0098614627 -0.073670924 0.66600001 4283826177
-0.00870129 -0.073670924 0.66600001 4283695115
-0.0075411187 -0.073670924 0.66600001 4283564041
-0.0063809464 -0.073670924 0.66600001 4283695104
-0.0052207741 -0.073670924 0.66600001 4283695104
-0.0040545054 -0.073560312 0.66500002 4283695104
-0.0028960751 -0.073560312 0.66500002 4283629568
-0.0017376452 -0.073560312 0.66500002 4283826176
-0.00058008602 -0.073670924 0.66600001 4284088320
0.00058008602 -0.073670924 0.66600001 4284088320
0.0017402582 -0.073670924 0.66600001 4284219395
0.00290043 -0.073670924 0.66600001 4284350464
0.0040606023 -0.073670924 0.66600001 4284350464
0.0052364529 -0.073892169 0.66800004 4284481536
0.0064096898 -0.07400278 0.66900003 4284481536
0.0075750877 -0.07400278 0.66900003 4284940290
0.0087404866 -0.07400278 0.66900003 4285005827
0.0099206911 -0.074113399 0.67000002 4285464583
0.011087831 -0.074113399 0.67000002 4286187026
0.012273261 -0.074224018 0.671 4285793803
0.013482211 -0.074445255 0.67300004 4285859597
0.014676351 -0.074555859 0.67400002 4286383637
0.015850458 -0.074555859 0.67400002 4286515223
0.017049827 -0.074666478 0.67500001 4286974230
0.018225677 -0.074666478 0.67500001 4286974230
0.019459013 -0.074887715 0.67700005 4287171874
0.020668833 -0.074998334 0.67800003 4288685114
0.02194659 -0.07533019 0.68100005 4287769402
0.023166861 -0.075440802 0.68200004 4288756553
0.024462039 -0.075772658 0.68500006 4289015343
-0.042249601 -0.076539129 0.70300001 4282016522
-0.040966615 -0.076430254 0.70200002 4283851008
-0.039743733 -0.076430254 0.70200002 4288127553
-0.038575724 -0.076539129 0.70300001 4290351750
-0.037351094 -0.076539129 0.70300001 4288706925
-0.032814931 -0.074579388 0.68500006 4287115044
-0.031575494 -0.074470505 0.68400002 4286062100
-0.030295124 -0.074252762 0.68200004 4286190887
-0.028979043 -0.073926128 0.67900002 4285598750
-0.027796226 -0.073926128 0.67900002 4285467412
-0.026574213 -0.073817261 0.67800003 4285467412
-0.025280776 -0.073490627 0.67500001 4285008396
-0.024104927 -0.073490627 0.67500001 4284876810
-0.022895109 -0.073381752 0.67400002 4284548108
-0.021688772 -0.073272884 0.67300004 4284350986
-0.020516409 -0.073272884 0.67300004 4284285191
-0.019257812 -0.072946258 0.67000002 4284088323
-0.018090671 -0.072946258 0.67000002 4283957248
-0.016923532 -0.072946258 0.67000002 4284088320
-0.015732875 -0.072837383 0.66900003 4284153857
-0.014567477 -0.072837383 0.66900003 4284219395
-0.013382046 -0.072728515 0.66800004 4283891971
-0.01221839 -0.072728515 0.66800004 4283891971
-0.011054733 -0.072728515 0.66800004 4283957249
-0.0098910769 -0.072728515 0.66800004 4283891712
-0.00870129 -0.072510757 0.66600001 4283826187
-0.0075411187 -0.072510757 0.66600001 4283695114
-0.0063809464 -0.072510757 0.66600001 4283760640
-0.0052364529 -0.072728515 0.66800004 4283629568
-0.0040606023 -0.072510757 0.66600001 4283629568
-0.00290043 -0.072510757 0.66600001 4283629568
-0.0017402582 -0.072510757 0.66600001 4283760643
-0.00058008602 -0.072510757 0.66600001 4283957255
0.00058008602 -0.072510757 0.66600001 4284088320
0.0017402582 -0.072510757 0.66600001 4284153856
0.0029091404 -0.072728515 0.66800004 4284350464
0.0040788935 -0.072837383 0.66900003 4284350464
0.0052442919 -0.072837383 0.66900003 4284547072
0.0064096898 -0.072837383 0.66900003 4284612608
0.0075750877 -0.072837383 0.66900003 4284874752
0.0087535512 -0.072946258 0.67000002 4285071360
0.0099206911 -0.072946258 0.67000002 4285071364
0.01110438 -0.073055133 0.671 4285399561
0.012309844 -0.073272884 0.67300004 4285858313
0.013482211 -0.073272884 0.67300004 4286121485
0.014676351 -0.073381752 0.67400002 4286252308
0.015873976 -0.073490627 0.67500001 4286383637
0.017049827 -0.073490627 0.67500001 4286776344
0.018279679 -0.073708385 0.67700005 4286908186
0.019487755 -0.073817261 0.67800003 4287173158
0.020699317 -0.073926128 0.67900002 4288489018
0.021978816 -0.074252762 0.68200004 4287835451
0.023268769 -0.074579388 0.68500006 4288888139
-0.03852085 -0.075207375 0.70200002 4290090123
-0.037297968 -0.075207375 0.70200002 4289103228
-0.032862835 -0.07349325 0.68600005 4287115294
-0.031621661 -0.07338611 0.68500006 4286062606
-0.030383969 -0.073278978 0.68400002 4286258213
-0.029107083 -0.073064715 0.68200004 4285139733
-0.027878102 -0.072957583 0.68100005 4285335062
-0.026613407 -0.072743319 0.67900002 4285532442
-0.025393136 -0.07263618 0.67800003 4284942603
-0.02417635 -0.072529048 0.67700005 4284876810
-0.022929078 -0.072314784 0.67500001 4284548108
-0.021721002 -0.072207645 0.67400002 4284416779
-0.020546891 -0.072207645 0.67400002 4284351497
-0.019344041 -0.07210052 0.67300004 4283957251
-0.018117672 -0.071886241 0.671 4284284928
-0.016948789 -0.071886241 0.671 4284416000
-0.015756391 -0.071779117 0.67000002 4284219396
-0.014589251 -0.071779117 0.67000002 4284219396
-0.013402078 -0.071671985 0.66900003 4284153859
-0.012236681 -0.071671985 0.66900003 4284088321
-0.011071282 -0.071671985 0.66900003 4284022801
-0.009905884 -0.071671985 0.66900003 4283826189
-0.0087274211 -0.071564853 0.66800004 4283695115
-0.0075637652 -0.071564853 0.66800004 4283629578
-0.0064001088 -0.071564853 0.66800004 4283564032
-0.0052364529 -0.071564853 0.66800004 4283498496
-0.0040727966 -0.071564853 0.66800004 4283367424
-0.0029091404 -0.071564853 0.66800004 4283564032
-0.0017454843 -0.071564853 0.66800004 4283760640
-0.00058269908 -0.071671985 0.66900003 4284219392
0.00058269908 -0.071671985 0.66900003 4284153857
0.0017480971 -0.071671985 0.66900003 4284284932
0.0029134955 -0.071671985 0.66900003 4284350464
0.0040849904 -0.071779117 0.67000002 4284350464
0.0052521303 -0.071779117 0.67000002 4284612608
0.0064192708 -0.071779117 0.67000002 4284481536
0.0075864107 -0.071779117 0.67000002 4284940290
0.0087666158 -0.071886241 0.671 4284940290
0.0099354973 -0.071886241 0.671 4285464583
0.011137478 -0.07210052 0.67300004 4286252819
0.012309844 -0.07210052 0.67300004 4285859597
0.013502244 -0.072207645 0.67400002 4286056975
0.014698126 -0.072314784 0.67500001 4286252556
0.015873976 -0.072314784 0.67500001 4286383885
0.017100345 -0.072529048 0.67700005 4286645015
0.01830668 -0.07263618 0.67800003 4286382098
0.0195165 -0.072743319 0.67900002 4286844960
0.020760287 -0.072957583 0.68100005 4288292406
0.022043269 -0.073278978 0.68400002 4287769402
0.023268769 -0.07338611 0.68500006 4288888139
0.024640594 -0.073921785 0.69000006 4289212193
0.025842573 -0.073921785 0.69000006 4286580480
-0.039743733 -0.073984489 0.70200002 4287405893
-0.03852085 -0.073984489 0.70200002 4289826687
-0.037297968 -0.073984489 0.70200002 4288971378
-0.036075082 -0.073984489 0.70200002 4288500057
-0.032862835 -0.072298236 0.68600005 4287115294
-0.031621661 -0.072192848 0.68500006 4285996556
-0.030383969 -0.072087452 0.68400002 4286192157
-0.029192436 -0.072087452 0.68400002 4284810504
-0.027919037 -0.071876667 0.68200004 4285202707
-0.026691798 -0.071771286 0.68100005 4285334549
-0.02543059 -0.071560495 0.67900002 4284942603
-0.024212062 -0.071455106 0.67800003 4284745481
-0.022929078 -0.071138933 0.67500001 4284548108
-0.021753227 -0.071138933 0.67500001 4284350986
-0.020577377 -0.071138933 0.67500001 4284219398
-0.019372784 -0.071033537 0.67400002 4284153861
-0.018171676 -0.070928156 0.67300004 4284153856
-0.016999308 -0.070928156 0.67300004 4284219648
-0.015779909 -0.070717365 0.671 4284219396
-0.014611025 -0.070717365 0.671 4284219396
-0.013422112 -0.070611976 0.67000002 4284153859
-0.012254971 -0.070611976 0.67000002 4284153859
-0.011087831 -0.070611976 0.67000002 4283891737
-0.0099206911 -0.070611976 0.67000002 4283695125
-0.0087404866 -0.070506588 0.66900003 4283826176
-0.0075750877 -0.070506588 0.66900003 4283564032
-0.0064192708 -0.070611976 0.67000002 4283432963
-0.0052521303 -0.070611976 0.67000002 4283367426
-0.0040849904 -0.070611976 0.67000002 4283367424
-0.0029178504 -0.070611976 0.67000002 4283498496
-0.0017507101 -0.070611976 0.67000002 4283826176
-0.00058357004 -0.070611976 0.67000002 4284153856
0.00058357004 -0.070611976 0.67000002 4284284930
0.0017507101 -0.070611976 0.67000002 4284416005
0.0029178504 -0.070611976 0.67000002 4284481537
0.0040849904 -0.070611976 0.67000002 4284481537
0.0052521303 -0.070611976 0.67000002 4284678145
0.0064288513 -0.070717365 0.671 4284678145
0.0075977333 -0.070717365 0.671 4285005835
0.0087666158 -0.070717365 0.671 4285071372
0.0099651124 -0.070928156 0.67300004 4285464581
0.011154028 -0.071033537 0.67400002 4285726730
0.012328135 -0.071033537 0.67400002 4286055428
0.013522277 -0.071138933 0.67500001 4286187014
0.014741677 -0.071349718 0.67700005 4286252308
0.015921012 -0.071349718 0.67700005 4286383637
0.017125603 -0.071455106 0.67800003 4286580505
0.018333679 -0.071560495 0.67900002 4286251283
0.019573985 -0.071771286 0.68100005 4286713122
0.020790773 -0.071876667 0.68200004 4288423484
0.022075498 -0.072192848 0.68500006 4287835960
0.023302738 -0.072298236 0.68600005 4289086284
0.024712015 -0.072930582 0.69200003 4289212963
0.025954932 -0.07303597 0.69300002 4286383872
-0.039743733 -0.072761603 0.70200002 4287340101
-0.03852085 -0.072761603 0.70200002 4289761664
-0.037297968 -0.072761603 0.70200002 4289761664
-0.036075082 -0.072761603 0.70200002 4288831329
-0.032862835 -0.071103223 0.68600005 4287181350
-0.031621661 -0.070999578 0.68500006 4285470733
-0.030428387 -0.070999578 0.68500006 4286256403
-0.029192436 -0.070895925 0.68400002 4285006336
-0.028000912 -0.070895925 0.68400002 4285464585
-0.026730994 -0.070688628 0.68200004 4285858063
-0.025505496 -0.070584983 0.68100005 4284876810
-0.024247771 -0.070377678 0.67900002 4284745481
-0.023030985 -0.070274033 0.67800003 4284745488
-0.021753227 -0.069963083 0.67500001 4284679695
-0.020577377 -0.069963083 0.67500001 4284352001
-0.019401526 -0.069963083 0.67500001 4284285952
-0.018198676 -0.06985943 0.67400002 4284219648
-0.016999308 -0.069755785 0.67300004 4284088320
-0.015826942 -0.069755785 0.67300004 4284153859
-0.014654577 -0.069755785 0.67300004 4284219396
-0.013482211 -0.069755785 0.67300004 4283891971
-0.012309844 -0.069755785 0.67300004 4283891971
-0.01110438 -0.06954848 0.671 4283957264
-0.0099354973 -0.06954848 0.671 4284022801
-0.0087666158 -0.06954848 0.671 4283695115
-0.0075977333 -0.06954848 0.671 4283695115
-0.0064288513 -0.06954848 0.671 4283564032
-0.0052599693 -0.06954848 0.671 4283432960
-0.0040910873 -0.06954848 0.671 4283564032
-0.0029222053 -0.06954848 0.671 4283564032
-0.0017533231 -0.06954848 0.671 4283891712
-0.00058618304 -0.069755785 0.67300004 4284219392
0.00058444106 -0.06954848 0.671 4284153857
0.0017533231 -0.06954848 0.671 4284482054
0.0029222053 -0.06954848 0.671 4284481537
0.0040910873 -0.06954848 0.671 4284481537
0.0052599693 -0.06954848 0.671 4284612609
0.0064288513 -0.06954848 0.671 4284612609
0.0076203798 -0.069755785 0.67300004 4285071372
0.0087927459 -0.069755785 0.67300004 4285005835
0.0099799186 -0.06985943 0.67400002 4285530122
0.011154028 -0.06985943 0.67400002 4285923856
0.012346426 -0.069963083 0.67500001 4286054411
0.013562343 -0.07017038 0.67700005 4286383376
0.014741677 -0.07017038 0.67700005 4286383387
0.015944529 -0.070274033 0.67800003 4286514973
0.017150862 -0.070377678 0.67900002 4286448917
0.018387685 -0.070584983 0.68100005 4285988878
0.019602727 -0.070688628 0.68200004 4286513171
0.020851742 -0.070895925 0.68400002 4288947000
0.022107724 -0.071103223 0.68600005 4287966013
0.023404643 -0.071414173 0.68900001 4289347666
0.024712015 -0.071725115 0.69200003 4289213756
0.026029838 -0.072036065 0.69500005 4286187278
-0.03852085 -0.071538724 0.70200002 4289892721
-0.037297968 -0.071538724 0.70200002 4290221686
-0.036075082 -0.071538724 0.70200002 4289489512
-0.031667821 -0.069908217 0.68600005 4284683281
-0.030428387 -0.0698063 0.68500006 4285661196
-0.029192436 -0.069704391 0.68400002 4285399048
-0.028000912 -0.069704391 0.68400002 4285464581
-0.026809383 -0.069704391 0.68400002 4285792267
-0.02554295 -0.06950058 0.68200004 4284876810
-0.024319194 -0.069398679 0.68100005 4284745481
-0.023064952 -0.069194861 0.67900002 4284745992
-0.021849908 -0.069092952 0.67800003 4284745992
-0.020668833 -0.069092952 0.67800003 4284352772
-0.019459013 -0.06899105 0.67700005 4284155136
-0.018225677 -0.068787225 0.67500001 4284219648
-0.017024569 -0.068685323 0.67400002 4284088320
-0.015850458 -0.068685323 0.67400002 4283891971
-0.014676351 -0.068685323 0.67400002 4283891971
-0.013482211 -0.068583421 0.67300004 4284023040
-0.012309844 -0.068583421 0.67300004 4283957248
-0.011137478 -0.068583421 0.67300004 4284088320
-0.0099651124 -0.068583421 0.67300004 4283957248
-0.0087927459 -0.068583421 0.67300004 4283826186
-0.0076203798 -0.068583421 0.67300004 4283760649
-0.0064480137 -0.068583421 0.67300004 4283695110
-0.0052756476 -0.068583421 0.67300004 4283629573
-0.0041032815 -0.068583421 0.67300004 4283629568
-0.0029309154 -0.068583421 0.67300004 4283695104
-0.0017585491 -0.068583421 0.67300004 4283760640
-0.00058705406 -0.068685323 0.67400002 4283826176
0.00058618304 -0.068583421 0.67300004 4284153857
0.0017585491 -0.068583421 0.67300004 4284284932
0.0029309154 -0.068583421 0.67300004 4284482050
0.0041032815 -0.068583421 0.67300004 4284416257
0.0052756476 -0.068583421 0.67300004 4284678402
0.0064480137 -0.068583421 0.67300004 4284678402
0.0076317023 -0.068685323 0.67400002 4285071372
0.0088058114 -0.068685323 0.67400002 4285005835
0.0099947257 -0.068787225 0.67500001 4285333531
0.011170575 -0.068787225 0.67500001 4285857827
0.012383008 -0.06899105 0.67700005 4286054924
0.013582376 -0.069092952 0.67800003 4286120717
0.014763451 -0.069092952 0.67800003 4286316587
0.015968043 -0.069194861 0.67900002 4286251050
0.017201383 -0.069398679 0.68100005 4286316559
0.018468685 -0.069704391 0.68400002 4286185486
0.019660214 -0.069704391 0.68400002 4286448137
0.020912712 -0.069908217 0.68600005 4288816685
0.022204405 -0.070213929 0.68900001 4288164161
0.023438614 -0.070315838 0.69000006 4289348436
0.024747726 -0.070621558 0.69300002 4289345356
0.026029838 -0.070825368 0.69500005 4287897910
-0.03852085 -0.070315838 0.70200002 4289827191
-0.037297968 -0.070315838 0.70200002 4290221693
-0.031667821 -0.068713203 0.68600005 4284683281
-0.030428387 -0.068613037 0.68500006 4285464576
-0.029235119 -0.068613037 0.68500006 4285464576
-0.028041849 -0.068613037 0.68500006 4285464576
-0.026809383 -0.068512864 0.68400002 4285792259
-0.02554295 -0.068312541 0.68200004 4284875806
-0.024319194 -0.068212375 0.68100005 4284875806
-0.023132892 -0.068212375 0.68100005 4284679695
-0.021882135 -0.068012036 0.67900002 4284679695
-0.020668833 -0.067911878 0.67800003 4284352001
-0.019487755 -0.067911878 0.67800003 4284154624
-0.018225677 -0.067611381 0.67500001 4284023552
-0.017049827 -0.067611381 0.67500001 4284023552
-0.015873976 -0.067611381 0.67500001 4283957249
-0.014698126 -0.067611381 0.67500001 4283957249
-0.013522277 -0.067611381 0.67500001 4283957249
-0.012346426 -0.067611381 0.67500001 4283957249
-0.011154028 -0.067511216 0.67400002 4284088320
-0.0099799186 -0.067511216 0.67400002 4284022784
-0.0088058114 -0.067511216 0.67400002 4283957248
-0.0076317023 -0.067511216 0.67400002 4283891712
-0.0064575947 -0.067511216 0.67400002 4283695104
-0.0052834861 -0.067511216 0.67400002 4283629568
-0.0041093784 -0.067511216 0.67400002 4283629568
-0.0029352703 -0.067511216 0.67400002 4283760640
-0.0017611622 -0.067511216 0.67400002 4283695104
-0.00058705406 -0.067511216 0.67400002 4283957248
0.00058705406 -0.067511216 0.67400002 4283891712
0.0017611622 -0.067511216 0.67400002 4284417542
0.0029352703 -0.067511216 0.67400002 4284285952
0.0041093784 -0.067511216 0.67400002 4284352001
0.0052834861 -0.067511216 0.67400002 4284612609
0.0064575947 -0.067511216 0.67400002 4284612609
0.0076430258 -0.067611381 0.67500001 4285005835
0.008818876 -0.067611381 0.67500001 4284940298
0.01002434 -0.067811713 0.67700005 4285661189
0.011203675 -0.067811713 0.67700005 4286251022
0.012419591 -0.068012036 0.67900002 4286054419
0.013602409 -0.068012036 0.67900002 4286251285
0.014785226 -0.068012036 0.67900002 4286316575
0.016015079 -0.068212375 0.68100005 4286251038
0.01722664 -0.068312541 0.68200004 4286316559
0.018468685 -0.068512864 0.68400002 4285857800
0.019688958 -0.068613037 0.68500006 4286448137
0.020973681 -0.068913527 0.68800002 4288948272
0.022236634 -0.069113858 0.69000006 4288491846
0.02350655 -0.069314189 0.69200003 4289610070
0.024747726 -0.069414347 0.69300002 4289279817
0.02606729 -0.069714844 0.69600004 4288226872
-0.037297968 -0.069092952 0.70200002 4290550396
-0.035920918 -0.068797685 0.69900006 4290412651
-0.031852476 -0.067911886 0.69000006 4284618771
-0.030472811 -0.06751819 0.68600005 4285595652
-0.029235119 -0.067419767 0.68500006 4285267968
-0.028041849 -0.067419767 0.68500006 4285267968
-0.026848579 -0.067419767 0.68500006 4285792768
-0.025617855 -0.067321338 0.68400002 4285073449
-0.024354905 -0.067124493 0.68200004 4284810533
-0.023132892 -0.067026071 0.68100005 4284679695
-0.02194659 -0.067026071 0.68100005 4284613902
-0.020699317 -0.066829227 0.67900002 4284418048
-0.019487755 -0.066730805 0.67800003 4284089088
-0.018279679 -0.066632383 0.67700005 4283826689
-0.017100345 -0.066632383 0.67700005 4283695104
-0.015921012 -0.066632383 0.67700005 4283564032
-0.014741677 -0.066632383 0.67700005 4283564032
-0.013562343 -0.066632383 0.67700005 4283695104
-0.012383008 -0.066632383 0.67700005 4283695104
-0.011203675 -0.066632383 0.67700005 4284088320
-0.01002434 -0.066632383 0.67700005 4284153856
-0.0088450061 -0.066632383 0.67700005 4284022784
-0.0076430258 -0.066435531 0.67500001 4283826176
-0.0064671757 -0.066435531 0.67500001 4283695104
-0.0052913255 -0.066435531 0.67500001 4283629568
-0.0041154753 -0.066435531 0.67500001 4283432960
-0.0029352703 -0.066337109 0.67400002 4283498496
-0.0017611622 -0.066337109 0.67400002 4283236352
-0.00058705406 -0.066337109 0.67400002 4283301888
0.00058705406 -0.066337109 0.67400002 4283301895
0.0017611622 -0.066337109 0.67400002 4283564042
0.0029352703 -0.066337109 0.67400002 4283760896
0.0041154753 -0.066435531 0.67500001 4283826689
0.0052913255 -0.066435531 0.67500001 4284350464
0.0064671757 -0.066435531 0.67500001 4284416000
0.0076656719 -0.066632383 0.67700005 4284874759
0.0088580707 -0.066730805 0.67800003 4285005833
0.010039148 -0.066730805 0.67800003 4285726729
0.011236772 -0.066829227 0.67900002 4285988878
0.012456173 -0.067026071 0.68100005 4286054924
0.013642475 -0.067026071 0.68100005 4286120717
0.014828777 -0.067026071 0.68100005 4286252569
0.016038597 -0.067124493 0.68200004 4286120983
0.017277157 -0.067321338 0.68400002 4286187024
0.018495688 -0.067419767 0.68500006 4285726729
0.019717701 -0.06751819 0.68600005 4286448137
0.021004166 -0.067813456 0.68900001 4289014065
0.022236634 -0.067911886 0.69000006 4288492611
0.02350655 -0.068108723 0.69200003 4289545299
0.024747726 -0.068207145 0.69300002 4289215305
-0.037297968 -0.067870073 0.70200002 4290616451
-0.035920918 -0.067580029 0.69900006 4290478721
-0.034603961 -0.067386664 0.69700003 4287781208
-0.033341885 -0.067289986 0.69600004 4287381571
-0.03199096 -0.066999942 0.69300002 4284618265
-0.030650495 -0.066709898 0.69000006 4285595648
-0.029277798 -0.066323176 0.68600005 4285464576
-0.028082784 -0.066323176 0.68600005 4285464576
-0.026848579 -0.06622649 0.68500006 4285923588
-0.025655309 -0.06622649 0.68500006 4284941599
-0.024426326 -0.066129811 0.68400002 4284941599
-0.023166861 -0.065936446 0.68200004 4284745992
-0.02194659 -0.065839767 0.68100005 4284351234
-0.020760287 -0.065839767 0.68100005 4284285704
-0.0195165 -0.065646403 0.67900002 4284285704
-0.018333679 -0.065646403 0.67900002 4283564544
-0.017125603 -0.065549724 0.67800003 4283367424
-0.015944529 -0.065549724 0.67800003 4282910208
-0.014741677 -0.065453045 0.67700005 4282844416
-0.013562343 -0.065453045 0.67700005 4283432960
-0.012383008 -0.065453045 0.67700005 4283498496
-0.011203675 -0.065453045 0.67700005 4283891712
-0.01002434 -0.065453045 0.67700005 4283957248
-0.0088580707 -0.065549724 0.67800003 4283891712
-0.0076430258 -0.06525968 0.67500001 4283695104
-0.0064671757 -0.06525968 0.67500001 4283498501
-0.0052913255 -0.06525968 0.67500001 4283170816
-0.0041154753 -0.06525968 0.67500001 4283170816
-0.0029396252 -0.06525968 0.67500001 4283236352
-0.0017637752 -0.06525968 0.67500001 4282515456
-0.00058792502 -0.06525968 0.67500001 4282449920
0.00058792502 -0.06525968 0.67500001 4282777603
0.0017637752 -0.06525968 0.67500001 4283172105
0.0029396252 -0.06525968 0.67500001 4283172107
0.0041154753 -0.06525968 0.67500001 4283040264
0.0053070039 -0.065453045 0.67700005 4284088320
0.0064959186 -0.065549724 0.67800003 4284153856
0.0076769944 -0.065549724 0.67800003 4285005827
0.0088711362 -0.065646403 0.67900002 4285333768
0.010083568 -0.065839767 0.68100005 4285595661
0.01126987 -0.065839767 0.68100005 4285792783
0.012456173 -0.065839767 0.68100005 4285923858
0.013662508 -0.065936446 0.68200004 4286120981
0.014850552 -0.065936446 0.68200004 4286186776
0.01608563 -0.066129811 0.68400002 4286120983
0.017302418 -0.06622649 0.68500006 4286121221
0.018522687 -0.066323176 0.68600005 4285792257
0.019775186 -0.066516533 0.68800002 4286316547
0.021034652 -0.066709898 0.69000006 4289078829
0.022301087 -0.066903263 0.69200003 4288230468
0.023540519 -0.066999942 0.69300002 4289348949
-0.037297968 -0.066647187 0.70200002 4291208833
-0.035920918 -0.066362374 0.69900006 4290939762
-0.034603961 -0.066172488 0.69700003 4288044870
-0.033341885 -0.066077553 0.69600004 4287449676
-0.032083288 -0.06598261 0.69500005 4284752419
-0.030783758 -0.065792732 0.69300002 4285530128
-0.029448513 -0.065507919 0.69000006 4285399054
-0.028164661 -0.065318041 0.68800002 4285333508
-0.026887774 -0.065128163 0.68600005 4285726730
-0.025655309 -0.065033227 0.68500006 4284744206
-0.024462039 -0.065033227 0.68500006 4284875793
-0.023234798 -0.064938277 0.68400002 4284025867
-0.022043269 -0.064938277 0.68400002 4283499523
-0.020790773 -0.064748406 0.68200004 4282910997
-0.019573985 -0.064653464 0.68100005 4282910997
-0.018387685 -0.064653464 0.68100005 4282385162
-0.017150862 -0.064463586 0.67900002 4282253833
-0.015968043 -0.064463586 0.67900002 4282124043
-0.014763451 -0.064368643 0.67800003 4282124043
-0.013582376 -0.064368643 0.67800003 4282254083
-0.0124013 -0.064368643 0.67800003 4282188290
-0.011220223 -0.064368643 0.67800003 4282777603
-0.010039148 -0.064368643 0.67800003 4282908676
-0.0088580707 -0.064368643 0.67800003 4283105286
-0.0076656719 -0.064273715 0.67700005 4282974212
-0.0064863376 -0.064273715 0.67700005 4282974208
-0.0053070039 -0.064273715 0.67700005 4282712064
-0.0041276696 -0.064273715 0.67700005 4282122240
-0.0029396252 -0.06408383 0.67500001 4281925632
-0.0017637752 -0.06408383 0.67500001 4281597952
-0.00058792502 -0.06408383 0.67500001 4281729024
0.00058792502 -0.06408383 0.67500001 4281925640
0.0017637752 -0.06408383 0.67500001 4282318862
0.0029396252 -0.06408383 0.67500001 4282451211
0.0041276696 -0.064273715 0.67700005 4282122247
0.0053148423 -0.064368643 0.67800003 4282843136
0.0065054996 -0.064463586 0.67900002 4282646528
0.0076883179 -0.064463586 0.67900002 4283301888
0.0088972664 -0.064653464 0.68100005 4283695104
0.010083568 -0.064653464 0.68100005 4284219392
0.01128642 -0.064748406 0.68200004 4284743943
0.012474463 -0.064748406 0.68200004 4285335062
0.013702573 -0.064938277 0.68400002 4285400855
0.014894101 -0.064938277 0.68400002 4286056993
0.016109146 -0.065033227 0.68500006 4285859358
0.017327676 -0.065128163 0.68600005 4286054915
0.018576691 -0.065318041 0.68800002 4286054915
0.019803928 -0.065412976 0.68900001 4286316548
0.021034652 -0.065507919 0.69000006 4288947499
0.022301087 -0.065697797 0.69200003 4288164413
-0.035920918 -0.06514471 0.69900006 4290547344
-0.034603961 -0.064958312 0.69700003 4287718245
-0.033341885 -0.06486512 0.69600004 4288040782
-0.032083288 -0.06477192 0.69500005 4284554010
-0.030783758 -0.064585529 0.69300002 4286055680
-0.029448513 -0.064305939 0.69000006 4285202432
-0.028205594 -0.064212739 0.68900001 4285333508
-0.026966162 -0.064119548 0.68800002 4285530118
-0.025692763 -0.063933156 0.68600005 4284613388
-0.024497749 -0.063933156 0.68600005 4284745231
-0.023268769 -0.063839957 0.68500006 4283109403
-0.022075498 -0.063839957 0.68500006 4282385936
-0.020851742 -0.063746758 0.68400002 4281471510
-0.019602727 -0.063560367 0.68200004 4281339668
-0.018387685 -0.063467167 0.68100005 4281273865
-0.017201383 -0.063467167 0.68100005 4281142279
-0.016015079 -0.063467167 0.68100005 4281534986
-0.014785226 -0.063280769 0.67900002 4281600779
-0.013602409 -0.063280769 0.67900002 4281076230
-0.012419591 -0.063280769 0.67900002 4280681728
-0.011236772 -0.063280769 0.67900002 4281469193
-0.010053954 -0.063280769 0.67900002 4281534986
-0.0088711362 -0.063280769 0.67900002 4282581251
-0.0076769944 -0.063187577 0.67800003 4282581251
-0.0064959186 -0.063187577 0.67800003 4282318848
-0.0053148423 -0.063187577 0.67800003 4281991168
-0.0041276696 -0.063094378 0.67700005 4281335808
-0.0029483354 -0.063094378 0.67700005 4280877056
-0.0017690012 -0.063094378 0.67700005 4280418304
-0.00058966706 -0.063094378 0.67700005 4280549376
0.00058966706 -0.063094378 0.67700005 4280877056
0.0017637752 -0.062907979 0.67500001 4281467392
0.0029396252 -0.062907979 0.67500001 4281663744
0.0041276696 -0.063094378 0.67700005 4281532416
0.0053226813 -0.063280769 0.67900002 4281466880
0.0065054996 -0.063280769 0.67900002 4281335808
0.0076883179 -0.063280769 0.67900002 4281532416
0.0088972664 -0.063467167 0.68100005 4281991424
0.010098375 -0.063560367 0.68200004 4283039749
0.011319517 -0.063746758 0.68400002 4283302409
0.012511045 -0.063746758 0.68400002 4285072658
0.013722607 -0.063839957 0.68500006 4285270037
0.014937652 -0.063933156 0.68600005 4286057243
0.016179698 -0.064119548 0.68800002 4285925401
0.017403454 -0.064212739 0.68900001 4286056712
0.018630693 -0.064305939 0.69000006 4285596161
0.019890158 -0.06449233 0.69200003 4286251010
0.021095622 -0.06449233 0.69200003 4288684071
-0.035972305 -0.06401851 0.70000005 4291005835
-0.034703258 -0.063927054 0.69900006 4289097838
-0.033389788 -0.063744143 0.69700003 4288372564
-0.032129452 -0.063652687 0.69600004 4285346342
-0.0308726 -0.063561231 0.69500005 4286123268
-0.029576549 -0.063378319 0.69300002 4284809216
-0.028328408 -0.063286871 0.69200003 4285267998
-0.027005358 -0.063012503 0.68900001 4285530147
-0.025767667 -0.062921047 0.68800002 4284352268
-0.024497749 -0.062738143 0.68600005 4284286474
-0.023302738 -0.062738143 0.68600005 4282847262
-0.022075498 -0.06264668 0.68500006 4282650139
-0.020882228 -0.06264668 0.68500006 4281603609
-0.019660214 -0.062555224 0.68400002 4281143058
-0.018468685 -0.062555224 0.68400002 4280879616
-0.01722664 -0.062372316 0.68200004 4280813568
-0.016015079 -0.062280864 0.68100005 4280942592
-0.014828777 -0.062280864 0.68100005 4280942592
-0.013642475 -0.062280864 0.68100005 4280549376
-0.012456173 -0.062280864 0.68100005 4280549376
-0.011236772 -0.062097955 0.67900002 4280877056
-0.010053954 -0.062097955 0.67900002 4280811520
-0.0088711362 -0.062097955 0.67900002 4281204736
-0.0076883179 -0.062097955 0.67900002 4281204736
-0.0065054996 -0.062097955 0.67900002 4280877056
-0.0053226813 -0.062097955 0.67900002 4280549376
-0.0041398634 -0.062097955 0.67900002 4280287232
-0.0029526902 -0.062006496 0.67800003 4280221696
-0.0017716143 -0.062006496 0.67800003 4280287232
-0.00059053808 -0.062006496 0.67800003 4281336841
0.00059053808 -0.062006496 0.67800003 4281664776
0.0017716143 -0.062006496 0.67800003 4282980635
0.0029526902 -0.062006496 0.67800003 4282917632
0.0041520572 -0.062280864 0.68100005 4283772938
0.0053383601 -0.062280864 0.68100005 4284565773
0.006524662 -0.062280864 0.68100005 4284828688
0.007710964 -0.062280864 0.68100005 4284696367
0.0089364611 -0.062555224 0.68400002 4284696367
0.010157603 -0.062738143 0.68600005 4283440192
0.011352615 -0.062738143 0.68600005 4282256174
0.012547628 -0.062738143 0.68600005 4283892243
0.013782705 -0.062921047 0.68800002 4283958036
0.014981202 -0.062921047 0.68800002 4284481536
0.016203215 -0.063012503 0.68900001 4285006598
0.017428713 -0.063103959 0.69000006 4285728010
0.018684695 -0.063286871 0.69200003 4285399046
0.019890158 -0.063286871 0.69200003 4286185472
0.021095622 -0.063286871 0.69200003 4288356123
0.023880208 -0.06429287 0.70300001 4289612109
0.025104834 -0.06429287 0.70300001 4288825937
-0.036075082 -0.062978528 0.70200002 4290613137
-0.034752905 -0.062799111 0.70000005 4289034105
-0.033485599 -0.062709399 0.69900006 4288832351
-0.032129452 -0.062440254 0.69600004 4285608495
-0.030917021 -0.062440254 0.69600004 4286716172
-0.029576549 -0.062171116 0.69300002 4284743680
-0.028369343 -0.062171116 0.69300002 4285136899
-0.027122943 -0.0620814 0.69200003 4285857806
-0.025805119 -0.061812263 0.68900001 4284090906
-0.024569171 -0.061722554 0.68800002 4283630355
-0.023302738 -0.061543126 0.68600005 4282716696
-0.022107724 -0.061543126 0.68600005 4282453524
-0.020882228 -0.061453417 0.68500006 4281733383
-0.019688958 -0.061453417 0.68500006 4281601796
-0.018468685 -0.061363697 0.68400002 4280681216
