# .PCD v0.7 - Point Cloud Data file format
VERSION 0.7
FIELDS x y z
SIZE 4 4 4
TYPE F F F
COUNT 1 1 1
WIDTH 1339
HEIGHT 1
VIEWPOINT 0 0 0 1 0 0 0
POINTS 1339
DATA ascii
-0.050202284 0.023869917 0.80152088
-0.050459873 0.022999723 0.8023603
-0.050772667 0.021948799 0.80338317
-0.051108334 0.020830231 0.80448657
-0.051456142 0.019683629 0.80563754
-0.051829111 0.018470833 0.80688214
-0.052205149 0.017268443 0.8081497
-0.052583609 0.016081989 0.80944002
-0.052964061 0.014916441 0.810754
-0.053346179 0.013776711 0.8120929
-0.053729668 0.012668023 0.81345844
-0.054114234 0.011596247 0.81485254
-0.054499511 0.010568268 0.81627768
-0.05488503 0.0095924456 0.81773639
-0.055270147 0.0086792586 0.81923181
-0.055653915 0.0078422092 0.82076722
-0.056034919 0.0070991619 0.82234609
-0.05641095 0.0064743226 0.82397163
-0.056778502 0.0060010855 0.8256458
-0.05713189 0.0057257111 0.82736677
-0.057461992 0.0057103722 0.82912433
-0.057755176 0.0060296776 0.83089173
-0.057995182 0.0067479187 0.83262175
-0.058173534 0.0078841131 0.83428097
-0.058263343 0.0088504823 0.83536083
-0.049874652 0.026697705 0.79915559
-0.049622282 0.027558651 0.79833841
-0.049316503 0.028607488 0.79735178
-0.048989445 0.029738391 0.79630214
-0.048652016 0.030917438 0.79522681
-0.048292149 0.032191526 0.79409033
-0.047931712 0.033487987 0.79296464
-0.047571737 0.034806602 0.79185522
-0.047213059 0.036147982 0.79076678
-0.046856441 0.037513252 0.7897042
-0.046502668 0.038903922 0.78867263
-0.04615261 0.04032179 0.78767776
-0.045807283 0.041768972 0.78672642
-0.045467939 0.043247852 0.78582674
-0.045136191 0.044761091 0.78498906
-0.044814173 0.04631155 0.78422648
-0.044504814 0.047902104 0.78355658
-0.044212237 0.049535152 0.78300279
-0.043942414 0.051211514 0.78259772
-0.043704096 0.052927963 0.78238612
-0.043509901 0.054672308 0.78242803
-0.043376539 0.056415606 0.78279495
-0.043321043 0.058108944 0.7835477
-0.043350581 0.059718456 0.78470367
-0.04341178 0.06075868 0.78567618
-0.051390503 0.046883162 0.81978458
-0.051137634 0.047737423 0.81896055
-0.050830565 0.048769105 0.81795639
-0.050501041 0.049867194 0.81687319
-0.0501596 0.050992802 0.81574333
-0.049793463 0.052183393 0.81452149
-0.049424309 0.05336377 0.81327718
-0.049052779 0.054528501 0.81201041
-0.048679292 0.055672713 0.8107205
-0.04830417 0.056791574 0.8094061
-0.0479277 0.057879966 0.80806559
-0.047550179 0.058932118 0.80669701
-0.047171954 0.059941277 0.80529797
-0.046793494 0.060899232 0.80386597
-0.04641543 0.0617957 0.80239791
-0.046038684 0.062617421 0.80089062
-0.045664657 0.06334687 0.79934067
-0.04529551 0.063960269 0.79774487
-0.044934686 0.064424843 0.79610139
-0.044587772 0.064695172 0.7944119
-0.044263709 0.06471023 0.79268652
-0.043975893 0.064396776 0.79095149
-0.043740287 0.063691676 0.78925312
-0.043565195 0.062576286 0.7876243
-0.043477032 0.061627612 0.78656423
-0.052146599 0.04431634 0.82224065
-0.052398965 0.043455396 0.82305783
-0.052704744 0.042406559 0.82404441
-0.053031806 0.041275654 0.8250941
-0.053369232 0.040096607 0.82616937
-0.053729102 0.038822521 0.82730591
-0.054089535 0.03752606 0.82843155
-0.05444951 0.036207445 0.82954103
-0.054808192 0.034866065 0.83062947
-0.055164807 0.033500791 0.83169204
-0.055518579 0.032110125 0.83272362
-0.055868637 0.030692255 0.83371848
-0.056213964 0.029245075 0.83466983
-0.056553308 0.027766194 0.8355695
-0.056885056 0.026252955 0.83640718
-0.057207074 0.024702495 0.83716971
-0.057516437 0.023111943 0.83783966
-0.05780901 0.021478893 0.83839339
-0.058078833 0.019802531 0.83879846
-0.058317151 0.018086081 0.83901006
-0.058511347 0.016341738 0.83896816
-0.058644712 0.014598439 0.83860129
-0.058700204 0.012905099 0.83784848
-0.058670666 0.011295591 0.83669251
-0.058609471 0.010255365 0.83572
-0.050630745 0.024130885 0.80161166
-0.050883614 0.023276621 0.8024357
-0.051190682 0.02224494 0.8034398
-0.051520206 0.021146851 0.80452299
-0.051861648 0.020021243 0.80565292
-0.052227784 0.018830651 0.80687475
-0.052596938 0.017650275 0.80811906
-0.052968469 0.016485544 0.80938578
-0.053341955 0.015341334 0.81067574
-0.053717077 0.014222471 0.81199008
-0.054093547 0.01313408 0.81333059
-0.054471072 0.012081928 0.81469923
-0.054849293 0.01107277 0.81609821
-0.055227757 0.010114813 0.81753027
-0.055605821 0.0092183463 0.81899828
-0.055982564 0.0083966218 0.82050556
-0.05635659 0.0076671792 0.82205558
-0.05672574 0.0070537794 0.82365131
-0.057086561 0.0065892064 0.82529485
-0.057433479 0.0063188733 0.82698429
-0.057757538 0.0063038175 0.82870972
-0.058045354 0.0066172727 0.83044475
-0.058280963 0.0073223677 0.83214313
-0.058456052 0.0084377564 0.83377188
-0.058544215 0.0093864352 0.83483201
-0.050307475 0.026909664 0.79929394
-0.05005981 0.027754555 0.79849201
-0.049759734 0.028783832 0.7975238
-0.049438775 0.029893644 0.79649371
-0.049107641 0.031050704 0.79543847
-0.048754483 0.032301031 0.79432315
-0.048400771 0.033573315 0.79321849
-0.048047509 0.034867339 0.7921297
-0.047695518 0.0361837 0.79106158
-0.047345553 0.037523512 0.7900188
-0.046998378 0.038888246 0.78900647
-0.046654847 0.040279675 0.78803015
-0.046315961 0.041699868 0.78709656
-0.045982946 0.043151166 0.7862137
-0.045657381 0.044636186 0.78539157
-0.045341369 0.046157729 0.78464323
-0.04503778 0.047718622 0.78398579
-0.044750661 0.049321216 0.78344244
-0.044485871 0.050966315 0.78304487
-0.044251993 0.052650757 0.78283727
-0.044061419 0.054362565 0.78287834
-0.043930545 0.056073353 0.78323841
-0.043876085 0.057735119 0.78397715
-0.043905076 0.059314609 0.78511155
-0.043965127 0.060335435 0.78606594
-0.051795058 0.046718679 0.81953824
-0.051546901 0.047557015 0.81872958
-0.051245563 0.048569456 0.81774414
-0.050922185 0.049647067 0.81668115
-0.05058711 0.050751682 0.81557232
-0.050227799 0.051920071 0.81437325
-0.049865533 0.053078435 0.81315219
-0.049500931 0.054221444 0.81190908
-0.049134407 0.055344313 0.8106432
-0.048766281 0.056442313 0.80935329
-0.048396833 0.057510406 0.80803782
-0.048026349 0.058542937 0.80669469
-0.04765518 0.059533276 0.80532181
-0.047283776 0.060473364 0.80391645
-0.046912763 0.061353114 0.80247581
-0.046543047 0.062159516 0.80099666
-0.046175994 0.062875353 0.79947555
-0.045813728 0.063477315 0.79790956
-0.045459636 0.063933223 0.79629672
-0.045119189 0.064198516 0.79463875
-0.044801172 0.064213291 0.7929455
-0.044518724 0.063905679 0.79124284
-0.04428751 0.063213736 0.78957611
-0.044115685 0.062119145 0.78797776
-0.044029165 0.061188161 0.78693742
-0.05253705 0.044199731 0.82194847
-0.052784715 0.043354839 0.82275045
-0.053084791 0.042325564 0.82371867
-0.053405751 0.041215751 0.82474869
-0.053736884 0.040058691 0.82580394
-0.054090042 0.038808364 0.82691926
-0.054443758 0.037536081 0.82802397
-0.054797016 0.036242057 0.82911271
-0.055149008 0.034925692 0.83018082
-0.055498973 0.03358588 0.83122361
-0.055846147 0.03222115 0.83223593
-0.056189679 0.03082972 0.83321226
-0.056528568 0.029409528 0.83414584
-0.056861579 0.027958229 0.83502877
-0.057187144 0.026473209 0.83585083
-0.057503156 0.024951665 0.83659917
-0.057806745 0.023390772 0.83725661
-0.058093864 0.02178818 0.83780003
-0.058358654 0.020143081 0.83819753
-0.058592532 0.018458638 0.83840519
-0.058783107 0.016746828 0.83836406
-0.05891398 0.015036041 0.83800399
-0.05896844 0.013374276 0.83726531
-0.058939449 0.011794786 0.83613086
-0.058879398 0.010773959 0.83517647
-0.051049467 0.024390714 0.80170423
-0.051297624 0.023552381 0.80251288
-0.051598962 0.022539938 0.80349827
-0.05192234 0.021462329 0.80456126
-0.052257415 0.020357711 0.80567008
-0.052616727 0.019189324 0.80686915
-0.052978992 0.018030958 0.80809027
-0.053343594 0.01688795 0.80933338
-0.053710118 0.01576508 0.81059927
-0.054078244 0.014667082 0.81188911
-0.054447692 0.013598988 0.81320465
-0.054818176 0.012566458 0.81454772
-0.055189345 0.011576119 0.81592065
-0.055560749 0.01063603 0.81732595
-0.055931762 0.0097562792 0.81876659
-0.056301478 0.0089498786 0.8202458
-0.056668531 0.0082340389 0.82176685
-0.057030797 0.0076320795 0.82333291
-0.05738489 0.007176172 0.82494569
-0.057725336 0.0069108768 0.82660371
-0.058043353 0.0068961037 0.8282969
-0.058325801 0.0072037154 0.82999957
-0.058557019 0.0078956578 0.83166629
-0.05872884 0.0089902477 0.83326471
-0.05881536 0.0099212341 0.83430505
-0.050730735 0.027120508 0.79943407
-0.050487779 0.027949343 0.79864734
-0.050193403 0.028959062 0.79769754
-0.049878541 0.030047785 0.79668707
-0.0495537 0.031182857 0.79565185
-0.049207255 0.032409426 0.79455775
-0.048860263 0.033657532 0.79347408
-0.048513714 0.034926966 0.79240596
-0.04816841 0.036218315 0.79135811
-0.047825094 0.037532669 0.79033518
-0.047484517 0.038871467 0.78934211
-0.047147516 0.040236454 0.78838432
-0.046815068 0.041629661 0.78746849
-0.046488382 0.043053381 0.78660238
-0.046169005 0.044510182 0.78579587
-0.045858998 0.046002816 0.78506178
-0.045561176 0.047534045 0.78441685
-0.045279514 0.049106184 0.78388375
-0.045019753 0.050720025 0.78349382
-0.044790324 0.052372456 0.78329009
-0.04460337 0.054051742 0.78333044
-0.044474982 0.055730015 0.78368366
-0.044421557 0.057360202 0.78440833
-0.044449996 0.058909681 0.78552121
-0.044508908 0.05991111 0.78645742
-0.05219005 0.046553105 0.81929368
-0.05194661 0.047375508 0.81850034
-0.051650997 0.048368711 0.81753367
-0.051333763 0.049425844 0.81649089
-0.051005058 0.050509471 0.8154031
-0.050652575 0.051655658 0.81422687
-0.05029719 0.052792009 0.81302893
-0.049939517 0.053913299 0.81180948
-0.049579959 0.05501483 0.81056768
-0.04921883 0.056091964 0.80930227
-0.0488564 0.057139762 0.80801177
-0.048492957 0.058152672 0.80669421
-0.048128843 0.05912419 0.80534738
-0.047764495 0.06004642 0.80396879
-0.04740053 0.06090945 0.8025555
-0.04703784 0.061700527 0.80110443
-0.046677761 0.062402762 0.79961228
-0.046322383 0.062993288 0.79807597
-0.045975018 0.063440531 0.79649377
-0.045641039 0.06370078 0.79486734
-0.045329064 0.063715279 0.79320627
-0.045051984 0.063413508 0.79153597
-0.044825163 0.062734716 0.78990096
-0.044656605 0.061660923 0.78833288
-0.044571728 0.060747631 0.78731233
-0.052917942 0.044082019 0.82165813
-0.053160902 0.043253187 0.82244486
-0.053455275 0.042243466 0.82339466
-0.053770136 0.041154742 0.82440513
-0.054094978 0.040019672 0.82544035
-0.054441426 0.038793106 0.82653445
-0.054788418 0.037544996 0.82761812
-0.055134967 0.036275562 0.82868624
-0.055480268 0.034984212 0.82973409
-0.055823583 0.033669859 0.83075702
-0.05616416 0.032331061 0.83175009
-0.056501161 0.030966073 0.83270788
-0.05683361 0.029572869 0.83362371
-0.057160296 0.028149147 0.83448982
-0.057479672 0.026692346 0.83529633
-0.05778968 0.025199713 0.83603042
-0.058087502 0.023668483 0.83667535
-0.058369167 0.022096343 0.83720845
-0.058628924 0.020482505 0.83759838
-0.058858354 0.018830074 0.83780211
-0.059045307 0.017150788 0.83776176
-0.059173696 0.015472513 0.83740854
-0.05922712 0.013842326 0.83668387
-0.059198681 0.012292849 0.83557099
-0.05913977 0.011291419 0.83463478
-0.051458627 0.024649423 0.80179852
-0.051702067 0.023827022 0.80259186
-0.051997684 0.022833819 0.80355853
-0.052314915 0.021776685 0.80460131
-0.052643623 0.020693058 0.8056891
-0.052996103 0.019546872 0.80686533
-0.053351488 0.018410519 0.80806327
-0.053709164 0.017289231 0.80928272
-0.054068718 0.016187698 0.81052452
-0.054429848 0.015110564 0.81178993
-0.054792278 0.014062768 0.81308043
-0.055155721 0.013049857 0.81439799
-0.055519838 0.012078337 0.81574482
-0.055884182 0.01115611 0.81712341
-0.056248147 0.01029308 0.8185367
-0.056610841 0.0095020011 0.81998777
-0.056970917 0.0087997643 0.82147992
-0.057326298 0.0082092434 0.82301623
-0.057673659 0.0077619981 0.82459843
-0.058007639 0.007501747 0.82622486
-0.058319613 0.007487251 0.82788593
-0.058596693 0.0077890195 0.82955623
-0.058823515 0.008467813 0.83119124
-0.058992073 0.0095416037 0.83275932
-0.05907695 0.010454899 0.83377987
-0.051144592 0.027330253 0.79957598
-0.050906342 0.028143035 0.79880446
-0.050617669 0.029133195 0.79787308
-0.050308906 0.03020083 0.79688215
-0.049990356 0.031313919 0.79586703
-0.049650621 0.032516725 0.79479408
-0.049310349 0.033740658 0.79373139
-0.048970513 0.034985505 0.79268396
-0.048631899 0.036251843 0.79165643
-0.048295233 0.037540738 0.79065335
-0.047961254 0.038853604 0.78967947
-0.047630779 0.040192153 0.78874028
-0.047304768 0.041558374 0.78784209
-0.046984412 0.042954516 0.78699279
-0.046671223 0.044383101 0.78620195
-0.046367221 0.04584682 0.78548205
-0.046075165 0.047348391 0.78484958
-0.045798957 0.04889008 0.78432685
-0.045544229 0.050472658 0.78394443
-0.045319244 0.052093085 0.78374469
-0.045135912 0.053739842 0.78378421
-0.045010012 0.055385612 0.78413057
-0.044957619 0.056984223 0.78484124
-0.044985507 0.058503687 0.78593254
-0.045043278 0.059485719 0.78685069
-0.05257564 0.046386454 0.81905085
-0.052336916 0.047192924 0.81827295
-0.052047029 0.04816689 0.817325
-0.051735941 0.049203549 0.81630242
-0.051413599 0.050266184 0.81523567
-0.051067945 0.051390171 0.81408221
-0.050719444 0.052504513 0.81290752
-0.0503687 0.053604081 0.81171167
-0.050016105 0.054684278 0.81049389
-0.049661972 0.05574055 0.80925304
-0.04930656 0.056768049 0.80798751
-0.048950158 0.057761341 0.80669546
-0.048593096 0.058714043 0.80537474
-0.048235808 0.059618406 0.80402279
-0.047878891 0.060464725 0.80263692
-0.047523227 0.061240479 0.80121392
-0.047170121 0.06192911 0.79975069
-0.046821628 0.062508196 0.79824418
-0.046480991 0.062946774 0.79669261
-0.046153482 0.063201986 0.79509765
-0.04584755 0.063216202 0.79346883
-0.045575835 0.06292028 0.79183084
-0.045353409 0.062254634 0.79022747
-0.045188114 0.061201643 0.78868979
-0.045104884 0.060306039 0.78768903
-0.053289436 0.043963231 0.82136953
-0.053527687 0.043150451 0.82214099
-0.053816359 0.042160287 0.82307243
-0.054125123 0.041092653 0.82406336
-0.054443672 0.039979566 0.82507849
-0.054783408 0.038776759 0.82615143
-0.055123679 0.037552826 0.82721412
-0.055463515 0.036307979 0.82826149
-0.055802129 0.035041641 0.82928902
-0.056138795 0.033752747 0.83029217
-0.056472775 0.032439884 0.83126605
-0.056803249 0.031101333 0.83220524
-0.05712926 0.029735113 0.83310336
-0.057449616 0.028338967 0.83395272
-0.057762805 0.026910385 0.83474356
-0.058066811 0.025446665 0.83546346
-0.058358863 0.023945093 0.83609587
-0.058635071 0.022403404 0.83661866
-0.058889799 0.020820826 0.83700109
-0.059114784 0.019200398 0.83720082
-0.059298117 0.017553642 0.83716124
-0.059424017 0.015907872 0.83681488
-0.059476409 0.014309262 0.83610421
-0.059448522 0.012789798 0.83501291
-0.05939075 0.011807765 0.83409482
-0.051858388 0.024907032 0.80189461
-0.052097112 0.024100561 0.80267256
-0.052386999 0.023126593 0.80362052
-0.052698087 0.022089938 0.80464309
-0.053020429 0.021027301 0.80570978
-0.053366084 0.019903315 0.80686331
-0.053714585 0.018788973 0.808038
-0.054065328 0.017689403 0.80923384
-0.054417923 0.016609205 0.81045163
-0.054772057 0.015552935 0.81169248
-0.055127468 0.014525435 0.812958
-0.05548387 0.013532143 0.81424999
-0.055840932 0.012579441 0.81557077
-0.056198221 0.011675078 0.81692266
-0.056555137 0.010828761 0.81830859
-0.056910802 0.010053007 0.81973153
-0.057263907 0.0093643731 0.82119483
-0.057612401 0.0087852897 0.82270133
-0.057953037 0.0083467076 0.82425284
-0.058280546 0.0080914963 0.8258478
-0.058586478 0.0080772834 0.82747668
-0.058858193 0.0083732056 0.82911468
-0.059080619 0.0090388507 0.83071804
-0.059245914 0.010091843 0.83225566
-0.059329145 0.010987447 0.83325648
-0.051549193 0.027538918 0.79971957
-0.051315647 0.028335646 0.79896331
-0.051032677 0.029306252 0.79805028
-0.050730012 0.030352799 0.79707897
-0.050417755 0.031443901 0.79608387
-0.050084729 0.032622952 0.79503214
-0.049751177 0.033822712 0.79399043
-0.049418055 0.035042971 0.79296368
-0.049086127 0.036284298 0.79195648
-0.048756111 0.037547734 0.79097313
-0.048428729 0.038834669 0.7900185
-0.048104782 0.040146783 0.78909785
-0.047785211 0.041486017 0.78821748
-0.047471177 0.042854588 0.78738493
-0.047164176 0.044254955 0.78660971
-0.046866179 0.045689765 0.78590399
-0.04657989 0.04716168 0.78528404
-0.04630914 0.048672918 0.78477162
-0.046059445 0.050224241 0.78439677
-0.0458389 0.05181266 0.78420097
-0.045659188 0.053426892 0.78423971
-0.045535773 0.055040158 0.78457928
-0.045484416 0.056607194 0.78527588
-0.045511756 0.058096647 0.78634566
-0.045568388 0.059059281 0.78724557
-0.052951977 0.046218738 0.81880981
-0.052717969 0.047009282 0.81804723
-0.052433804 0.04796401 0.81711799
-0.052128863 0.048980195 0.81611562
-0.051812887 0.050021842 0.81506997
-0.051474061 0.051123627 0.81393927
-0.051132441 0.05221596 0.81278777
-0.050788622 0.053293813 0.81161553
-0.050442997 0.054352675 0.81042182
-0.050095856 0.055388086 0.80920547
-0.049747463 0.056395292 0.80796498
-0.049398102 0.057368964 0.80669844
-0.049048092 0.05830285 0.80540377
-0.048697859 0.059189349 0.80407858
-0.048347995 0.060018949 0.80272007
-0.047999352 0.060779382 0.8013252
-0.047653221 0.061454415 0.79989082
-0.047311608 0.06202206 0.79841405
-0.046977703 0.062451981 0.79689318
-0.046656661 0.062702149 0.79532969
-0.046356771 0.062716082 0.793733
-0.046090424 0.062426008 0.79212737
-0.04587239 0.061773509 0.79055572
-0.045710359 0.060741313 0.78904843
-0.045628775 0.059863396 0.7880674
-0.053651676 0.043843377 0.82108271
-0.053885218 0.04304665 0.82183892
-0.054168191 0.042076048 0.82275194
-0.054470852 0.041029498 0.82372332
-0.054783113 0.039938394 0.82471842
-0.055116139 0.038759343 0.82577014
-0.055449691 0.037559584 0.82681185
-0.055782814 0.036339324 0.82783854
-0.056114737 0.035098001 0.8288458
-0.056444757 0.033834562 0.8298291
-0.056772139 0.032547627 0.83078372
-0.057096086 0.031235516 0.83170438
-0.057415657 0.02989628 0.8325848
-0.057729688 0.028527709 0.83341736
-0.058036689 0.027127342 0.83419257
-0.05833469 0.025692532 0.83489823
-0.058620974 0.024220617 0.83551818
-0.058891729 0.022709379 0.8360306
-0.059141424 0.021158058 0.83640546
-0.059361964 0.019569635 0.83660126
-0.059541676 0.017955404 0.83656251
-0.059665091 0.016342139 0.83622301
-0.059716448 0.014775103 0.83552635
-0.059689112 0.013285651 0.83445662
-0.05963248 0.012323015 0.83355665
-0.052248888 0.025163557 0.80199242
-0.052482899 0.024373015 0.802755
-0.052767061 0.023418285 0.80368423
-0.053072006 0.022402104 0.80468661
-0.053387977 0.021360455 0.80573225
-0.053726807 0.020258669 0.80686295
-0.054068424 0.019166335 0.80801445
-0.054412242 0.018088482 0.8091867
-0.054757871 0.017029621 0.8103804
-0.055105012 0.015994214 0.81159675
-0.055453401 0.014987006 0.81283724
-0.055802763 0.014013334 0.81410378
-0.056152776 0.013079448 0.81539845
-0.056503009 0.012192948 0.81672364
-0.056852873 0.011363348 0.81808221
-0.057201516 0.010602915 0.81947708
-0.057547644 0.009927881 0.82091141
-0.057889257 0.0093602352 0.82238817
-0.058223166 0.0089303153 0.82390904
-0.058544204 0.0086801443 0.82547253
-0.058844093 0.0086662127 0.82706922
-0.059110444 0.008956288 0.82867485
-0.059328478 0.0096087875 0.83024657
-0.059490506 0.010640983 0.83175385
-0.059572093 0.011518899 0.83273488
-0.051944688 0.027746519 0.79986483
-0.051715847 0.028527196 0.79912382
-0.051438577 0.029478244 0.79822922
-0.051142015 0.030503707 0.79727745
-0.050836045 0.031572826 0.79630238
-0.050509728 0.032728124 0.79527187
-0.050182898 0.033903707 0.79425114
-0.049856488 0.035099383 0.79324508
-0.049531247 0.036315698 0.79225814
-0.049207881 0.037553679 0.79129463
-0.048887093 0.038814686 0.79035926
-0.048569672 0.040100362 0.78945714
-0.048256543 0.041412614 0.78859448
-0.047948837 0.042753611 0.78777874
-0.04764802 0.044125762 0.78701913
-0.047356024 0.045531664 0.78632766
-0.047075506 0.046973925 0.78572017
-0.04681021 0.048454713 0.78521806
-0.046565544 0.049974781 0.78485078
-0.046349447 0.051531199 0.78465891
-0.046173356 0.053112909 0.78469688
-0.046052426 0.054693665 0.78502959
-0.046002105 0.056229129 0.78571218
-0.046028893 0.057688575 0.78676039
-0.046084382 0.058631815 0.78764218
-0.053319208 0.046049982 0.81857049
-0.053089917 0.046824597 0.81782329
-0.052811477 0.047760092 0.81691277
-0.052512679 0.048755798 0.81593055
-0.05220307 0.049776461 0.814906
-0.051871069 0.05085605 0.81379807
-0.051536333 0.051926374 0.81266981
-0.051199444 0.052982509 0.81152117
-0.050860777 0.054020036 0.81035149
-0.050520632 0.055034585 0.80915964
-0.050179262 0.056021497 0.80794412
-0.049836937 0.056975555 0.80670315
-0.04949398 0.057890624 0.80543458
-0.049150802 0.058759265 0.80413604
-0.048807986 0.059572149 0.80280489
-0.04846637 0.060317259 0.80143809
-0.048127215 0.060978692 0.80003268
-0.047792483 0.0615349 0.79858565
-0.047465302 0.06195616 0.79709542
-0.047150731 0.062201291 0.79556346
-0.046856884 0.062214941 0.7939989
-0.046595901 0.061930709 0.79242563
-0.04638226 0.061291356 0.79088563
-0.046223495 0.060279958 0.78940868
-0.046143554 0.059419729 0.78844744
-0.054004811 0.043722481 0.82079756
-0.054233648 0.042941805 0.82153857
-0.054510918 0.041990757 0.82243317
-0.054807484 0.040965293 0.82338494
-0.055113453 0.039896175 0.82436001
-0.055439766 0.038740877 0.82539052
-0.055766597 0.037565291 0.82641125
-0.056093011 0.036369618 0.82741731
-0.056418248 0.035153303 0.82840425
-0.056741618 0.033915322 0.82936776
-0.057062402 0.032654312 0.83030313
-0.057379823 0.031368639 0.83120525
-0.057692956 0.030056385 0.83206791
-0.058000658 0.028715389 0.83288366
-0.058301479 0.027343238 0.83364326
-0.058593471 0.025937336 0.83433473
-0.058873989 0.024495076 0.83494222
-0.059139285 0.023014287 0.83544433
-0.059383951 0.021494219 0.83581161
-0.059600051 0.019937802 0.83600348
-0.059776142 0.018356094 0.83596551
-0.059897069 0.016775334 0.8356328
-0.05994739 0.015239871 0.83495021
-0.059920605 0.013780426 0.833902
-0.059865113 0.012837186 0.83302021
-0.052630287 0.025419017 0.8020919
-0.052859582 0.024644403 0.8028391
-0.053138018 0.02370891 0.80374962
-0.053436819 0.022713201 0.80473185
-0.053746425 0.021692539 0.80575639
-0.054078426 0.020612951 0.80686432
-0.054413162 0.019542627 0.80799258
-0.054750055 0.01848649 0.80914122
-0.055088717 0.017448964 0.8103109
-0.055428866 0.016434416 0.81150275
-0.055770237 0.015447503 0.81271827
-0.056112558 0.014493448 0.81395924
-0.056455519 0.013578379 0.81522781
-0.056798693 0.012709738 0.81652635
-0.057141509 0.011896853 0.8178575
-0.057483129 0.011151741 0.81922424
-0.057822283 0.010490309 0.82062972
-0.058157012 0.0099340985 0.82207674
-0.058484193 0.0095128417 0.82356697
-0.058798768 0.0092677111 0.82509893
-0.059092611 0.0092540588 0.82666349
-0.059353594 0.009538292 0.82823676
-0.059567235 0.010177646 0.82977676
-0.059726 0.011189043 0.83125371
-0.059805945 0.012049271 0.83221495
-0.052331209 0.027953073 0.80001181
-0.052107077 0.028717699 0.79928601
-0.051835507 0.029649192 0.79840982
-0.051545039 0.03065357 0.7974776
-0.051245362 0.031700708 0.79652262
-0.050925754 0.03283225 0.79551321
-0.050605644 0.033983663 0.79451352
-0.050285943 0.035154752 0.79352814
-0.049967393 0.036346059 0.79256153
-0.049650673 0.037558589 0.79161781
-0.049336482 0.038793668 0.79070163
-0.049025588 0.040052909 0.78981811
-0.048718896 0.041338179 0.78897315
-0.04841752 0.042651605 0.78817415
-0.048122887 0.043995544 0.78743017
-0.047836896 0.045372538 0.78675294
-0.047562145 0.046785142 0.78615797
-0.047302302 0.048235487 0.78566617
-0.047062669 0.049724299 0.78530645
-0.046851013 0.051248714 0.78511852
-0.046678543 0.052797902 0.78515571
-0.046560101 0.054346159 0.78548157
-0.046510816 0.055850051 0.7861501
-0.046537049 0.05727949 0.78717679
-0.046591397 0.058203336 0.78804046
-0.053677469 0.045880198 0.81833279
-0.05345289 0.046638887 0.81760097
-0.053180177 0.047555145 0.81670916
-0.052887522 0.048530381 0.8157472
-0.052584279 0.049530055 0.8147437
-0.052259106 0.050587445 0.81365854
-0.051931251 0.051635765 0.81255347
-0.051601287 0.052670185 0.81142843
-0.051269587 0.05368638 0.81028283
-0.050936434 0.054680068 0.80911547
-0.050602082 0.055646688 0.80792499
-0.050266799 0.056581128 0.80670947
-0.049930889 0.057477381 0.80546701
-0.049594771 0.058328163 0.80419517
-0.049259003 0.059124332 0.80289137
-0.048924409 0.059854124 0.80155271
-0.048592228 0.060501959 0.80017614
-0.048264381 0.061046731 0.79875892
-0.047943927 0.061459325 0.79729927
-0.04763582 0.061699416 0.79579884
-0.047348019 0.06171279 0.79426646
-0.0470924 0.061434399 0.79272556
-0.046883151 0.060808193 0.79121721
-0.04672765 0.05981759 0.78977066
-0.046649352 0.058975048 0.78882915
-0.054348972 0.043600552 0.82051408
-0.054573108 0.042835928 0.82123989
-0.054844677 0.041904435 0.82211608
-0.055135142 0.040900055 0.82304829
-0.055434819 0.039852917 0.82400328
-0.055754427 0.038721375 0.82501268
-0.056074537 0.037569962 0.82601237
-0.056394238 0.036398873 0.82699776
-0.056712788 0.035207566 0.82796437
-0.057029508 0.033995036 0.82890809
-0.057343699 0.032759957 0.82982427
-0.057654593 0.031500716 0.83070779
-0.057961285 0.030215446 0.83155274
-0.058262665 0.028902022 0.83235174
-0.058557298 0.027558083 0.83309573
-0.058843289 0.026181087 0.83377296
-0.059118036 0.024768485 0.83436793
-0.059377879 0.02331814 0.83485973
-0.059617516 0.021829328 0.83521944
-0.059829172 0.020304913 0.83540738
-0.060001642 0.018755725 0.83537018
-0.060120083 0.017207466 0.83504432
-0.060169369 0.015703574 0.8343758
-0.060143132 0.014274138 0.83334911
-0.060088784 0.01335029 0.83248544
-0.053002711 0.025673429 0.80219311
-0.053227291 0.02491474 0.80292493
-0.053500004 0.02399848 0.80381674
-0.053792663 0.023023246 0.8047787
-0.054095902 0.02202357 0.8057822
-0.054421078 0.02096618 0.80686736
-0.05474893 0.019917862 0.80797243
-0.055078894 0.018883443 0.80909747
-0.055410594 0.017867247 0.81024307
-0.05574375 0.016873559 0.81141043
-0.056078099 0.015906937 0.81260091
-0.056413386 0.014972498 0.81381643
-0.056749292 0.014076244 0.81505889
-0.057085413 0.013225464 0.81633073
-0.057421181 0.012429293 0.81763452
-0.057755776 0.011699501 0.81897318
-0.058087956 0.011051669 0.82034975
-0.058415804 0.010506896 0.82176697
-0.058736257 0.010094299 0.82322657
-0.059044361 0.0098542096 0.82472706
-0.059332166 0.0098408377 0.82625943
-0.05958778 0.010119226 0.82780033
-0.05979703 0.010745434 0.82930869
-0.059952531 0.011736036 0.83075523
-0.060030829 0.012578577 0.83169675
-0.05270889 0.028158596 0.80016041
-0.05248946 0.028907169 0.79944986
-0.052223593 0.02981911 0.79859203
-0.051939223 0.030802405 0.79767936
-0.051645834 0.031827562 0.79674441
-0.051332939 0.032935351 0.79575628
-0.051019546 0.034062594 0.79477751
-0.050706558 0.035209101 0.79381287
-0.050394695 0.0363754 0.79286647
-0.050084624 0.037562475 0.7919426
-0.049777027 0.038771629 0.79104567
-0.04947266 0.040004436 0.79018068
-0.049172405 0.041262727 0.78935349
-0.048877355 0.042548578 0.78857124
-0.048588905 0.043864306 0.78784287
-0.048308916 0.045212399 0.78717989
-0.048039936 0.04659535 0.78659737
-0.047785547 0.048015248 0.78611588
-0.047550943 0.049472805 0.78576368
-0.047343731 0.050965223 0.78557974
-0.047174882 0.05248189 0.78561616
-0.047058925 0.053997647 0.78593516
-0.047010671 0.055469971 0.78658968
-0.047036357 0.056869399 0.7875948
-0.047089566 0.057773855 0.78844035
-0.054026891 0.045709401 0.81809682
-0.053807024 0.046452165 0.81738037
-0.053540036 0.047349188 0.81650728
-0.053253524 0.048303951 0.81556547
-0.052956648 0.04928264 0.814583
-0.0526383 0.050317835 0.81352067
-0.052317329 0.051344149 0.81243879
-0.05199429 0.052356854 0.81133735
-0.051669553 0.053351719 0.81021583
-0.051343393 0.054324545 0.80907297
-0.051016059 0.055270877 0.80790746
-0.050687812 0.0561857 0.80671746
-0.050358955 0.05706314 0.80550104
-0.050029892 0.057896059 0.80425596
-0.049701173 0.05867552 0.80297953
-0.049373601 0.059389994 0.80166894
-0.049048394 0.060024228 0.80032128
-0.048727427 0.060557563 0.7989338
-0.048413701 0.0609615 0.79750484
-0.048112065 0.061196547 0.79603589
-0.047830302 0.061209638 0.7945357
-0.047580052 0.060937095 0.7930271
-0.047375195 0.060324032 0.7915504
-0.047222961 0.059354223 0.79013419
-0.047146302 0.05852937 0.78921247
-0.054684296 0.043477606 0.82023233
-0.054903727 0.042729035 0.82094282
-0.055169594 0.041817091 0.82180071
-0.055453964 0.040833801 0.82271332
-0.055747349 0.039808642 0.82364827
-0.056060247 0.038700853 0.82463646
-0.056373637 0.03757361 0.82561517
-0.056686629 0.036427103 0.82657987
-0.056998491 0.035260804 0.82752621
-0.057308562 0.034073729 0.82845008
-0.057616159 0.032864574 0.82934701
-0.057920527 0.031631768 0.83021206
-0.058220781 0.030373476 0.83103919
-0.058515832 0.029087624 0.83182144
-0.058804281 0.027771896 0.83254981
-0.059084266 0.026423806 0.83321285
-0.059353251 0.025040856 0.83379531
-0.05960764 0.023620956 0.8342768
-0.059842244 0.022163397 0.834629
-0.060049456 0.02067098 0.83481294
-0.060218304 0.019154314 0.83477652
-0.060334262 0.017638557 0.83445752
-0.060382511 0.016166233 0.833803
-0.060356826 0.014766803 0.83279788
-0.060303617 0.013862348 0.83195233
-0.053366296 0.025926802 0.80229586
-0.053586163 0.025184041 0.80301237
-0.05385315 0.024287015 0.80388546
-0.054139663 0.023332251 0.80482721
-0.054436538 0.022353562 0.80580968
-0.054754887 0.021318367 0.80687201
-0.055075858 0.020292057 0.80795389
-0.055398896 0.01927935 0.80905533
-0.055723634 0.018284485 0.81017691
-0.056049794 0.017311659 0.81131971
-0.056377128 0.016365327 0.81248528
-0.056705374 0.015450504 0.81367522
-0.057034228 0.014573063 0.81489164
-0.057363294 0.013740143 0.81613678
-0.057692014 0.012960683 0.81741315
-0.058019582 0.012246211 0.81872374
-0.058344793 0.011611977 0.8200714
-0.058665756 0.01107864 0.82145888
-0.058979485 0.010674705 0.8228879
-0.059281122 0.010439655 0.82435685
-0.059562884 0.010426564 0.82585704
-0.059813134 0.010699109 0.82736558
-0.060017992 0.011312171 0.82884228
-0.060170226 0.01228198 0.83025849
-0.060246881 0.013106834 0.83118021
-0.05307785 0.028363099 0.80031061
-0.052863125 0.029095622 0.79961532
-0.052602958 0.029988011 0.79877585
-0.052324686 0.030950222 0.7978828
-0.052037589 0.031953398 0.79696786
-0.0517314 0.033037435 0.7960009
-0.051424727 0.034140512 0.79504311
-0.051118448 0.035262436 0.79409915
-0.050813273 0.036403731 0.79317307
-0.050509851 0.037565354 0.79226899
-0.050208848 0.038748581 0.79139131
-0.049911007 0.039954957 0.79054487
-0.04961719 0.041186269 0.78973538
-0.049328465 0.042444553 0.78896993
-0.0490462 0.043732069 0.78825718
-0.048772216 0.045051258 0.78760839
-0.048509002 0.046404555 0.78703839
-0.048260067 0.04779401 0.78656721
-0.048030496 0.04922032 0.78622258
-0.047827724 0.050680738 0.78604257
-0.047662493 0.052164886 0.78607821
-0.047549024 0.053648144 0.78639036
-0.047501806 0.055088904 0.78703088
-0.047526941 0.056458328 0.78801441
-0.047579009 0.05734339 0.78884184
-0.054367591 0.045537602 0.81786245
-0.05415244 0.04626444 0.81716132
-0.053891174 0.047142234 0.81630701
-0.053610805 0.048076525 0.8153854
-0.053320296 0.049034234 0.81442398
-0.053008772 0.05004723 0.81338441
-0.052694682 0.051051538 0.81232572
-0.052378573 0.052042533 0.81124794
-0.052060798 0.053016067 0.81015044
-0.05174163 0.053968035 0.80903208
-0.051421314 0.054894075 0.80789155
-0.051100105 0.055789284 0.80672711
-0.0507783 0.056647912 0.80553675
-0.050456293 0.057462975 0.80431837
-0.050134622 0.058225721 0.80306929
-0.049814075 0.058924876 0.80178684
-0.049495839 0.05954551 0.80046809
-0.049181756 0.060067412 0.79911029
-0.048874754 0.060462687 0.79771197
-0.048579585 0.060692698 0.79627448
-0.048303861 0.060705509 0.79480648
-0.048058979 0.060438808 0.79333025
-0.047858514 0.059838887 0.7918852
-0.04770954 0.058889873 0.79049939
-0.047634531 0.058082704 0.78959739
-0.055010904 0.043353662 0.81995219
-0.055225629 0.042621139 0.82064748
-0.055485796 0.04172875 0.82148689
-0.055764068 0.040766537 0.82238001
-0.056051165 0.039763361 0.82329488
-0.056357354 0.038679324 0.82426184
-0.056664024 0.037576247 0.82521963
-0.056970302 0.036454324 0.82616359
-0.057275482 0.035313033 0.82708967
-0.057578903 0.034151409 0.82799375
-0.057879906 0.032968178 0.82887143
-0.058177747 0.031761806 0.82971793
-0.058471564 0.030530492 0.83052737
-0.058760289 0.029272208 0.83129281
-0.059042554 0.02798469 0.83200556
-0.059316538 0.026665505 0.83265436
-0.059579752 0.025312204 0.83322436
-0.059828687 0.023922751 0.83369553
-0.060058258 0.022496441 0.83404016
-0.06026103 0.021036023 0.83422017
-0.060426261 0.019551875 0.83418453
-0.06053973 0.018068615 0.83387238
-0.060586948 0.016627859 0.83323193
-0.060561813 0.015258433 0.83224833
-0.060509745 0.014373372 0.8314209
-0.053721163 0.026179157 0.80240029
-0.053936314 0.02545232 0.80310142
-0.054197576 0.024574528 0.80395579
-0.054477949 0.023640236 0.8048774
-0.054768458 0.022682529 0.80583876
-0.055079982 0.021669529 0.80687833
-0.055394068 0.020665223 0.80793703
-0.055710182 0.01967423 0.8090148
-0.056027956 0.018700697 0.81011236
-0.056347124 0.017748727 0.81123066
-0.05666744 0.016822685 0.81237119
-0.056988649 0.015927477 0.81353569
-0.057310451 0.015068849 0.814726
-0.057632461 0.014253786 0.81594443
-0.057954133 0.013491039 0.81719345
-0.058274679 0.012791887 0.8184759
-0.058592916 0.01217125 0.81979471
-0.058906998 0.011649349 0.82115245
-0.059214 0.011254074 0.82255077
-0.059509169 0.011024064 0.82398826
-0.059784889 0.011011253 0.82545626
-0.060029775 0.011277954 0.82693249
-0.06023024 0.011877872 0.82837754
-0.060379211 0.012826887 0.82976335
-0.060454223 0.013634056 0.83066535
-0.053438216 0.028566599 0.80046237
-0.053228196 0.029283075 0.79978234
-0.052973729 0.03015591 0.79896128
-0.052701551 0.031097041 0.79808778
-0.052420747 0.032078236 0.79719293
-0.052121267 0.033138525 0.79624712
-0.051821314 0.034217432 0.79531032
-0.051521745 0.035314776 0.79438704
-0.051223252 0.036431067 0.79348129
-0.050926477 0.037567239 0.792597
-0.050632071 0.038724542 0.79173851
-0.050340757 0.039904486 0.7909106
-0.050053377 0.041108824 0.79011887
-0.049770977 0.042339537 0.78937018
-0.049494896 0.043598849 0.78867304
-0.049226917 0.04488913 0.78803849
-0.048969466 0.046212781 0.78748095
-0.048725989 0.047571793 0.78702015
-0.048501443 0.048966851 0.78668302
-0.048303116 0.050395276 0.78650695
-0.048141506 0.051846907 0.78654182
-0.048030522 0.053297669 0.78684717
-0.047984339 0.05470686 0.78747362
-0.048008922 0.056046281 0.78843564
-0.048059851 0.056911953 0.78924495
-0.0546997 0.045364823 0.81762969
-0.054489262 0.046075735 0.81694394
-0.054233722 0.046934295 0.81610835
-0.053959496 0.04784812 0.81520689
-0.05367535 0.048784845 0.81426662
-0.053370651 0.049775649 0.81324977
-0.053063445 0.050757952 0.81221431
-0.052754261 0.051727232 0.81116015
-0.052443445 0.052679438 0.81008667
-0.052131273 0.053610548 0.8089928
-0.051817976 0.054516301 0.80787724
-0.051503804 0.055391897 0.80673832
-0.051189046 0.056231715 0.80557406
-0.050874095 0.057028919 0.80438232
-0.050559469 0.057774954 0.80316067
-0.050245948 0.05845879 0.80190629
-0.049934682 0.059065826 0.80061644
-0.049627479 0.059576295 0.79928839
-0.049327206 0.059962906 0.7979207
-0.049038503 0.06018788 0.79651475
-0.048768822 0.060200408 0.79507887
-0.048529305 0.059939552 0.79363495
-0.048333231 0.059352778 0.79222161
-0.048187524 0.058424555 0.79086614
-0.048114154 0.057635073 0.78998393
-0.055328917 0.043228731 0.81967366
-0.055538937 0.042512257 0.82035369
-0.055793405 0.041639417 0.82117474
-0.056065582 0.040698286 0.82204825
-0.056346387 0.039717089 0.82294315
-0.056645866 0.038656805 0.8238889
-0.056945819 0.037577894 0.8248257
-0.057245389 0.036480553 0.82574898
-0.057543881 0.035364263 0.82665479
-0.057840653 0.03422809 0.82753903
-0.058135062 0.033070784 0.82839751
-0.058426376 0.031890843 0.82922542
-0.058713757 0.030686505 0.83001715
-0.058996156 0.02945579 0.83076584
-0.059272237 0.02819648 0.83146298
-0.059540216 0.026906198 0.83209753
-0.059797667 0.025582548 0.83265507
-0.060041144 0.024223534 0.83311588
-0.06026569 0.022828477 0.833453
-0.060464017 0.021400053 0.83362907
-0.060625628 0.019948423 0.8335942
-0.060736611 0.018497659 0.83328885
-0.060782794 0.017088471 0.8326624
-0.060758211 0.015749048 0.83170044
-0.060707282 0.014883376 0.83089113
-0.054067433 0.026430506 0.80250633
-0.054277871 0.025719594 0.80319208
-0.054533411 0.024861034 0.80402774
-0.054807637 0.023947209 0.80492914
-0.055091783 0.023010485 0.80586946
-0.055396482 0.022019681 0.80688626
-0.055703688 0.021037377 0.80792177
-0.056012873 0.020068096 0.80897593
-0.056323688 0.019115891 0.81004936
-0.05663586 0.018184779 0.81114322
-0.056949157 0.017279027 0.81225878
-0.05726333 0.016403433 0.81339771
-0.057578083 0.015563616 0.81456196
-0.057893038 0.014766411 0.8157537
-0.058207665 0.014020375 0.81697536
-0.058521185 0.01333654 0.81822973
-0.058832452 0.012729502 0.81951964
-0.059139654 0.012219035 0.82084763
-0.059439927 0.011832421 0.82221532
-0.05972863 0.011607449 0.82362127
-0.059998311 0.01159492 0.82505715
-0.060237829 0.011855777 0.82650107
-0.060433902 0.012442552 0.82791442
-0.060579609 0.013370775 0.82926989
-0.060652979 0.014160258 0.83015209
-0.053790096 0.028769108 0.80061579
-0.053584781 0.029469535 0.79995096
-0.053336013 0.03032282 0.79914826
-0.053069931 0.03124287 0.79829437
-0.052795414 0.032202091 0.79741955
-0.052502643 0.033238627 0.7964949
-0.052209411 0.034293368 0.79557914
-0.051916551 0.035366133 0.79467648
-0.051624745 0.036457419 0.793791
-0.05133462 0.037568141 0.79292655
-0.051046807 0.038699526 0.79208732
-0.050762016 0.03985304 0.79127795
-0.050481074 0.0410304 0.79050398
-0.050205 0.042233549 0.78977203
-0.049935102 0.043464649 0.78909051
-0.049673125 0.044726033 0.78847015
-0.049421441 0.046020035 0.78792512
-0.049183417 0.047348607 0.78747463
-0.048963901 0.048712417 0.78714508
-0.048770014 0.050108846 0.78697294
-0.048612025 0.051527962 0.78700703
-0.048503529 0.052946229 0.78730553
-0.048458382 0.054323856 0.78791791
-0.048482414 0.055633277 0.78885835
-0.048532199 0.056479558 0.78964955
-0.055023324 0.045191072 0.81739855
-0.054817598 0.045886058 0.81672817
-0.054567784 0.046725389 0.81591123
-0.054299701 0.047618743 0.81503004
-0.054021917 0.048534486 0.81411076
-0.053724043 0.049503099 0.81311673
-0.053423718 0.050463397 0.81210446
-0.053121459 0.051410969 0.8110739
-0.052817605 0.052341845 0.81002444
-0.052512426 0.053252101 0.80895513
-0.052206147 0.054137565 0.80786455
-0.051899012 0.054993547 0.80675113
-0.051591307 0.055814553 0.80561292
-0.051283408 0.056593902 0.80444789
-0.050975829 0.057323225 0.80325359
-0.050669331 0.057991743 0.80202734
-0.050365038 0.058585186 0.80076635
-0.050064716 0.059084218 0.7994681
-0.049771167 0.059462175 0.79813099
-0.049488932 0.059682105 0.79675651
-0.049225293 0.059694353 0.79535282
-0.048991136 0.059439342 0.79394126
-0.048799459 0.058865711 0.79255956
-0.048657011 0.057958279 0.79123443
-0.048585288 0.057186477 0.79037201
-0.055638447 0.043102823 0.81939673
-0.055843763 0.042402398 0.8200615
-0.05609253 0.041549109 0.8208642
-0.056358609 0.040629059 0.82171816
-0.056633126 0.039669842 0.82259297
-0.0569259 0.038633302 0.82351756
-0.057219133 0.03757856 0.82443339
-0.057511993 0.036505796 0.82533598
-0.057803798 0.035414513 0.82622147
-0.058093924 0.034303788 0.82708591
-0.058381736 0.033172406 0.82792515
-0.058666527 0.032018889 0.82873452
-0.05894747 0.030841531 0.82950854
-0.059223544 0.029638382 0.83024043
-0.059493441 0.028407281 0.83092195
-0.059755418 0.027145898 0.83154231
-0.060007103 0.025851896 0.83208734
-0.060245126 0.024523323 0.83253783
-0.060464643 0.023159511 0.83286738
-0.060658526 0.021763084 0.83303952
-0.060816515 0.020343969 0.83300549
-0.060925014 0.018925702 0.83270699
-0.060970161 0.017548077 0.83209455
-0.060946129 0.016238654 0.83115411
-0.060896344 0.015392373 0.83036292
-0.05440522 0.026680861 0.80261391
-0.054610942 0.025985872 0.80328429
-0.05486076 0.025146542 0.80410123
-0.055128843 0.024253188 0.80498242
-0.055406626 0.023337444 0.80590171
-0.055704497 0.022368833 0.80689573
-0.056004826 0.021408534 0.80790806
-0.056307085 0.020460961 0.80893862
-0.056610934 0.019530086 0.80998802
-0.056916118 0.01861983 0.81105733
-0.057222396 0.017734366 0.81214792
-0.057529531 0.016878381 0.81326139
-0.057837237 0.016057378 0.81439954
-0.058145136 0.015278028 0.81556457
-0.058452711 0.014548704 0.81675887
-0.058759212 0.013880187 0.81798518
-0.059063505 0.013286744 0.81924611
-0.059363827 0.012787712 0.82054442
-0.059657376 0.012409756 0.82188147
-0.059939612 0.012189824 0.82325596
-0.06020325 0.012177575 0.82465965
-0.060437407 0.01243259 0.8260712
-0.060629085 0.013006222 0.8274529
-0.060771532 0.013913652 0.82877803
-0.060843255 0.014685453 0.82964045
-0.054133598 0.028970638 0.8007707
-0.053932987 0.029655017 0.80012113
-0.053689919 0.030488754 0.79933685
-0.053429935 0.031387724 0.79850245
-0.053161707 0.032324966 0.79764766
-0.052875642 0.033337757 0.79674423
-0.052589126 0.034368332 0.79584944
-0.052302979 0.035416521 0.79496753
-0.05201786 0.036482804 0.79410231
-0.05173438 0.037568077 0.79325765
-0.051453162 0.038673539 0.79243761
-0.051174894 0.039800625 0.79164684
-0.050900389 0.04095101 0.79089057
-0.05063064 0.042126596 0.79017538
-0.050366927 0.043329492 0.78950948
-0.050110951 0.044561975 0.78890336
-0.049865033 0.045826331 0.78837079
-0.049632464 0.047124464 0.78793061
-0.049417976 0.04845703 0.78760862
-0.049228534 0.049821462 0.78744042
-0.049074166 0.051208064 0.78747374
-0.048968151 0.052593838 0.78776538
-0.04892404 0.053939901 0.78836375
-0.048947521 0.055219322 0.78928268
-0.048996165 0.056046214 0.79005575
-0.055338573 0.04501636 0.81716895
-0.055137563 0.045695424 0.81651396
-0.054893468 0.046515524 0.81571573
-0.054631528 0.047388412 0.81485468
-0.05436011 0.048283175 0.8139565
-0.054069061 0.049229592 0.81298524
-0.053775616 0.050167892 0.81199616
-0.053480282 0.051093753 0.8109892
-0.053183392 0.052003302 0.80996382
-0.052885201 0.052892704 0.80891901
-0.052585937 0.05375788 0.8078534
-0.052285843 0.054594252 0.8067655
-0.051985186 0.055396445 0.80565339
-0.051684342 0.056157939 0.80451506
-0.051383812 0.056870557 0.80334806
-0.051084332 0.057523757 0.80214989
-0.050787013 0.058103602 0.8009178
-0.050493572 0.058591202 0.7996493
-0.050206751 0.058960497 0.79834288
-0.049930979 0.059175391 0.79699987
-0.049673378 0.05918736 0.79562837
-0.04944459 0.058938187 0.79424912
-0.049257301 0.058377698 0.79289907
-0.04911812 0.057491057 0.79160434
-0.049048036 0.056736939 0.79076165
-0.055939604 0.042975955 0.81912136
-0.056140214 0.042291574 0.81977093
-0.056383282 0.041457839 0.82055521
-0.056643266 0.040558867 0.82138962
-0.056911495 0.039621625 0.82224435
-0.05719756 0.038608834 0.82314777
-0.057484075 0.037578259 0.82404262
-0.057770222 0.036530074 0.82492453
-0.058055341 0.035463788 0.82578975
-0.058338825 0.034378514 0.82663441
-0.058620039 0.033273052 0.82745445
-0.058898307 0.032145966 0.82824522
-0.059172813 0.030995581 0.82900149
-0.059442561 0.029819997 0.82971662
-0.059706274 0.028617101 0.83038253
-0.05996225 0.027384616 0.83098871
-0.060208168 0.026120262 0.83152127
-0.060440741 0.024822127 0.83196145
-0.060655225 0.023489565 0.83228344
-0.060844667 0.022125131 0.83245164
-0.06099904 0.020738527 0.83241832
-0.06110505 0.019352753 0.83212668
-0.061149165 0.01800669 0.83152831
-0.061125681 0.016727271 0.83060938
-0.061077036 0.015900379 0.82983631
-0.054734629 0.026930235 0.80272305
-0.054935638 0.026251169 0.80337811
-0.055179734 0.025431069 0.80417633
-0.055441674 0.024558183 0.80503732
-0.055713091 0.023663418 0.8059355
-0.056004141 0.022717001 0.80690676
-0.056297585 0.021778701 0.8078959
-0.056592923 0.02085284 0.80890286
-0.05688981 0.019943291 0.80992824
-0.057188001 0.019053889 0.81097305
-0.057487264 0.018188711 0.81203866
-0.057787362 0.017352341 0.81312656
-0.058088016 0.016550146 0.81423867
-0.058388859 0.015788652 0.815377
-0.058689389 0.015076037 0.81654394
-0.058988869 0.014422835 0.81774211
-0.059286188 0.01384299 0.8189742
-0.059579629 0.01335539 0.82024276
-0.059866454 0.012986096 0.82154918
-0.060142223 0.012771201 0.82289219
-0.060399823 0.012759234 0.82426369
-0.060628612 0.013008405 0.82564294
-0.060815901 0.013568894 0.82699299
-0.060955081 0.014455535 0.82828772
-0.061025165 0.015209653 0.82913041
-0.054468818 0.0291712 0.80092716
-0.054272912 0.029839534 0.80029279
-0.054035541 0.030653721 0.79952693
-0.053781655 0.031531613 0.79871213
-0.053519718 0.03244688 0.79787737
-0.053240359 0.033435926 0.7969951
-0.052960563 0.034442335 0.7961213
-0.052681122 0.035465948 0.79526007
-0.052402686 0.03650723 0.79441512
-0.052125853 0.037567057 0.79359031
-0.051851232 0.038646601 0.79278946
-0.051579487 0.039747261 0.79201722
-0.051311418 0.04087067 0.79127866
-0.051047992 0.042018693 0.79058027
-0.050790466 0.043193385 0.78992999
-0.050540492 0.04439697 0.78933805
-0.050300341 0.045631677 0.788818
-0.050073221 0.046899375 0.78838813
-0.049863767 0.048200697 0.78807372
-0.049678762 0.049533136 0.78790945
-0.049528014 0.050887227 0.78794199
-0.049424488 0.05224051 0.78822678
-0.049381409 0.053555012 0.78881115
-0.049404338 0.054804433 0.7897085
-0.049451843 0.055611938 0.79046345
-0.05564554 0.044840697 0.81694096
-0.055449244 0.04550384 0.81630129
-0.055210873 0.046304714 0.81552178
-0.054955073 0.047157131 0.81468093
-0.054690018 0.048030917 0.81380379
-0.054405794 0.048955146 0.81285536
-0.054119229 0.049871445 0.81188941
-0.053830821 0.050775595 0.81090605
-0.053540893 0.05166382 0.80990475
-0.053249694 0.052532367 0.80888438
-0.052957449 0.05337726 0.8078438
-0.052664384 0.054194018 0.80678141
-0.052370779 0.054977406 0.80569535
-0.052076988 0.055721045 0.80458373
-0.051783506 0.056416951 0.80344415
-0.051491048 0.057054836 0.80227405
-0.051200699 0.057621088 0.80107087
-0.050914139 0.058097254 0.79983205
-0.050634041 0.058457889 0.79855627
-0.05036474 0.058667745 0.79724479
-0.050113179 0.058679432 0.79590541
-0.049889755 0.058436103 0.79455853
-0.049706854 0.057888754 0.79324013
-0.049570937 0.057022903 0.79197574
-0.049502499 0.056286465 0.79115278
-0.056232478 0.042848136 0.81884754
-0.056428388 0.042179804 0.81948191
-0.056665756 0.041365616 0.82024777
-0.056919646 0.040487722 0.82106262
-0.057181582 0.039572455 0.82189733
-0.057460938 0.038583413 0.8227796
-0.057740737 0.037577 0.8236534
-0.058020175 0.03655339 0.82451469
-0.05829861 0.035512108 0.82535958
-0.058575444 0.034452278 0.82618445
-0.058850069 0.033372737 0.82698524
-0.05912181 0.032272078 0.82775754
-0.059389882 0.031148665 0.82849604
-0.059653305 0.030000644 0.82919443
-0.059910834 0.028825954 0.82984471
-0.060160808 0.027622366 0.83043665
-0.060400959 0.026387658 0.8309567
-0.060628079 0.02511996 0.83138657
-0.060837533 0.02381864 0.83170104
-0.061022535 0.022486199 0.83186525
-0.061173286 0.021132108 0.83183277
-0.061276812 0.019778827 0.83154792
-0.061319891 0.018464325 0.83096355
-0.061296958 0.017214904 0.8300662
-0.061249454 0.016407399 0.82931125
-0.055055756 0.02717864 0.80283374
-0.055252057 0.026515495 0.80347341
-0.055490423 0.025714625 0.80425292
-0.055746224 0.024862204 0.80509377
-0.056011278 0.02398842 0.80597091
-0.056295503 0.023064192 0.8069194
-0.056582067 0.022147892 0.80788529
-0.056870479 0.02124374 0.80886865
-0.057160407 0.020355517 0.80987
-0.057451606 0.019486969 0.81089032
-0.057743851 0.018642077 0.81193089
-0.058036912 0.017825317 0.81299335
-0.058330517 0.017041931 0.81407934
-0.058624309 0.016298292 0.81519097
-0.058917791 0.015602387 0.81633061
-0.059210248 0.0149645 0.81750065
-0.059500597 0.01439825 0.81870389
-0.059787158 0.013922083 0.81994265
-0.060067255 0.013561447 0.82121843
-0.06033656 0.013351591 0.82252997
-0.060588118 0.013339904 0.82386935
-0.060811546 0.013583234 0.82521623
-0.060994443 0.014130581 0.82653463
-0.06113036 0.014996434 0.82779902
-0.061198801 0.01573287 0.82862192
-0.054795861 0.029370809 0.80108517
-0.054604657 0.030023094 0.800466
-0.054372985 0.030817736 0.7997185
-0.054125194 0.031674553 0.79892325
-0.053869545 0.032567844 0.79810858
-0.053596895 0.033533141 0.79724753
-0.053323813 0.034515392 0.79639465
-0.053051084 0.035514425 0.7955541
-0.052779332 0.036530707 0.79472947
-0.052509148 0.037565093 0.79392439
-0.052241117 0.038618714 0.79314286
-0.051975898 0.03969295 0.79238909
-0.051714264 0.040789392 0.7916683
-0.051457163 0.041909847 0.79098672
