# .PCD v0.7 - Point Cloud Data file format
VERSION 0.7
FIELDS x y z rgba
SIZE 4 4 4 4
TYPE F F F U
COUNT 1 1 1 1
WIDTH 996
HEIGHT 1
VIEWPOINT 0 0 0 1 0 0 0
POINTS 996
DATA ascii
-0.014298338 -0.018813601 0.86400002 4282974208
-0.012822864 -0.018857153 0.86600006 4282974208
-0.011314292 -0.018857153 0.86600006 4283170816
-0.0098057194 -0.018857153 0.86600006 4283170816
-0.0082971472 -0.018857153 0.86600006 4283170816
-0.0068042525 -0.018900702 0.86800003 4283170816
-0.0052921963 -0.018900702 0.86800003 4283170816
-0.0037801403 -0.018900702 0.86800003 4283170816
-0.0022680843 -0.018900702 0.86800003 4283236352
-0.00075602805 -0.018900702 0.86800003 4283236352
0.00075602805 -0.018900702 0.86800003 4283170816
0.0022680843 -0.018900702 0.86800003 4283170816
0.0037888505 -0.018944252 0.87000006 4283236352
0.005304391 -0.018944252 0.87000006 4283170816
0.0068199309 -0.018944252 0.87000006 4283170816
0.0083354712 -0.018944252 0.87000006 4283170816
0.0098736566 -0.018987803 0.87200004 4283170816
0.011392682 -0.018987803 0.87200004 4283170816
0.012911705 -0.018987803 0.87200004 4282974208
0.01443073 -0.018987803 0.87200004 4283039744
0.015949754 -0.018987803 0.87200004 4282974208
0.017428713 -0.018944252 0.87000006 4282974208
0.018944252 -0.018944252 0.87000006 4283039744
0.020459794 -0.018944252 0.87000006 4283039744
0.021975333 -0.018944252 0.87000006 4282974208
0.023490872 -0.018944252 0.87000006 4283039744
0.025006413 -0.018944252 0.87000006 4283039744
0.026460983 -0.018900702 0.86800003 4283039744
0.027908588 -0.018857153 0.86600006 4282908672
0.029417157 -0.018857153 0.86600006 4283039744
0.030925728 -0.018857153 0.86600006 4283236352
0.032434303 -0.018857153 0.86600006 4283170816
0.033864483 -0.018813601 0.86400002 4282515456
0.035369571 -0.018813601 0.86400002 4282449920
0.036874659 -0.018813601 0.86400002 4282449920
0.038290907 -0.018770052 0.86200005 4282449920
0.039792508 -0.018770052 0.86200005 4282187776
0.041150399 -0.018704727 0.85900003 4282253312
0.042646777 -0.018704727 0.85900003 4282253312
0.044040378 -0.018661177 0.85700005 4282187776
0.045533273 -0.018661177 0.85700005 4282187776
0.047026169 -0.018661177 0.85700005 4282253312
0.04840583 -0.018617626 0.85500002 4282777600
0.049895238 -0.018617626 0.85500002 4282712064
0.05138465 -0.018617626 0.85500002 4282974208
0.052874058 -0.018617626 0.85500002 4282908672
0.054363471 -0.018617626 0.85500002 4283170816
0.055722229 -0.018574078 0.85300004 4283170816
0.057074022 -0.018530525 0.85100001 4284809216
0.058556467 -0.018530525 0.85100001 4285399040
0.060038906 -0.018530525 0.85100001 4288151570
0.061665937 -0.018574078 0.85300004 4291243329
-0.047952913 -0.016967952 0.84700006 4290421666
-0.046477437 -0.016967952 0.84700006 4289153312
-0.045001961 -0.016967952 0.84700006 4285140224
-0.043526489 -0.016967952 0.84700006 4288684864
-0.042051014 -0.016967952 0.84700006 4290592861
-0.040575542 -0.016967952 0.84700006 4286922056
-0.039100066 -0.016967952 0.84700006 4282056704
-0.037713435 -0.017008018 0.84900004 4282908672
-0.036234476 -0.017008018 0.84900004 4283039744
-0.034837391 -0.017048083 0.85100001 4283236352
-0.03343334 -0.017088151 0.85300004 4283170816
-0.031947412 -0.017088151 0.85300004 4282974208
-0.030461488 -0.017088151 0.85300004 4282974208
-0.029043498 -0.017128216 0.85500002 4282974208
-0.027554087 -0.017128216 0.85500002 4282974208
-0.026064677 -0.017128216 0.85500002 4282974208
-0.024690239 -0.017208349 0.85900003 4282974208
-0.023274865 -0.017268447 0.86200005 4282974208
-0.021823777 -0.017308513 0.86400002 4282974208
-0.020318691 -0.017308513 0.86400002 4282974208
-0.018813601 -0.017308513 0.86400002 4282974208
-0.017308513 -0.017308513 0.86400002 4283236352
-0.015803427 -0.017308513 0.86400002 4283236352
-0.014331435 -0.01734858 0.86600006 4283236352
-0.012822864 -0.01734858 0.86600006 4283236352
-0.011314292 -0.01734858 0.86600006 4283236352
-0.0098057194 -0.01734858 0.86600006 4283236352
-0.0083163092 -0.017388646 0.86800003 4283236352
-0.0068042525 -0.017388646 0.86800003 4283236352
-0.0052921963 -0.017388646 0.86800003 4283170816
-0.0037801403 -0.017388646 0.86800003 4283236352
-0.0022680843 -0.017388646 0.86800003 4283236352
-0.00075777009 -0.017428713 0.87000006 4283236352
0.00075777009 -0.017428713 0.87000006 4283236352
0.0022733102 -0.017428713 0.87000006 4283236352
0.0037888505 -0.017428713 0.87000006 4283236352
0.0053165844 -0.017468778 0.87200004 4283170816
0.0068356087 -0.017468778 0.87200004 4283301888
0.0083546322 -0.017468778 0.87200004 4283301888
0.0098736566 -0.017468778 0.87200004 4283301888
0.011392682 -0.017468778 0.87200004 4283301888
0.012911705 -0.017468778 0.87200004 4283170816
0.01443073 -0.017468778 0.87200004 4283236352
0.015949754 -0.017468778 0.87200004 4283236352
0.017468778 -0.017468778 0.87200004 4283236352
0.018987803 -0.017468778 0.87200004 4283170816
0.020459794 -0.017428713 0.87000006 4283236352
0.021975333 -0.017428713 0.87000006 4283039744
0.023490872 -0.017428713 0.87000006 4283170816
0.025006413 -0.017428713 0.87000006 4283170816
0.026460983 -0.017388646 0.86800003 4283170816
0.027973039 -0.017388646 0.86800003 4283236352
0.029417157 -0.01734858 0.86600006 4283301888
0.030925728 -0.01734858 0.86600006 4283301888
0.032434303 -0.01734858 0.86600006 4283170816
0.033942875 -0.01734858 0.86600006 4282908672
0.035451446 -0.01734858 0.86600006 4282843136
0.036874659 -0.017308513 0.86400002 4282843136
0.038379747 -0.017308513 0.86400002 4282843136
0.039792508 -0.017268447 0.86200005 4282777600
0.041294117 -0.017268447 0.86200005 4282777600
0.042646777 -0.017208349 0.85900003 4282777600
0.044143155 -0.017208349 0.85900003 4282777600
0.045533273 -0.017168282 0.85700005 4282777600
0.047026169 -0.017168282 0.85700005 4282777600
0.04851906 -0.017168282 0.85700005 4282777600
0.050011955 -0.017168282 0.85700005 4282777600
0.05138465 -0.017128216 0.85500002 4282646528
0.052874058 -0.017128216 0.85500002 4282646528
0.054363471 -0.017128216 0.85500002 4282908672
0.055852879 -0.017128216 0.85500002 4282712064
0.057208154 -0.017088151 0.85300004 4282974208
0.058556467 -0.017048083 0.85100001 4283236352
0.060038906 -0.017048083 0.85100001 4285792256
0.061521351 -0.017048083 0.85100001 4289998380
0.062855721 -0.017008018 0.84900004 4289022720
0.064334683 -0.017008018 0.84900004 4287048960
-0.047726449 -0.015419315 0.84300005 4282712074
-0.046257947 -0.015419315 0.84300005 4286840832
-0.044895701 -0.015455897 0.84500003 4290783784
-0.043423712 -0.015455897 0.84500003 4287901005
-0.042051014 -0.015492478 0.84700006 4283826191
-0.040575542 -0.015492478 0.84700006 4283760640
-0.039100066 -0.015492478 0.84700006 4283564032
-0.037713435 -0.015529061 0.84900004 4283301888
-0.036234476 -0.015529061 0.84900004 4283367424
-0.034837391 -0.015565642 0.85100001 4283236352
-0.03343334 -0.015602225 0.85300004 4283170816
-0.031947412 -0.015602225 0.85300004 4283039744
-0.030532908 -0.015638806 0.85500002 4282974208
-0.029043498 -0.015638806 0.85500002 4282974208
-0.027554087 -0.015638806 0.85500002 4283039744
-0.026125649 -0.01567539 0.85700005 4283039744
-0.024690239 -0.015711971 0.85900003 4282974208
-0.023274865 -0.015766844 0.86200005 4283170816
-0.021823777 -0.015803427 0.86400002 4283170816
-0.020318691 -0.015803427 0.86400002 4282974208
-0.018813601 -0.015803427 0.86400002 4283039744
-0.01734858 -0.015840007 0.86600006 4283236352
-0.015840007 -0.015840007 0.86600006 4283236352
-0.014331435 -0.015840007 0.86600006 4283236352
-0.012852477 -0.015876589 0.86800003 4283236352
-0.011340421 -0.015876589 0.86800003 4283367424
-0.0098283654 -0.015876589 0.86800003 4283367424
-0.0083163092 -0.015876589 0.86800003 4283367424
-0.0068199309 -0.015913172 0.87000006 4283367424
-0.005304391 -0.015913172 0.87000006 4283301888
-0.0037801403 -0.015876589 0.86800003 4283367424
-0.0022680843 -0.015876589 0.86800003 4283236352
-0.00075777009 -0.015913172 0.87000006 4283236352
0.00075777009 -0.015913172 0.87000006 4283367424
0.0022733102 -0.015913172 0.87000006 4283367424
0.0037975605 -0.015949754 0.87200004 4283367424
0.0053165844 -0.015949754 0.87200004 4283367424
0.0068356087 -0.015949754 0.87200004 4283367424
0.0083546322 -0.015949754 0.87200004 4283367424
0.0098736566 -0.015949754 0.87200004 4283301888
0.011392682 -0.015949754 0.87200004 4283301888
0.012911705 -0.015949754 0.87200004 4283236352
0.01443073 -0.015949754 0.87200004 4283236352
0.015949754 -0.015949754 0.87200004 4283236352
0.017468778 -0.015949754 0.87200004 4283170816
0.018987803 -0.015949754 0.87200004 4283236352
0.020459794 -0.015913172 0.87000006 4283236352
0.021975333 -0.015913172 0.87000006 4283170816
0.023544874 -0.015949754 0.87200004 4283170816
0.025006413 -0.015913172 0.87000006 4283236352
0.026521955 -0.015913172 0.87000006 4283236352
0.028037494 -0.015913172 0.87000006 4283170816
0.029553035 -0.015913172 0.87000006 4283170816
0.030997152 -0.015876589 0.86800003 4283170816
0.032509208 -0.015876589 0.86800003 4283170816
0.033942875 -0.015840007 0.86600006 4283105280
0.035451446 -0.015840007 0.86600006 4283039744
0.036960017 -0.015840007 0.86600006 4283170816
0.038379747 -0.015803427 0.86400002 4283170816
0.039884835 -0.015803427 0.86400002 4282843136
0.041389924 -0.015803427 0.86400002 4282843136
0.042795718 -0.015766844 0.86200005 4282843136
0.044143155 -0.015711971 0.85900003 4282777600
0.045639534 -0.015711971 0.85900003 4282777600
0.047026169 -0.01567539 0.85700005 4282777600
0.04851906 -0.01567539 0.85700005 4282253312
0.050011955 -0.01567539 0.85700005 4282253312
0.05138465 -0.015638806 0.85500002 4282646528
0.052874058 -0.015638806 0.85500002 4282646528
0.054363471 -0.015638806 0.85500002 4282843136
0.055852879 -0.015638806 0.85500002 4282777600
0.057208154 -0.015602225 0.85300004 4283170816
0.058556467 -0.015565642 0.85100001 4283170816
0.060038906 -0.015565642 0.85100001 4284022784
0.061521351 -0.015565642 0.85100001 4284350464
0.062855721 -0.015529061 0.84900004 4285399049
0.064183123 -0.015492478 0.84700006 4286119957
0.065658599 -0.015492478 0.84700006 4286775296
0.067134075 -0.015492478 0.84700006 4287234048
-0.047556605 -0.013901162 0.84000003 4286513152
-0.046257947 -0.013950808 0.84300005 4287692800
-0.044789441 -0.013950808 0.84300005 4289533980
-0.043423712 -0.013983906 0.84500003 4286255649
-0.04195172 -0.013983906 0.84500003 4283432960
-0.040575542 -0.014017005 0.84700006 4283105280
-0.039100066 -0.014017005 0.84700006 4283236352
-0.037713435 -0.014050103 0.84900004 4283367424
-0.036234476 -0.014050103 0.84900004 4283367424
-0.034837391 -0.0140832 0.85100001 4283236352
-0.03343334 -0.014116298 0.85300004 4283170816
-0.031947412 -0.014116298 0.85300004 4283039744
-0.030532908 -0.014149397 0.85500002 4283039744
-0.029043498 -0.014149397 0.85500002 4283039744
-0.027618542 -0.014182495 0.85700005 4283039744
-0.026125649 -0.014182495 0.85700005 4283236352
-0.024776468 -0.014265239 0.86200005 4283236352
-0.023328865 -0.014298338 0.86400002 4283236352
-0.021823777 -0.014298338 0.86400002 4283236352
-0.020365724 -0.014331435 0.86600006 4283236352
-0.018857153 -0.014331435 0.86600006 4283236352
-0.01734858 -0.014331435 0.86600006 4283301888
-0.015840007 -0.014331435 0.86600006 4283236352
-0.014364533 -0.014364533 0.86800003 4283432960
-0.012852477 -0.014364533 0.86800003 4283432960
-0.011340421 -0.014364533 0.86800003 4283367424
-0.0098283654 -0.014364533 0.86800003 4283367424
-0.0083354712 -0.014397631 0.87000006 4283367424
-0.0068199309 -0.014397631 0.87000006 4283367424
-0.005304391 -0.014397631 0.87000006 4283367424
-0.0037888505 -0.014397631 0.87000006 4283367424
-0.0022733102 -0.014397631 0.87000006 4283432960
-0.00075777009 -0.014397631 0.87000006 4283432960
0.00075777009 -0.014397631 0.87000006 4283367424
0.0022785363 -0.01443073 0.87200004 4283367424
0.0037975605 -0.01443073 0.87200004 4283367424
0.0053165844 -0.01443073 0.87200004 4283367424
0.0068356087 -0.01443073 0.87200004 4283367424
0.0083546322 -0.01443073 0.87200004 4283367424
0.0098736566 -0.01443073 0.87200004 4283367424
0.011392682 -0.01443073 0.87200004 4283367424
0.012911705 -0.01443073 0.87200004 4283236352
0.01443073 -0.01443073 0.87200004 4283236352
0.015949754 -0.01443073 0.87200004 4283236352
0.017468778 -0.01443073 0.87200004 4283236352
0.018987803 -0.01443073 0.87200004 4283236352
0.020506825 -0.01443073 0.87200004 4283236352
0.022025852 -0.01443073 0.87200004 4283236352
0.023544874 -0.01443073 0.87200004 4283236352
0.025063898 -0.01443073 0.87200004 4283236352
0.026582923 -0.01443073 0.87200004 4283236352
0.028037494 -0.014397631 0.87000006 4283236352
0.029553035 -0.014397631 0.87000006 4283170816
0.031068573 -0.014397631 0.87000006 4283170816
0.032509208 -0.014364533 0.86800003 4283236352
0.034021262 -0.014364533 0.86800003 4283170816
0.035451446 -0.014331435 0.86600006 4283170816
0.036960017 -0.014331435 0.86600006 4283170816
0.038468592 -0.014331435 0.86600006 4283170816
0.039977163 -0.014331435 0.86600006 4283170816
0.041389924 -0.014298338 0.86400002 4283039744
0.042895012 -0.014298338 0.86400002 4282974208
0.044297323 -0.014265239 0.86200005 4282908672
0.045639534 -0.014215593 0.85900003 4282843136
0.047026169 -0.014182495 0.85700005 4282843136
0.04851906 -0.014182495 0.85700005 4282253312
0.050011955 -0.014182495 0.85700005 4282253312
0.05150485 -0.014182495 0.85700005 4282187776
0.052874058 -0.014149397 0.85500002 4282253312
0.054363471 -0.014149397 0.85500002 4282777600
0.055852879 -0.014149397 0.85500002 4282777600
0.057208154 -0.014116298 0.85300004 4282908672
0.058556467 -0.0140832 0.85100001 4282908672
0.060038906 -0.0140832 0.85100001 4282777600
0.061521351 -0.0140832 0.85100001 4282646528
0.062855721 -0.014050103 0.84900004 4284022784
0.064183123 -0.014017005 0.84700006 4285728775
0.065658599 -0.014017005 0.84700006 4285792256
0.067134075 -0.014017005 0.84700006 4285661184
0.068771549 -0.014050103 0.84900004 4287889408
0.070250519 -0.014050103 0.84900004 4294928487
-0.050362967 -0.012408268 0.83800006 4282583040
-0.048903171 -0.012408268 0.83800006 4286119936
-0.047556605 -0.012437881 0.84000003 4288483857
-0.046257947 -0.012482303 0.84300005 4287372081
-0.044789441 -0.012482303 0.84300005 4284416005
-0.043320931 -0.012482303 0.84300005 4283760640
-0.04195172 -0.012511916 0.84500003 4283564032
-0.040575542 -0.012541531 0.84700006 4283367424
-0.039100066 -0.012541531 0.84700006 4283367424
-0.037713435 -0.012571144 0.84900004 4283367424
-0.036319833 -0.012600758 0.85100001 4283367424
-0.034919266 -0.012630372 0.85300004 4283170816
-0.03343334 -0.012630372 0.85300004 4283170816
-0.031947412 -0.012630372 0.85300004 4283170816
-0.030532908 -0.012659986 0.85500002 4283170816
-0.029043498 -0.012659986 0.85500002 4283236352
-0.027618542 -0.012689601 0.85700005 4283236352
-0.026125649 -0.012689601 0.85700005 4283301888
-0.024776468 -0.012763636 0.86200005 4283367424
-0.023328865 -0.012793249 0.86400002 4283367424
-0.021823777 -0.012793249 0.86400002 4283367424
-0.020365724 -0.012822864 0.86600006 4283367424
-0.018857153 -0.012822864 0.86600006 4283367424
-0.01734858 -0.012822864 0.86600006 4283432960
-0.015840007 -0.012822864 0.86600006 4283564032
-0.014364533 -0.012852477 0.86800003 4283432960
-0.012852477 -0.012852477 0.86800003 4283432960
-0.011340421 -0.012852477 0.86800003 4283367424
-0.0098283654 -0.012852477 0.86800003 4283367424
-0.0083354712 -0.012882092 0.87000006 4283367424
-0.0068199309 -0.012882092 0.87000006 4283367424
-0.005304391 -0.012882092 0.87000006 4283367424
-0.0037888505 -0.012882092 0.87000006 4283367424
-0.0022733102 -0.012882092 0.87000006 4283432960
-0.00075951207 -0.012911705 0.87200004 4283432960
0.00075951207 -0.012911705 0.87200004 4283432960
0.0022785363 -0.012911705 0.87200004 4283432960
0.0037975605 -0.012911705 0.87200004 4283367424
0.0053165844 -0.012911705 0.87200004 4283367424
0.006859126 -0.012956127 0.87500006 4283301888
0.0083833765 -0.012956127 0.87500006 4283301888
0.0099076265 -0.012956127 0.87500006 4283367424
0.011392682 -0.012911705 0.87200004 4283367424
0.012911705 -0.012911705 0.87200004 4283367424
0.014480378 -0.012956127 0.87500006 4283301888
0.015949754 -0.012911705 0.87200004 4283301888
0.017468778 -0.012911705 0.87200004 4283367424
0.018987803 -0.012911705 0.87200004 4283367424
0.020506825 -0.012911705 0.87200004 4283301888
0.022025852 -0.012911705 0.87200004 4283170816
0.023544874 -0.012911705 0.87200004 4283236352
0.025063898 -0.012911705 0.87200004 4283236352
0.026582923 -0.012911705 0.87200004 4283236352
0.028037494 -0.012882092 0.87000006 4283236352
0.029553035 -0.012882092 0.87000006 4283236352
0.031068573 -0.012882092 0.87000006 4283236352
0.032509208 -0.012852477 0.86800003 4283170816
0.034021262 -0.012852477 0.86800003 4283236352
0.03553332 -0.012852477 0.86800003 4283236352
0.037045375 -0.012852477 0.86800003 4283236352
0.038468592 -0.012822864 0.86600006 4283236352
0.039977163 -0.012822864 0.86600006 4283236352
0.041485738 -0.012822864 0.86600006 4283236352
0.042895012 -0.012793249 0.86400002 4283170816
0.0444001 -0.012793249 0.86400002 4283170816
0.045798928 -0.012763636 0.86200005 4283170816
0.047135912 -0.012719214 0.85900003 4283039744
0.04863229 -0.012719214 0.85900003 4282843136
0.050011955 -0.012689601 0.85700005 4282777600
0.05150485 -0.012689601 0.85700005 4282712064
0.052997746 -0.012689601 0.85700005 4282712064
0.054363471 -0.012659986 0.85500002 4282777600
0.055852879 -0.012659986 0.85500002 4282777600
0.057208154 -0.012630372 0.85300004 4282777600
0.058694083 -0.012630372 0.85300004 4282777600
0.060180008 -0.012630372 0.85300004 4282908672
0.061521351 -0.012600758 0.85100001 4282580992
0.062855721 -0.012571144 0.84900004 4283367424
0.064183123 -0.012541531 0.84700006 4286718239
0.065658599 -0.012541531 0.84700006 4287176262
0.067292593 -0.012571144 0.84900004 4284874787
0.068771549 -0.012571144 0.84900004 4287037440
0.070250519 -0.012571144 0.84900004 4286971904
0.071560495 -0.012541531 0.84700006 4291388160
-0.051699083 -0.010922341 0.83600003 4289938467
-0.05024277 -0.010922341 0.83600003 4285464576
-0.048903171 -0.010948471 0.83800006 4287037440
-0.047443379 -0.010948471 0.83800006 4289533204
-0.046093326 -0.010974601 0.84000003 4286189615
-0.044789441 -0.011013797 0.84300005 4283498502
-0.043320931 -0.011013797 0.84300005 4283105280
-0.04195172 -0.011039926 0.84500003 4283236352
-0.040575542 -0.011066057 0.84700006 4283367424
-0.039100066 -0.011066057 0.84700006 4283367424
-0.037713435 -0.011092186 0.84900004 4283236352
-0.036405191 -0.011144446 0.85300004 4283236352
-0.034919266 -0.011144446 0.85300004 4283367424
-0.03343334 -0.011144446 0.85300004 4283301888
-0.031947412 -0.011144446 0.85300004 4283301888
-0.030604329 -0.011196706 0.85700005 4283367424
-0.029111436 -0.011196706 0.85700005 4283236352
-0.027682995 -0.011222836 0.85900003 4283236352
-0.026186617 -0.011222836 0.85900003 4283367424
-0.024776468 -0.011262031 0.86200005 4283367424
-0.023328865 -0.01128816 0.86400002 4283367424
-0.021823777 -0.01128816 0.86400002 4283367424
-0.020365724 -0.011314292 0.86600006 4283432960
-0.018857153 -0.011314292 0.86600006 4283564032
-0.01734858 -0.011314292 0.86600006 4283564032
-0.015840007 -0.011314292 0.86600006 4283629568
-0.014364533 -0.011340421 0.86800003 4283629568
-0.012852477 -0.011340421 0.86800003 4283564032
-0.011366552 -0.011366552 0.87000006 4283629568
-0.0098510114 -0.011366552 0.87000006 4283564032
-0.0083354712 -0.011366552 0.87000006 4283367424
-0.0068356087 -0.011392682 0.87200004 4283367424
-0.0053165844 -0.011392682 0.87200004 4283432960
-0.0037975605 -0.011392682 0.87200004 4283432960
-0.0022785363 -0.011392682 0.87200004 4283432960
-0.00075951207 -0.011392682 0.87200004 4283432960
0.00075951207 -0.011392682 0.87200004 4283432960
0.0022785363 -0.011392682 0.87200004 4283432960
0.0037975605 -0.011392682 0.87200004 4283367424
0.0053348755 -0.011431877 0.87500006 4283367424
0.006859126 -0.011431877 0.87500006 4283367424
0.0083833765 -0.011431877 0.87500006 4283367424
0.0099076265 -0.011431877 0.87500006 4283367424
0.011431877 -0.011431877 0.87500006 4283367424
0.012956127 -0.011431877 0.87500006 4283367424
0.014480378 -0.011431877 0.87500006 4283367424
0.016004628 -0.011431877 0.87500006 4283301888
0.017468778 -0.011392682 0.87200004 4283367424
0.018987803 -0.011392682 0.87200004 4283367424
0.020506825 -0.011392682 0.87200004 4283367424
0.022101628 -0.011431877 0.87500006 4283367424
0.023544874 -0.011392682 0.87200004 4283367424
0.025063898 -0.011392682 0.87200004 4283236352
0.026582923 -0.011392682 0.87200004 4283236352
0.028101945 -0.011392682 0.87200004 4283236352
0.029620973 -0.011392682 0.87200004 4283170816
0.031068573 -0.011366552 0.87000006 4283236352
0.032584116 -0.011366552 0.87000006 4283236352
0.034021262 -0.011340421 0.86800003 4283236352
0.03553332 -0.011340421 0.86800003 4283236352
0.037045375 -0.011340421 0.86800003 4283432960
0.038557433 -0.011340421 0.86800003 4283629568
0.039977163 -0.011314292 0.86600006 4283301888
0.041485738 -0.011314292 0.86600006 4283301888
0.042994309 -0.011314292 0.86600006 4283170816
0.044502877 -0.011314292 0.86600006 4283170816
0.045905188 -0.01128816 0.86400002 4283170816
0.047410276 -0.01128816 0.86400002 4283039744
0.048802134 -0.011262031 0.86200005 4282974208
0.050128669 -0.011222836 0.85900003 4282908672
0.05150485 -0.011196706 0.85700005 4282777600
0.052997746 -0.011196706 0.85700005 4282777600
0.054490637 -0.011196706 0.85700005 4282384384
0.055852879 -0.011170576 0.85500002 4282384384
0.057342287 -0.011170576 0.85500002 4282253312
0.058694083 -0.011144446 0.85300004 4282187776
0.060180008 -0.011144446 0.85300004 4282712064
0.061521351 -0.011118316 0.85100001 4282318848
0.062855721 -0.011092186 0.84900004 4282974208
0.064183123 -0.011066057 0.84700006 4290206811
0.065658599 -0.011066057 0.84700006 4288898949
0.067292593 -0.011092186 0.84900004 4288504447
0.068771549 -0.011092186 0.84900004 4288498803
0.070250519 -0.011092186 0.84900004 4282777628
0.071391523 -0.011039926 0.84500003 4286775296
0.072863512 -0.011039926 0.84500003 4294337120
-0.053155396 -0.0094660288 0.83600003 4282518016
-0.051699083 -0.0094660288 0.83600003 4286185472
-0.05024277 -0.0094660288 0.83600003 4286644224
-0.048903171 -0.0094886757 0.83800006 4286513167
-0.047443379 -0.0094886757 0.83800006 4285792260
-0.046093326 -0.0095113209 0.84000003 4284088320
-0.044789441 -0.0095452899 0.84300005 4283760640
-0.043320931 -0.0095452899 0.84300005 4283629568
-0.04195172 -0.009567936 0.84500003 4283629568
-0.040575542 -0.009590582 0.84700006 4283432960
-0.039100066 -0.009590582 0.84700006 4283432960
-0.03762459 -0.009590582 0.84700006 4283236352
-0.036405191 -0.0096585201 0.85300004 4283236352
-0.034919266 -0.0096585201 0.85300004 4283367424
-0.03343334 -0.0096585201 0.85300004 4283367424
-0.032022316 -0.0096811652 0.85500002 4283367424
-0.030604329 -0.0097038122 0.85700005 4283432960
-0.029179372 -0.0097264582 0.85900003 4283564037
-0.027682995 -0.0097264582 0.85900003 4283498500
-0.026186617 -0.0097264582 0.85900003 4283432960
-0.024776468 -0.0097604273 0.86200005 4283432960
-0.023328865 -0.0097830733 0.86400002 4283432960
-0.021874297 -0.0098057194 0.86600006 4283432960
-0.020365724 -0.0098057194 0.86600006 4283564032
-0.018857153 -0.0098057194 0.86600006 4283629568
-0.01734858 -0.0098057194 0.86600006 4283629568
-0.015876589 -0.0098283654 0.86800003 4283629568
-0.014364533 -0.0098283654 0.86800003 4283891712
-0.012852477 -0.0098283654 0.86800003 4283695104
-0.011366552 -0.0098510114 0.87000006 4283629568
-0.0098510114 -0.0098510114 0.87000006 4283564032
-0.0083546322 -0.0098736566 0.87200004 4283564032
-0.0068356087 -0.0098736566 0.87200004 4283564032
-0.0053165844 -0.0098736566 0.87200004 4283629568
-0.0037975605 -0.0098736566 0.87200004 4283629568
-0.0022785363 -0.0098736566 0.87200004 4283629568
-0.00075951207 -0.0098736566 0.87200004 4283629568
0.00076212513 -0.0099076265 0.87500006 4283629568
0.0022863753 -0.0099076265 0.87500006 4283564032
0.0038106258 -0.0099076265 0.87500006 4283367424
0.0053348755 -0.0099076265 0.87500006 4283367424
0.006859126 -0.0099076265 0.87500006 4283564032
0.0083833765 -0.0099076265 0.87500006 4283564032
0.0099076265 -0.0099076265 0.87500006 4283564032
0.011431877 -0.0099076265 0.87500006 4283564032
0.012956127 -0.0099076265 0.87500006 4283367424
0.014480378 -0.0099076265 0.87500006 4283367424
0.016004628 -0.0099076265 0.87500006 4283432960
0.017528879 -0.0099076265 0.87500006 4283432960
0.019053128 -0.0099076265 0.87500006 4283432960
0.020577379 -0.0099076265 0.87500006 4283432960
0.022101628 -0.0099076265 0.87500006 4283432960
0.023544874 -0.0098736566 0.87200004 4283432960
0.025063898 -0.0098736566 0.87200004 4283236352
0.026582923 -0.0098736566 0.87200004 4283236352
0.028101945 -0.0098736566 0.87200004 4283236352
0.029620973 -0.0098736566 0.87200004 4283236352
0.031068573 -0.0098510114 0.87000006 4283236352
0.032584116 -0.0098510114 0.87000006 4283236352
0.034178045 -0.0098736566 0.87200004 4283236352
0.035697069 -0.0098736566 0.87200004 4283301888
0.037130736 -0.0098510114 0.87000006 4283564032
0.038646273 -0.0098510114 0.87000006 4283629568
0.040069487 -0.0098283654 0.86800003 4283301888
0.041581545 -0.0098283654 0.86800003 4283236352
0.042994309 -0.0098057194 0.86600006 4283236352
0.044502877 -0.0098057194 0.86600006 4283236352
0.046011452 -0.0098057194 0.86600006 4283039744
0.047410276 -0.0097830733 0.86400002 4283039744
0.048915364 -0.0097830733 0.86400002 4282974208
0.050128669 -0.0097264582 0.85900003 4282974208
0.051625047 -0.0097264582 0.85900003 4282843136
0.052997746 -0.0097038122 0.85700005 4282777600
0.054490637 -0.0097038122 0.85700005 4282777600
0.055983528 -0.0097038122 0.85700005 4282777600
0.057342287 -0.0096811652 0.85500002 4282253312
0.058694083 -0.0096585201 0.85300004 4282187776
0.060180008 -0.0096585201 0.85300004 4281925632
0.061521351 -0.0096358731 0.85100001 4281794560
0.062855721 -0.009613228 0.84900004 4284088344
0.064334683 -0.009613228 0.84900004 4292047761
0.065813638 -0.009613228 0.84900004 4289822885
0.067292593 -0.009613228 0.84900004 4291993797
0.068771549 -0.009613228 0.84900004 4292584420
0.070085026 -0.009590582 0.84700006 4291136974
0.071391523 -0.009567936 0.84500003 4290269952
0.072863512 -0.009567936 0.84500003 4285203968
-0.053155396 -0.0080097169 0.83600003 4284678400
-0.051699083 -0.0080097169 0.83600003 4287037440
-0.05024277 -0.0080097169 0.83600003 4287168512
-0.048903171 -0.0080288788 0.83800006 4286054412
-0.047443379 -0.0080288788 0.83800006 4284743680
-0.046093326 -0.0080480408 0.84000003 4283432960
-0.044630043 -0.0080480408 0.84000003 4283367424
-0.043320931 -0.0080767842 0.84300005 4283367424
-0.04195172 -0.0080959452 0.84500003 4283498496
-0.040575542 -0.0081151081 0.84700006 4283498496
-0.039100066 -0.0081151081 0.84700006 4283367424
-0.03762459 -0.0081151081 0.84700006 4283367424
-0.036405191 -0.008172594 0.85300004 4283367424
-0.034919266 -0.008172594 0.85300004 4283432960
-0.033511728 -0.008191756 0.85500002 4283432960
-0.032022316 -0.008191756 0.85500002 4283367424
-0.030675752 -0.0082300799 0.85900003 4283432960
-0.029179372 -0.0082300799 0.85900003 4283498496
-0.027682995 -0.0082300799 0.85900003 4283498496
-0.026186617 -0.0082300799 0.85900003 4283629568
-0.024833955 -0.0082779853 0.86400002 4283629568
-0.023328865 -0.0082779853 0.86400002 4283629568
-0.021874297 -0.0082971472 0.86600006 4283629568
-0.020365724 -0.0082971472 0.86600006 4283629568
-0.018857153 -0.0082971472 0.86600006 4283629568
-0.017388646 -0.0083163092 0.86800003 4283629568
-0.015876589 -0.0083163092 0.86800003 4283629568
-0.014397631 -0.0083354712 0.87000006 4283695104
-0.012882092 -0.0083354712 0.87000006 4283695104
-0.011366552 -0.0083354712 0.87000006 4283629568
-0.0098736566 -0.0083546322 0.87200004 4283629568
-0.0083546322 -0.0083546322 0.87200004 4283760640
-0.0068356087 -0.0083546322 0.87200004 4283760640
-0.0053165844 -0.0083546322 0.87200004 4283760640
-0.0037975605 -0.0083546322 0.87200004 4283826176
-0.0022863753 -0.0083833765 0.87500006 4283629568
-0.00076212513 -0.0083833765 0.87500006 4283629568
0.00076212513 -0.0083833765 0.87500006 4283629568
0.0022863753 -0.0083833765 0.87500006 4283629568
0.0038106258 -0.0083833765 0.87500006 4283629568
0.0053348755 -0.0083833765 0.87500006 4283629568
0.006859126 -0.0083833765 0.87500006 4283629568
0.0083833765 -0.0083833765 0.87500006 4283629568
0.0099076265 -0.0083833765 0.87500006 4283629568
0.011431877 -0.0083833765 0.87500006 4283629568
0.012956127 -0.0083833765 0.87500006 4283629568
0.014480378 -0.0083833765 0.87500006 4283564032
0.016004628 -0.0083833765 0.87500006 4283564032
0.017528879 -0.0083833765 0.87500006 4283629568
0.019053128 -0.0083833765 0.87500006 4283564032
0.020577379 -0.0083833765 0.87500006 4283564032
0.022101628 -0.0083833765 0.87500006 4283432960
0.023625879 -0.0083833765 0.87500006 4283432960
0.025150128 -0.0083833765 0.87500006 4283432960
0.026674379 -0.0083833765 0.87500006 4283564032
0.028101945 -0.0083546322 0.87200004 4283301888
0.029620973 -0.0083546322 0.87200004 4283170816
0.031139996 -0.0083546322 0.87200004 4283236352
0.03265902 -0.0083546322 0.87200004 4283236352
0.034178045 -0.0083546322 0.87200004 4283301888
0.035697069 -0.0083546322 0.87200004 4283301888
0.03721609 -0.0083546322 0.87200004 4283301888
0.038646273 -0.0083354712 0.87000006 4283301888
0.040161815 -0.0083354712 0.87000006 4283301888
0.041581545 -0.0083163092 0.86800003 4283236352
0.043093599 -0.0083163092 0.86800003 4283236352
0.044502877 -0.0082971472 0.86600006 4283236352
0.046011452 -0.0082971472 0.86600006 4283236352
0.047410276 -0.0082779853 0.86400002 4283236352
0.048915364 -0.0082779853 0.86400002 4283170816
0.050303739 -0.0082588224 0.86200005 4283170816
0.051625047 -0.0082300799 0.85900003 4283170816
0.053121425 -0.0082300799 0.85900003 4283039744
0.054490637 -0.0082109179 0.85700005 4282843136
0.055983528 -0.0082109179 0.85700005 4282777600
0.057342287 -0.008191756 0.85500002 4282253312
0.058831695 -0.008191756 0.85500002 4282187776
0.060180008 -0.008172594 0.85300004 4282122240
0.061521351 -0.0081534311 0.85100001 4281794560
0.063003786 -0.0081534311 0.85100001 4284749072
0.064334683 -0.0081342701 0.84900004 4291130993
0.065813638 -0.0081342701 0.84900004 4288248966
0.067292593 -0.0081342701 0.84900004 4289564826
0.068609551 -0.0081151081 0.84700006 4292257976
0.070085026 -0.0081151081 0.84700006 4292521147
0.071391523 -0.0080959452 0.84500003 4292315853
0.072863512 -0.0080959452 0.84500003 4282449975
0.074159563 -0.0080767842 0.84300005 4286840832
-0.054611705 -0.0065534045 0.83600003 4286251008
-0.053155396 -0.0065534045 0.83600003 4286578688
-0.051699083 -0.0065534045 0.83600003 4287299584
-0.05024277 -0.0065534045 0.83600003 4286382080
-0.048903171 -0.0065690833 0.83800006 4284874766
-0.047443379 -0.0065690833 0.83800006 4284350470
-0.046093326 -0.0065847607 0.84000003 4283629568
-0.044630043 -0.0065847607 0.84000003 4283564032
-0.043320931 -0.0066082776 0.84300005 4283564032
-0.04195172 -0.0066239559 0.84500003 4283629568
-0.040575542 -0.0066396338 0.84700006 4283564032
-0.039100066 -0.0066396338 0.84700006 4283367424
-0.03762459 -0.0066396338 0.84700006 4283564032
-0.036405191 -0.0066866679 0.85300004 4283629568
-0.034919266 -0.0066866679 0.85300004 4283629568
-0.033511728 -0.0067023458 0.85500002 4283629568
-0.032097224 -0.0067180237 0.85700005 4283629568
-0.030675752 -0.0067337016 0.85900003 4283629568
-0.029179372 -0.0067337016 0.85900003 4283629568
-0.027779676 -0.0067572189 0.86200005 4283629568
-0.026278073 -0.0067572189 0.86200005 4283629568
-0.024833955 -0.0067728963 0.86400002 4283629568
-0.02338287 -0.0067885751 0.86600006 4283629568
-0.021874297 -0.0067885751 0.86600006 4283629568
-0.020365724 -0.0067885751 0.86600006 4283629568
-0.018857153 -0.0067885751 0.86600006 4283629568
-0.017388646 -0.0068042525 0.86800003 4283760640
-0.015876589 -0.0068042525 0.86800003 4283760640
-0.014397631 -0.0068199309 0.87000006 4283760640
-0.012882092 -0.0068199309 0.87000006 4283760640
-0.011392682 -0.0068356087 0.87200004 4283760640
-0.0098736566 -0.0068356087 0.87200004 4283826176
-0.0083546322 -0.0068356087 0.87200004 4283891712
-0.006859126 -0.006859126 0.87500006 4284022784
-0.0053348755 -0.006859126 0.87500006 4284088320
-0.0038106258 -0.006859126 0.87500006 4283891712
-0.0022863753 -0.006859126 0.87500006 4283891712
-0.00076212513 -0.006859126 0.87500006 4283891712
0.00076212513 -0.006859126 0.87500006 4283891712
0.0022863753 -0.006859126 0.87500006 4283891712
0.0038106258 -0.006859126 0.87500006 4283760640
0.0053348755 -0.006859126 0.87500006 4283760640
0.006859126 -0.006859126 0.87500006 4283629568
0.0084025376 -0.0068748035 0.87700003 4283629568
0.0099302717 -0.0068748035 0.87700003 4283564032
0.011458007 -0.0068748035 0.87700003 4283629568
0.01298574 -0.0068748035 0.87700003 4283629568
0.014513474 -0.0068748035 0.87700003 4283564032
0.016041208 -0.0068748035 0.87700003 4283629568
0.017568944 -0.0068748035 0.87700003 4283629568
0.019096678 -0.0068748035 0.87700003 4283564032
0.02062441 -0.0068748035 0.87700003 4283564032
0.022101628 -0.006859126 0.87500006 4283432960
0.023625879 -0.006859126 0.87500006 4283432960
0.025150128 -0.006859126 0.87500006 4283564032
0.026674379 -0.006859126 0.87500006 4283629568
0.02819863 -0.006859126 0.87500006 4283367426
0.029722881 -0.006859126 0.87500006 4283301889
0.031139996 -0.0068356087 0.87200004 4283432960
0.03265902 -0.0068356087 0.87200004 4283367424
0.034178045 -0.0068356087 0.87200004 4283564032
0.035697069 -0.0068356087 0.87200004 4283564032
0.03721609 -0.0068356087 0.87200004 4283629568
0.038735114 -0.0068356087 0.87200004 4283629568
0.040161815 -0.0068199309 0.87000006 4283498496
0.041581545 -0.0068042525 0.86800003 4283432960
0.043093599 -0.0068042525 0.86800003 4283236352
0.044605657 -0.0068042525 0.86800003 4283236352
0.046011452 -0.0067885751 0.86600006 4283236352
0.047410276 -0.0067728963 0.86400002 4283236352
0.048915364 -0.0067728963 0.86400002 4283236352
0.050303739 -0.0067572189 0.86200005 4283236352
0.051625047 -0.0067337016 0.85900003 4283039744
0.053121425 -0.0067337016 0.85900003 4283170816
0.054490637 -0.0067180237 0.85700005 4283039744
0.055983528 -0.0067180237 0.85700005 4282974208
0.057342287 -0.0067023458 0.85500002 4282449920
0.058831695 -0.0067023458 0.85500002 4282449920
0.060180008 -0.0066866679 0.85300004 4282384384
0.061521351 -0.0066709896 0.85100001 4281794560
0.063003786 -0.0066709896 0.85100001 4283236352
0.064334683 -0.0066553117 0.84900004 4289285195
0.065813638 -0.0066553117 0.84900004 4286598703
0.067292593 -0.0066553117 0.84900004 4284295948
0.068609551 -0.0066396338 0.84700006 4289224990
0.069919534 -0.0066239559 0.84500003 4293501535
0.071391523 -0.0066239559 0.84500003 4293566199
0.072691061 -0.0066082776 0.84300005 4288500139
0.074159563 -0.0066082776 0.84300005 4286578688
-0.054481056 -0.0050848988 0.83400005 4286316544
-0.053155396 -0.0050970926 0.83600003 4286840832
-0.051699083 -0.0050970926 0.83600003 4286644480
-0.05024277 -0.0050970926 0.83600003 4285136896
-0.048903171 -0.0051092864 0.83800006 4284022784
-0.047443379 -0.0051092864 0.83800006 4284022784
-0.046093326 -0.0051214802 0.84000003 4283826176
-0.044789441 -0.0051397718 0.84300005 4283760640
-0.043423712 -0.0051519652 0.84500003 4283629568
-0.042051014 -0.0051641595 0.84700006 4283629568
-0.040575542 -0.0051641595 0.84700006 4283629568
-0.03919239 -0.0051763537 0.84900004 4283564032
-0.037713435 -0.0051763537 0.84900004 4283564032
-0.036405191 -0.0052007413 0.85300004 4283629568
-0.034919266 -0.0052007413 0.85300004 4283629568
-0.033511728 -0.0052129356 0.85500002 4283629568
-0.032097224 -0.0052251299 0.85700005 4283760640
-0.030675752 -0.0052373232 0.85900003 4283760640
-0.029281279 -0.0052556149 0.86200005 4283629568
-0.027779676 -0.0052556149 0.86200005 4283629568
-0.026278073 -0.0052556149 0.86200005 4283629568
-0.024833955 -0.0052678087 0.86400002 4283629568
-0.02338287 -0.0052800025 0.86600006 4283760640
-0.021874297 -0.0052800025 0.86600006 4283760640
-0.020412758 -0.0052921963 0.86800003 4283760640
-0.018900702 -0.0052921963 0.86800003 4283760640
-0.017388646 -0.0052921963 0.86800003 4283891712
-0.015913172 -0.005304391 0.87000006 4283891712
-0.014397631 -0.005304391 0.87000006 4284022784
-0.012911705 -0.0053165844 0.87200004 4284022784
-0.011392682 -0.0053165844 0.87200004 4283891712
-0.0099076265 -0.0053348755 0.87500006 4284022784
-0.0083833765 -0.0053348755 0.87500006 4284088320
-0.006859126 -0.0053348755 0.87500006 4284350464
-0.0053348755 -0.0053348755 0.87500006 4285138451
-0.0038106258 -0.0053348755 0.87500006 4283695104
-0.0022863753 -0.0053348755 0.87500006 4283826176
-0.00076212513 -0.0053348755 0.87500006 4283826176
0.00076212513 -0.0053348755 0.87500006 4283891712
0.0022863753 -0.0053348755 0.87500006 4283891712
0.0038106258 -0.0053348755 0.87500006 4283891712
0.0053470698 -0.0053470698 0.87700003 4283891712
0.0068748035 -0.0053470698 0.87700003 4283760640
0.0084217004 -0.0053592636 0.87900007 4283760640
0.0099529186 -0.0053592636 0.87900007 4283826176
0.011484137 -0.0053592636 0.87900007 4283826176
0.013015354 -0.0053592636 0.87900007 4283760640
0.014546574 -0.0053592636 0.87900007 4283695104
0.016041208 -0.0053470698 0.87700003 4283564032
0.017568944 -0.0053470698 0.87700003 4283629568
0.019096678 -0.0053470698 0.87700003 4283629568
0.02062441 -0.0053470698 0.87700003 4283564032
0.022152144 -0.0053470698 0.87700003 4283564032
0.023625879 -0.0053348755 0.87500006 4283564032
0.025150128 -0.0053348755 0.87500006 4283629568
0.026674379 -0.0053348755 0.87500006 4283695104
0.02819863 -0.0053348755 0.87500006 4283695104
0.029722881 -0.0053348755 0.87500006 4283695104
0.031139996 -0.0053165844 0.87200004 4283564032
0.03265902 -0.0053165844 0.87200004 4283564032
0.034178045 -0.0053165844 0.87200004 4283432960
0.035697069 -0.0053165844 0.87200004 4283432960
0.03721609 -0.0053165844 0.87200004 4283629568
0.038735114 -0.0053165844 0.87200004 4283760640
0.040161815 -0.005304391 0.87000006 4283629574
0.041677356 -0.005304391 0.87000006 4283498500
0.043093599 -0.0052921963 0.86800003 4283432960
0.044605657 -0.0052921963 0.86800003 4283432960
0.046011452 -0.0052800025 0.86600006 4283236352
0.047520023 -0.0052800025 0.86600006 4283236352
0.048915364 -0.0052678087 0.86400002 4283236352
0.050420452 -0.0052678087 0.86400002 4283236352
0.051805343 -0.0052556149 0.86200005 4283236352
0.053121425 -0.0052373232 0.85900003 4283236352
0.054490637 -0.0052251299 0.85700005 4283039744
0.055983528 -0.0052251299 0.85700005 4283039744
0.057476427 -0.0052251299 0.85700005 4282777600
0.058831695 -0.0052129356 0.85500002 4282843136
0.060321111 -0.0052129356 0.85500002 4282908672
0.061810523 -0.0052129356 0.85500002 4282318848
0.063003786 -0.0051885475 0.85100001 4282646528
0.064334683 -0.0051763537 0.84900004 4288168257
0.065813638 -0.0051763537 0.84900004 4286073154
0.067134075 -0.0051641595 0.84700006 4284428586
0.068609551 -0.0051641595 0.84700006 4288696347
0.069919534 -0.0051519652 0.84500003 4292841306
0.071222551 -0.0051397718 0.84300005 4293567705
0.072691061 -0.0051397718 0.84300005 4291791294
0.073895648 -0.0051214802 0.84000003 4287179063
-0.055933885 -0.0036320703 0.83400005 4284417792
-0.054481056 -0.0036320703 0.83400005 4286840832
-0.05302823 -0.0036320703 0.83400005 4287168512
-0.051699083 -0.0036407805 0.83600003 4286119936
-0.05024277 -0.0036407805 0.83600003 4285071360
-0.048903171 -0.0036494907 0.83800006 4283957248
-0.047443379 -0.0036494907 0.83800006 4283826176
-0.046093326 -0.0036582004 0.84000003 4283760640
-0.044789441 -0.0036712654 0.84300005 4283760640
-0.043423712 -0.0036799756 0.84500003 4283629568
-0.042051014 -0.0036886854 0.84700006 4283629568
-0.040575542 -0.0036886854 0.84700006 4283760640
-0.03919239 -0.0036973956 0.84900004 4283760640
-0.037713435 -0.0036973956 0.84900004 4283826176
-0.036405191 -0.0037148155 0.85300004 4283891712
-0.03500114 -0.0037235252 0.85500002 4283826176
-0.033511728 -0.0037235252 0.85500002 4283826176
-0.032172129 -0.0037409454 0.85900003 4283760640
-0.030782886 -0.0037540107 0.86200005 4283760640
-0.029281279 -0.0037540107 0.86200005 4283760640
-0.027779676 -0.0037540107 0.86200005 4283760640
-0.026278073 -0.0037540107 0.86200005 4283891712
-0.024833955 -0.0037627204 0.86400002 4283826176
-0.02338287 -0.0037714306 0.86600006 4283891712
-0.021874297 -0.0037714306 0.86600006 4283891712
-0.020412758 -0.0037801403 0.86800003 4283891712
-0.018900702 -0.0037801403 0.86800003 4283891712
-0.017428713 -0.0037888505 0.87000006 4284022784
-0.015913172 -0.0037888505 0.87000006 4284088320
-0.014397631 -0.0037888505 0.87000006 4284088320
-0.012911705 -0.0037975605 0.87200004 4284153856
-0.011392682 -0.0037975605 0.87200004 4284153856
-0.0099076265 -0.0038106258 0.87500006 4284022784
-0.0083833765 -0.0038106258 0.87500006 4283891712
-0.006859126 -0.0038106258 0.87500006 4284088320
-0.0053348755 -0.0038106258 0.87500006 4284153856
-0.0038106258 -0.0038106258 0.87500006 4284022784
-0.0022916012 -0.0038193355 0.87700003 4283891712
-0.00076386705 -0.0038193355 0.87700003 4284022784
0.00076386705 -0.0038193355 0.87700003 4284088320
0.0022916012 -0.0038193355 0.87700003 4284088320
0.0038193355 -0.0038193355 0.87700003 4284088320
0.0053470698 -0.0038193355 0.87700003 4284022784
0.0068904823 -0.0038280457 0.87900007 4283760640
0.0084217004 -0.0038280457 0.87900007 4283760640
0.0099529186 -0.0038280457 0.87900007 4283760640
0.011484137 -0.0038280457 0.87900007 4283826176
0.013015354 -0.0038280457 0.87900007 4283891712
0.014546574 -0.0038280457 0.87900007 4283826176
0.016041208 -0.0038193355 0.87700003 4283826176
0.017568944 -0.0038193355 0.87700003 4283891712
0.019096678 -0.0038193355 0.87700003 4283629568
0.02062441 -0.0038193355 0.87700003 4283629568
0.022152144 -0.0038193355 0.87700003 4283629568
0.023625879 -0.0038106258 0.87500006 4283629568
0.025150128 -0.0038106258 0.87500006 4283629568
0.026674379 -0.0038106258 0.87500006 4283629568
0.02819863 -0.0038106258 0.87500006 4283629568
0.029722881 -0.0038106258 0.87500006 4283629568
0.03124713 -0.0038106258 0.87500006 4283629568
0.032771379 -0.0038106258 0.87500006 4283629568
0.03429563 -0.0038106258 0.87500006 4283629568
0.035819881 -0.0038106258 0.87500006 4283629568
0.03721609 -0.0037975605 0.87200004 4283891712
0.038735114 -0.0037975605 0.87200004 4284153856
0.040161815 -0.0037888505 0.87000006 4283826185
0.041677356 -0.0037888505 0.87000006 4283695111
0.043093599 -0.0037801403 0.86800003 4283498496
0.044605657 -0.0037801403 0.86800003 4283432960
0.046011452 -0.0037714306 0.86600006 4283236352
0.047520023 -0.0037714306 0.86600006 4283236352
0.048915364 -0.0037627204 0.86400002 4283236352
0.050420452 -0.0037627204 0.86400002 4283236352
0.051805343 -0.0037540107 0.86200005 4283236352
0.053306948 -0.0037540107 0.86200005 4283236352
0.0546178 -0.0037409454 0.85900003 4283170816
0.055983528 -0.0037322354 0.85700005 4283170816
0.057476427 -0.0037322354 0.85700005 4283039744
0.058831695 -0.0037235252 0.85500002 4283039744
0.060321111 -0.0037235252 0.85500002 4282843136
0.061810523 -0.0037235252 0.85500002 4282580992
0.063003786 -0.0037061053 0.85100001 4282515456
0.064334683 -0.0036973956 0.84900004 4286195237
0.065813638 -0.0036973956 0.84900004 4286597450
0.067134075 -0.0036886854 0.84700006 4286202692
0.068447538 -0.0036799756 0.84500003 4288502577
0.069754042 -0.0036712654 0.84300005 4289752388
0.071222551 -0.0036712654 0.84300005 4291988326
0.072432369 -0.0036582004 0.84000003 4293106550
0.073895648 -0.0036582004 0.84000003 4290802058
0.075000077 -0.0036407805 0.83600003 4282515467
-0.055799749 -0.0021740161 0.83200002 4289462272
-0.054350406 -0.0021740161 0.83200002 4287692800
-0.05302823 -0.0021792422 0.83400005 4287102976
-0.051699083 -0.0021844683 0.83600003 4285399040
-0.050362967 -0.0021896942 0.83800006 4284940288
-0.048903171 -0.0021896942 0.83800006 4283891712
-0.047556605 -0.0021949201 0.84000003 4283826176
-0.046093326 -0.0021949201 0.84000003 4283826176
-0.044789441 -0.0022027595 0.84300005 4283826176
-0.043423712 -0.0022079851 0.84500003 4283826176
-0.042051014 -0.0022132113 0.84700006 4283760640
-0.040575542 -0.0022132113 0.84700006 4283760640
-0.039284717 -0.002223663 0.85100001 4283760640
-0.037802275 -0.002223663 0.85100001 4283891712
-0.036405191 -0.0022288891 0.85300004 4283891712
-0.03500114 -0.0022341153 0.85500002 4283891712
-0.033590119 -0.0022393411 0.85700005 4283826176
-0.032172129 -0.0022445673 0.85900003 4283826176
-0.030782886 -0.0022524062 0.86200005 4283826176
-0.029281279 -0.0022524062 0.86200005 4283826176
-0.027779676 -0.0022524062 0.86200005 4283826176
-0.026278073 -0.0022524062 0.86200005 4283891712
-0.024833955 -0.0022576321 0.86400002 4283826176
-0.02338287 -0.0022628582 0.86600006 4283891712
-0.021874297 -0.0022628582 0.86600006 4283891712
-0.020459794 -0.0022733102 0.87000006 4284022784
-0.018944252 -0.0022733102 0.87000006 4284088320
-0.017468778 -0.0022785363 0.87200004 4284022784
-0.015949754 -0.0022785363 0.87200004 4284088320
-0.01443073 -0.0022785363 0.87200004 4284088320
-0.012911705 -0.0022785363 0.87200004 4284153856
-0.011431877 -0.0022863753 0.87500006 4284153856
-0.0099076265 -0.0022863753 0.87500006 4284088320
-0.0083833765 -0.0022863753 0.87500006 4284153856
-0.0068748035 -0.0022916012 0.87700003 4284284928
-0.0053470698 -0.0022916012 0.87700003 4283957252
-0.0038193355 -0.0022916012 0.87700003 4283891715
-0.0022968273 -0.0022968273 0.87900007 4284153856
-0.00076560909 -0.0022968273 0.87900007 4284153856
0.00076560909 -0.0022968273 0.87900007 4284153856
0.0022968273 -0.0022968273 0.87900007 4284088320
0.0038280457 -0.0022968273 0.87900007 4284088320
0.0053592636 -0.0022968273 0.87900007 4284088320
0.0068904823 -0.0022968273 0.87900007 4284088320
0.0084217004 -0.0022968273 0.87900007 4284088320
0.0099529186 -0.0022968273 0.87900007 4284022784
0.011484137 -0.0022968273 0.87900007 4284088320
0.013015354 -0.0022968273 0.87900007 4284088320
0.014546574 -0.0022968273 0.87900007 4284022784
0.016041208 -0.0022916012 0.87700003 4284022784
0.017568944 -0.0022916012 0.87700003 4284022784
0.019096678 -0.0022916012 0.87700003 4283891712
0.02062441 -0.0022916012 0.87700003 4283826176
0.022152144 -0.0022916012 0.87700003 4283891712
0.023625879 -0.0022863753 0.87500006 4283826176
0.025150128 -0.0022863753 0.87500006 4283760640
0.026674379 -0.0022863753 0.87500006 4283760640
0.02819863 -0.0022863753 0.87500006 4283891712
0.029722881 -0.0022863753 0.87500006 4283891712
0.03124713 -0.0022863753 0.87500006 4283891712
0.032771379 -0.0022863753 0.87500006 4283891712
0.03429563 -0.0022863753 0.87500006 4283826176
0.035819881 -0.0022863753 0.87500006 4283826176
0.03721609 -0.0022785363 0.87200004 4284022784
0.038735114 -0.0022785363 0.87200004 4284350464
0.040161815 -0.0022733102 0.87000006 4284284929
0.041677356 -0.0022733102 0.87000006 4284022784
0.043093599 -0.0022680843 0.86800003 4283498496
0.044605657 -0.0022680843 0.86800003 4283432960
0.046117712 -0.0022680843 0.86800003 4283432960
0.047520023 -0.0022628582 0.86600006 4283432960
0.049028598 -0.0022628582 0.86600006 4283236352
0.050420452 -0.0022576321 0.86400002 4283236352
0.05192554 -0.0022576321 0.86400002 4283236352
0.053306948 -0.0022524062 0.86200005 4283236352
0.0546178 -0.0022445673 0.85900003 4283236352
0.056114182 -0.0022445673 0.85900003 4283236352
0.057476427 -0.0022393411 0.85700005 4283170816
0.058969319 -0.0022393411 0.85700005 4283170816
0.060321111 -0.0022341153 0.85500002 4282974208
0.061810523 -0.0022341153 0.85500002 4282777600
0.063299932 -0.0022341153 0.85500002 4282712064
0.064486235 -0.002223663 0.85100001 4284089091
0.065813638 -0.0022184374 0.84900004 4285938724
0.067134075 -0.0022132113 0.84700006 4287123255
0.068447538 -0.0022079851 0.84500003 4286991959
0.069754042 -0.0022027595 0.84300005 4287057753
0.071222551 -0.0022027595 0.84300005 4289355865
0.072432369 -0.0021949201 0.84000003 4292316294
0.073895648 -0.0021949201 0.84000003 4291461520
0.075000077 -0.0021844683 0.83600003 4282712076
0.076273479 -0.0021792422 0.83400005 4285726720
-0.057111472 -0.00072293007 0.83000004 4286316544
