# .PCD v0.7 - Point Cloud Data file format
VERSION 0.7
FIELDS x y z
SIZE 4 4 4
TYPE F F F
COUNT 1 1 1
WIDTH 1347
HEIGHT 1
VIEWPOINT 0 0 0 1 0 0 0
POINTS 1347
DATA ascii
-0.034936272 0.063336782 0.85819042
-0.034978144 0.061361331 0.86002004
-0.034500841 0.059422817 0.86185807
-0.033607524 0.057577621 0.86364383
-0.032395527 0.055848125 0.8653484
-0.030940641 0.054237291 0.86696291
-0.029297821 0.052739978 0.86848754
-0.027506378 0.051348638 0.86992604
-0.025594709 0.050055731 0.87128311
-0.023583742 0.048854541 0.87256324
-0.021489251 0.047739435 0.87377042
-0.019323414 0.046705853 0.87490773
-0.017095858 0.045750216 0.87597787
-0.014814396 0.04486984 0.87698263
-0.012485597 0.04406289 0.87792307
-0.010115377 0.043328408 0.87879974
-0.0077104429 0.042666599 0.87961179
-0.0066589704 0.04240261 0.87994331
-0.032382511 0.06736961 0.85584283
-0.030685782 0.068912923 0.85455042
-0.028620297 0.070214801 0.85351241
-0.026315097 0.071273968 0.85271937
-0.023864971 0.072113074 0.85214245
-0.021331057 0.072760895 0.8517499
-0.018751316 0.073243953 0.85151404
-0.016149517 0.073584184 0.85141253
-0.01354099 0.073799074 0.85142785
-0.010936026 0.073902376 0.85154641
-0.0083418898 0.073904924 0.85175759
-0.0057639866 0.073815234 0.85205305
-0.0032066249 0.073640026 0.85242617
-0.00067349395 0.073384553 0.85287172
0.0018319369 0.07305295 0.85338569
0.004305942 0.072648376 0.85396475
0.0067431531 0.072173417 0.85460609
0.0077865398 0.071946166 0.85490286
0.036768902 0.051166691 0.87657028
0.036809839 0.053097978 0.87478155
0.036343209 0.054993153 0.87298459
0.035469864 0.056797091 0.87123877
0.034284968 0.058487918 0.86957228
0.032862607 0.06006274 0.86799389
0.031256516 0.061526582 0.86650336
0.029505124 0.062886812 0.86509705
0.027636195 0.064150818 0.86377031
0.025670188 0.065325148 0.86251879
0.023622526 0.066415325 0.86133862
0.02150511 0.067425795 0.86022669
0.019327357 0.068360068 0.85918051
0.017096901 0.069220759 0.85819823
0.014820169 0.070009671 0.85727876
0.01250294 0.070727728 0.85642171
0.010151774 0.071374744 0.85562778
0.0091238096 0.071632832 0.8553037
0.034974169 0.047577973 0.87975252
0.033277445 0.046034656 0.88104492
0.031211957 0.044732783 0.88208294
0.028906757 0.043673612 0.88287598
0.026456632 0.042834509 0.88345289
0.023922717 0.042186685 0.88384545
0.021342976 0.04170363 0.8840813
0.018741177 0.041363399 0.88418281
0.016132649 0.041148514 0.88416749
0.013527687 0.041045204 0.88404894
0.01093355 0.041042656 0.88383776
0.0083556464 0.041132346 0.8835423
0.0057982849 0.041307557 0.88316917
0.0032651541 0.041563027 0.88272363
0.00075972319 0.041894633 0.88220966
-0.0017142821 0.042299207 0.8816306
-0.0041514933 0.042774163 0.88098925
-0.0051948796 0.043001413 0.88069248
-0.034177244 0.063780889 0.85902512
-0.034218177 0.061849605 0.8608138
-0.033751547 0.059954431 0.86261076
-0.032878201 0.058150493 0.86435658
-0.031693306 0.056459662 0.86602306
-0.030270945 0.05488484 0.86760145
-0.028664855 0.053421002 0.86909199
-0.026913464 0.052060772 0.8704983
-0.025044536 0.050796766 0.87182504
-0.023078527 0.049622431 0.87307656
-0.021030866 0.048532259 0.87425673
-0.01891345 0.047521785 0.87536865
-0.016735697 0.046587512 0.87641484
-0.014505242 0.045726821 0.87739712
-0.012228508 0.044937912 0.87831658
-0.0099112801 0.044219851 0.87917364
-0.0075601139 0.043572839 0.87996757
-0.0065321499 0.043314751 0.88029164
-0.031659614 0.067674235 0.85668826
-0.030001679 0.069182262 0.85542542
-0.02798342 0.070454374 0.85441113
-0.025730923 0.071489327 0.85363621
-0.023336815 0.072309248 0.85307246
-0.020860832 0.072942257 0.85268891
-0.018340074 0.073414266 0.85245842
-0.01579776 0.073746718 0.85235924
-0.01324887 0.073956698 0.8523742
-0.010703465 0.074057639 0.85249007
-0.0081686368 0.074060135 0.85269642
-0.0056496733 0.073972493 0.85298514
-0.0031507807 0.073801287 0.85334969
-0.00067556481 0.073551662 0.8537851
0.0017725837 0.073227637 0.85428727
0.0041900259 0.072832309 0.85485309
0.0065715145 0.072368212 0.85547984
0.0075910455 0.072146155 0.85576981
0.035910781 0.051841766 0.8769418
0.03595078 0.053728897 0.87519401
0.035494823 0.055580739 0.87343812
0.034641441 0.057343435 0.87173223
0.033483636 0.058995605 0.87010384
0.032093797 0.060534421 0.86856157
0.030524425 0.061964795 0.86710507
0.028813075 0.063293926 0.86573088
0.026986877 0.064529032 0.86443448
0.025065817 0.065676518 0.86321157
0.023064971 0.066741765 0.8620584
0.020995967 0.067729138 0.86097187
0.018868003 0.06864205 0.85994959
0.016688544 0.069483064 0.85898983
0.014463863 0.070253931 0.85809135
0.012199615 0.070955582 0.85725391
0.0099022035 0.071587794 0.85647815
0.0088977413 0.071839981 0.85616148
0.034157082 0.048335094 0.88005131
0.032499146 0.046827063 0.88131416
0.030480888 0.045554955 0.88232845
0.028228391 0.044520002 0.88310337
0.025834281 0.04370008 0.88366711
0.0233583 0.043067068 0.88405067
0.02083754 0.042595059 0.88428116
0.018295227 0.042262606 0.88438034
0.015746338 0.04205263 0.88436538
0.013200932 0.041951686 0.88424951
0.010666104 0.041949194 0.88404316
0.008147141 0.042036831 0.88375443
0.0056482484 0.042208042 0.88338989
0.0031730325 0.042457666 0.88295448
0.00072488392 0.042781692 0.88245231
-0.0016925579 0.043177016 0.88188648
-0.0040740469 0.043641116 0.88125974
-0.0050935778 0.04386317 0.88096976
-0.033413313 0.064167559 0.85979778
-0.033453315 0.062280431 0.86154556
-0.032997355 0.06042859 0.86330146
-0.032143977 0.058665894 0.86500734
-0.030986169 0.05701372 0.86663574
-0.029596329 0.055474903 0.86817801
-0.028026957 0.054044534 0.86963451
-0.026315609 0.052715402 0.87100869
-0.02448941 0.051480297 0.8723051
-0.022568351 0.050332811 0.873528
-0.020567503 0.049267564 0.87468117
-0.018498499 0.048280191 0.87576771
-0.016370537 0.047367278 0.87678999
-0.014191076 0.046526264 0.87774974
-0.011966396 0.045755394 0.87864822
-0.0097021479 0.04505375 0.87948567
-0.0074047362 0.044421531 0.88026142
-0.0064002736 0.044169344 0.8805781
-0.030932292 0.067927346 0.85747808
-0.029313141 0.069400102 0.8562448
-0.027342096 0.070642449 0.85525423
-0.025142293 0.071653195 0.85449743
-0.022804191 0.072453931 0.85394692
-0.020386131 0.073072135 0.85357231
-0.017924342 0.073533103 0.85334724
-0.015441502 0.073857777 0.85325032
-0.012952241 0.074062839 0.85326499
-0.010466382 0.074161425 0.85337812
-0.0079908539 0.074163854 0.85357964
-0.0055308174 0.074078269 0.85386157
-0.003090383 0.073911063 0.85421765
-0.00067307131 0.07366728 0.85464281
0.0017178064 0.073350832 0.8551333
0.0040786951 0.072964758 0.85568589
0.0064044725 0.072511517 0.85629791
0.0074001537 0.07229466 0.85658109
0.035057388 0.052465256 0.87725782
0.035096452 0.054308243 0.87555093
0.03465116 0.056116764 0.8738361
0.033817742 0.057838224 0.87217015
0.032687023 0.059451744 0.87057984
0.031329695 0.060954563 0.86907363
0.029797038 0.062351473 0.86765122
0.028125722 0.063649513 0.86630917
0.026342247 0.064855725 0.8650431
0.024466127 0.065976366 0.86384881
0.022512088 0.067016691 0.86272264
0.020491485 0.067980967 0.86166149
0.018413302 0.068872519 0.86066318
0.016284827 0.069693863 0.85972577
0.014112191 0.0704467 0.85884839
0.011900911 0.07113193 0.8580305
0.0096572451 0.071749359 0.85727292
0.0086762812 0.071995646 0.85696363
0.033344716 0.049040619 0.88029462
0.031725563 0.047567867 0.8815279
0.029754518 0.04632552 0.88251847
0.027554715 0.045314774 0.88327527
0.025216613 0.044514038 0.88382578
0.022798553 0.043895833 0.88420039
0.020336764 0.043434866 0.88442546
0.017853925 0.043110192 0.88452232
0.015364664 0.042905126 0.88450772
0.012878804 0.042806543 0.88439459
0.010403275 0.042804111 0.884193
0.00794324 0.042889699 0.88391107
0.0055028051 0.043056902 0.88355505
0.0030854936 0.043300688 0.88312984
0.00069461571 0.043617133 0.88263941
-0.001666273 0.044003211 0.88208681
-0.0039920504 0.044456452 0.88147479
-0.0049877316 0.044673312 0.88119161
-0.032644968 0.064502709 0.86051488
-0.032684028 0.062659726 0.86222178
-0.032238737 0.060851205 0.8639366
-0.031405322 0.059129745 0.86560255
-0.0302746 0.057516221 0.86719286
-0.028917272 0.056013405 0.86869907
-0.027384616 0.054616496 0.87012148
-0.0257133 0.05331846 0.87146348
-0.023929823 0.052112248 0.8727296
-0.022053706 0.050991602 0.8739239
-0.020099664 0.049951278 0.87505007
-0.018079063 0.048987005 0.87611115
-0.01600088 0.048095446 0.87710953
-0.013872406 0.047274105 0.87804687
-0.011699769 0.046521269 0.87892431
-0.0094884885 0.045836039 0.87974215
-0.0072448226 0.045218609 0.88049978
-0.0062638586 0.044972323 0.88080907
-0.030200955 0.068134084 0.85821784
-0.028620584 0.069571562 0.85701412
-0.026696745 0.070784152 0.85604727
-0.02454963 0.07177069 0.85530859
-0.022267526 0.072552249 0.85477126
-0.019907383 0.073155649 0.85440564
-0.017504554 0.073605575 0.85418594
-0.015081181 0.07392247 0.85409141
-0.012651539 0.074122623 0.85410565
-0.01022522 0.074218847 0.8542161
-0.0078089819 0.074221224 0.85441279
-0.0054078656 0.07413768 0.85468799
-0.0030258815 0.073974483 0.85503548
-0.00066646683 0.073736541 0.85545051
0.0016671475 0.07342767 0.85592926
0.0039714915 0.073050842 0.85646856
0.0062415642 0.072608456 0.85706598
0.007213397 0.072396792 0.85734236
0.034208219 0.053042322 0.87752384
0.034246348 0.054841164 0.87585783
0.033811718 0.056606371 0.87418407
0.032998264 0.058286604 0.872558
0.031894624 0.059861477 0.87100583
0.030569805 0.061328303 0.86953568
0.029073857 0.062691756 0.86814737
0.027442571 0.063958704 0.86683744
0.02570181 0.065136023 0.86560172
0.023870626 0.066229828 0.86443597
0.021963388 0.067245238 0.8633368
0.01999118 0.068186417 0.86230111
0.017962771 0.069056615 0.86132663
0.015885277 0.06985829 0.86041176
0.013764677 0.070593089 0.85955536
0.011606359 0.071261913 0.85875708
0.0094164293 0.071864553 0.85801756
0.0084589599 0.072104938 0.85771573
0.032536566 0.049699709 0.88048792
0.030956196 0.048262231 0.88169169
0.029032355 0.047049638 0.88265848
0.026885241 0.046063103 0.88339716
0.024603136 0.045281541 0.8839345
0.022242993 0.044678144 0.88430011
0.019840166 0.044228215 0.88451982
0.017416792 0.043911319 0.88461441
0.01498715 0.043711167 0.8846001
0.01256083 0.043614943 0.88448966
0.010144592 0.04361257 0.88429296
0.0077434764 0.043696109 0.88401777
0.0053614923 0.043859307 0.88367027
0.0030020776 0.044097252 0.88325524
0.00066846324 0.04440612 0.88277656
-0.0016358806 0.044782948 0.8822372
-0.0039059534 0.045225333 0.88163984
-0.0048777862 0.045437001 0.88136339
-0.031872608 0.064791471 0.86118191
-0.031910736 0.062992625 0.86284792
-0.031476106 0.061227418 0.86452168
-0.030662652 0.05954719 0.86614776
-0.029559013 0.057972312 0.86769998
-0.028234195 0.05650549 0.86917013
-0.026738247 0.055142038 0.87055844
-0.025106961 0.053875089 0.87186831
-0.0233662 0.052697767 0.8731041
-0.021535017 0.051603965 0.87426978
-0.019627776 0.050588556 0.87536901
-0.017655568 0.049647376 0.8764047
-0.015627161 0.048777174 0.87737912
-0.013549666 0.047975503 0.87829405
-0.011429066 0.047240701 0.87915045
-0.0092707481 0.046571881 0.87994874
-0.007080819 0.04596924 0.88068819
-0.0061233491 0.045728851 0.88099009
-0.029465953 0.068298899 0.85891241
-0.027924357 0.069701105 0.8577382
-0.026047725 0.070883945 0.85679513
-0.023953293 0.071846277 0.85607457
-0.021727186 0.072608657 0.85555041
-0.019424951 0.073197253 0.85519373
-0.017081082 0.073636137 0.85497946
-0.014717168 0.073945262 0.85488719
-0.012347144 0.074140504 0.85490113
-0.0099803573 0.074234366 0.85500884
-0.0076234057 0.074236684 0.85520077
-0.0052812058 0.074155189 0.85546917
-0.0029576677 0.073996 0.85580814
-0.0006561451 0.073763892 0.85621297
0.00162021 0.073462605 0.85667998
0.0038680127 0.073095016 0.85720605
0.0060823853 0.072663486 0.8577888
0.007030373 0.072457016 0.85805839
0.033362832 0.053577442 0.87774473
0.033400021 0.055332147 0.87611955
0.032976057 0.057054043 0.87448692
0.032182563 0.058693044 0.87290072
0.031106003 0.060229279 0.87138659
0.02981369 0.061660111 0.86995256
0.028354449 0.062990107 0.86859828
0.026763188 0.064225972 0.86732054
0.025065141 0.065374404 0.86611509
0.023278888 0.066441365 0.86497802
0.021418447 0.067431867 0.86390573
0.01949463 0.06834995 0.86289549
0.017515993 0.069198802 0.86194491
0.015489473 0.0699808 0.86105245
0.013420906 0.070697576 0.86021709
0.011315545 0.071349986 0.85943842
0.00917935 0.071937837 0.85871708
0.0082453741 0.072172329 0.85842258
0.031732194 0.050316844 0.88063604
0.030190596 0.048914637 0.88181025
0.028313965 0.047731798 0.88275337
0.026219532 0.04676947 0.88347393
0.023993427 0.046007086 0.8839981
0.02169119 0.045418493 0.88435471
0.019347321 0.044979606 0.88456905
0.016983408 0.044670481 0.88466126
0.014613384 0.044475242 0.88464737
0.012246598 0.04438138 0.8845396
0.0098896455 0.044379063 0.88434774
0.0075474461 0.044460554 0.88407934
0.005223908 0.044619747 0.88374031
0.0029223852 0.044851854 0.88333547
0.00064603006 0.045153141 0.88286853
-0.0016017726 0.045520727 0.8823424
-0.0038161452 0.045952257 0.8817597
-0.0047641327 0.046158731 0.88149005
-0.031096593 0.065038301 0.86180377
-0.03113378 0.0632836 0.86342889
-0.030709818 0.061561704 0.86506158
-0.029916322 0.059922703 0.86664772
-0.028839763 0.058386467 0.86816186
-0.027547449 0.056955636 0.86959594
-0.02608821 0.055625636 0.87095016
-0.024496948 0.054389775 0.87222797
-0.022798901 0.053241342 0.87343341
-0.021012649 0.052174378 0.87457049
-0.019152205 0.051183879 0.87564272
-0.017228391 0.050265796 0.87665302
-0.015249753 0.049416944 0.87760353
-0.013223233 0.048634946 0.87849599
-0.011154666 0.047918171 0.87933141
-0.0090493048 0.047265761 0.88011009
-0.0069131101 0.04667791 0.88083142
-0.0059791338 0.046443418 0.88112587
-0.028727598 0.068425722 0.85956603
-0.027224781 0.069792658 0.85842133
-0.025395351 0.070945747 0.85750198
-0.023353601 0.071883872 0.85679954
-0.021183489 0.072627075 0.85628855
-0.018939162 0.073200867 0.85594088
-0.016654249 0.073628716 0.85573196
-0.014349796 0.073930062 0.85564202
-0.012039384 0.074120387 0.85565561
-0.0097321309 0.074211888 0.85576063
-0.0074344645 0.074214146 0.85594773
-0.0051511782 0.074134707 0.8562094
-0.0028860848 0.073979519 0.85653985
-0.00064245349 0.073753245 0.85693449
0.0015766436 0.073459543 0.85738969
0.0037679067 0.0731012 0.85790259
0.0059265806 0.072680525 0.85847068
0.0068507236 0.072479248 0.85873348
0.032520834 0.054074559 0.87792462
0.032557089 0.055785127 0.87634039
0.03214379 0.057463709 0.87474877
0.031370252 0.059061486 0.8732025
0.030320773 0.060559075 0.87172645
0.029060965 0.061953921 0.87032843
0.02763843 0.063250467 0.86900824
0.026087193 0.064455241 0.86776263
0.024431856 0.065574788 0.86658752
0.022690536 0.066614911 0.86547905
0.02087689 0.067580499 0.86443377
0.019001463 0.068475485 0.86344892
0.017072596 0.069302984 0.86252224
0.015097049 0.070065312 0.86165226
0.013080512 0.070764057 0.86083788
0.011028109 0.071400061 0.86007875
0.0089456467 0.07197313 0.8593756
0.0080351634 0.072201721 0.85908854
0.03093121 0.050895974 0.88074321
0.029428393 0.049529038 0.88188791
0.027598962 0.048375949 0.88280731
0.025557213 0.047437828 0.8835097
0.023387101 0.046694618 0.88402069
0.021142773 0.046120834 0.88436836
0.018857861 0.045692984 0.88457727
0.016553408 0.045391638 0.88466722
0.014242996 0.045201309 0.88465363
0.011935744 0.045109805 0.8845486
0.0096380766 0.045107547 0.88436157
0.0073547899 0.045186989 0.8840999
0.0050896965 0.045342177 0.88376939
0.0028460654 0.045568448 0.88337475
0.00062696828 0.045862157 0.88291955
-0.0015642949 0.046220493 0.88240665
-0.003722969 0.046641171 0.88183862
-0.004647112 0.046842448 0.88157576
-0.030317221 0.065247141 0.86238462
-0.030353477 0.063536569 0.86396891
-0.029940177 0.061857987 0.86556053
-0.029166641 0.06026021 0.8671068
-0.028117161 0.058762621 0.86858284
-0.026857354 0.057367776 0.86998081
-0.025434816 0.056071233 0.871301
-0.023883581 0.054866455 0.87254661
-0.022228245 0.053746909 0.87372172
-0.020486923 0.052706786 0.87483025
-0.018673278 0.051741201 0.87587553
-0.016797852 0.050846212 0.87686038
-0.014868983 0.050018709 0.87778699
-0.012893437 0.049256381 0.87865698
-0.010876901 0.048557635 0.87947136
-0.0088244975 0.047921639 0.88023049
-0.006742035 0.04734857 0.8809337
-0.0058315517 0.047119975 0.88122076
-0.027986163 0.068518035 0.86018246
-0.026522122 0.0698497 0.85906732
-0.024739895 0.070973031 0.85817164
-0.02275083 0.071886949 0.85748738
-0.020636713 0.072610982 0.85698956
-0.018450297 0.073169962 0.85665083
-0.016224341 0.073586769 0.85644734
-0.013979351 0.073880345 0.85635972
-0.011728555 0.07406576 0.85637295
-0.009480834 0.074154899 0.85647529
-0.0072424556 0.074157104 0.85665751
-0.0050180852 0.074079707 0.85691243
-0.0028114386 0.073928528 0.85723436
-0.00062569923 0.073708095 0.85761881
0.0015361386 0.073421963 0.85806227
0.0036708601 0.073072873 0.85856193
0.005773834 0.072663054 0.85911536
0.0066741314 0.072466962 0.85937142
0.031681873 0.054537173 0.87806737
0.031717192 0.056203604 0.87652397
0.031314556 0.057838872 0.87497342
0.030560981 0.059395421 0.87346703
0.029538581 0.060854372 0.87202913
0.028311282 0.062213223 0.87066716
0.02692545 0.063476309 0.86938107
0.025414243 0.064649999 0.86816758
0.023801617 0.06574066 0.86702275
0.022105226 0.066753946 0.8659429
0.020338379 0.067694612 0.86492461
0.018511346 0.068566516 0.86396515
0.016632248 0.069372661 0.86306238
0.014707675 0.07011532 0.86221486
0.012743172 0.070796035 0.86142147
0.010743727 0.071415626 0.86068195
0.0087149991 0.071973905 0.85999691
0.0078280084 0.072196595 0.85971725
0.030133268 0.051440608 0.88081324
0.028669229 0.050108939 0.88192838
0.026887001 0.048985608 0.882824
0.024897937 0.04807169 0.88350832
0.022783818 0.047347657 0.88400614
0.020597404 0.046788678 0.88434482
0.018371448 0.046371866 0.88454837
0.016126458 0.046078298 0.88463598
0.01387566 0.045892879 0.88462275
0.01162794 0.045803737 0.88452041
0.0093895616 0.045801539 0.8843382
0.0071651912 0.045878928 0.88408327
0.0049585444 0.046030115 0.88376135
0.002772805 0.046250548 0.88337684
0.00061096717 0.046536677 0.88293338
-0.0015237544 0.046885766 0.88243371
-0.0036267282 0.047295589 0.88188034
-0.0045270254 0.047491673 0.88162428
-0.029534768 0.06542147 0.86292833
-0.029570088 0.063755035 0.86447173
-0.029167451 0.062119767 0.86602229
-0.028413877 0.060563218 0.86752862
-0.027391475 0.059104268 0.86896658
-0.026164176 0.057745416 0.87032849
-0.024778346 0.056482326 0.87161463
-0.023267137 0.05530864 0.87282813
-0.021654513 0.054217979 0.87397289
-0.01995812 0.053204689 0.87505281
-0.018191274 0.052264024 0.8760711
-0.016364239 0.051392127 0.87703055
-0.014485142 0.050585978 0.87793326
-0.01256057 0.049843319 0.87878084
-0.010596067 0.049162604 0.87957418
-0.0085966215 0.048543017 0.88031369
-0.0065678931 0.047984734 0.88099873
-0.0056809029 0.04776204 0.8812784
-0.027241886 0.068578929 0.8607651
-0.025816625 0.069875322 0.85967946
-0.024081606 0.070968896 0.85880756
-0.022145227 0.071858607 0.85814136
-0.02008711 0.072563462 0.85765672
-0.017958609 0.073107637 0.85732698
-0.015791615 0.073513404 0.85712886
-0.013606092 0.0737992 0.85704362
-0.011414914 0.073979706 0.8570565
-0.0092267338 0.074066482 0.8571561
-0.0070476457 0.074068628 0.85733348
-0.004882195 0.073993288 0.85758168
-0.0027339989 0.073846102 0.85789508
-0.00060615665 0.07363151 0.85826933
0.0014984178 0.073352963 0.85870105
0.0035765944 0.073013119 0.85918748
0.0056238635 0.072614148 0.85972625
0.0065003131 0.072423257 0.85997552
0.03084564 0.054968398 0.87817621
0.030880027 0.056590687 0.8766737
0.030488053 0.058182642 0.87516427
0.029754439 0.05969796 0.87369776
0.02875912 0.061118264 0.87229794
0.02756433 0.062441122 0.87097204
0.026215209 0.063670754 0.86971998
0.02474403 0.064813353 0.86853868
0.02317412 0.06587512 0.86742419
0.021522664 0.06686157 0.86637294
0.019802617 0.067777321 0.8653816
0.018023979 0.068626121 0.86444753
0.016194656 0.06941092 0.86356872
0.014321063 0.070133902 0.86274362
0.012408596 0.070796587 0.86197126
0.010462113 0.071399763 0.86125135
0.0084871221 0.071943261 0.86058444
0.0076236259 0.07216005 0.86031222
0.029338056 0.051953856 0.88084936
0.027912797 0.050657462 0.881935
0.026177777 0.049563885 0.8828069
0.024241397 0.048674174 0.8834731
0.02218328 0.047969323 0.88395768
0.02005478 0.047425147 0.88428742
0.017887788 0.047019381 0.88448554
0.015702263 0.046733584 0.88457084
0.013511085 0.046553079 0.88455796
0.011322904 0.046466298 0.88445836
0.0091438163 0.046464156 0.88428098
0.0069783661 0.046539497 0.88403279
0.0048301695 0.046686679 0.88371938
0.0027023274 0.046901271 0.88334507
0.00059775292 0.047179822 0.88291335
-0.0014804237 0.047519665 0.88242692
-0.003527693 0.047918633 0.88188821
-0.004404142 0.048109524 0.88163894
-0.02874947 0.065564387 0.86343819
-0.028783856 0.063942097 0.8649407
-0.028391883 0.062350139 0.86645019
-0.027658267 0.060834821 0.86791664
-0.026662949 0.059414517 0.86931652
-0.025468159 0.058091659 0.87064236
-0.024119038 0.05686203 0.87189442
-0.02264786 0.055719428 0.87307578
-0.02107795 0.05465766 0.87419021
-0.019426493 0.053671211 0.87524152
-0.017706446 0.05275546 0.87623286
-0.015927806 0.05190666 0.87716687
-0.014098485 0.051121864 0.87804568
-0.012224892 0.050398879 0.87887079
-0.010312425 0.049736194 0.87964314
-0.0083659422 0.049133018 0.88036311
-0.0063909511 0.048589524 0.88102996
-0.0055274554 0.048372731 0.88130224
-0.026494969 0.068611182 0.86131686
-0.025108494 0.069872297 0.86026078
-0.02342069 0.070936114 0.85941261
-0.021537004 0.07180161 0.85876459
-0.019534895 0.072487287 0.85829312
-0.017464316 0.073016651 0.85797238
-0.015356292 0.073411375 0.85777962
-0.013230241 0.073689394 0.85769671
-0.011098692 0.073864989 0.85770923
-0.0089700576 0.073949404 0.85780609
-0.0068502687 0.07395149 0.8579787
-0.0047437451 0.073878199 0.8582201
-0.0026540076 0.073735021 0.85852498
-0.00058406923 0.073526271 0.8588891
0.0014632341 0.073255301 0.85930902
0.0034848573 0.072924703 0.85978222
0.0054764152 0.072536595 0.86030632
0.006329014 0.072350897 0.86054879
0.03001184 0.055371031 0.87825423
0.03004529 0.056949172 0.87679261
0.029663984 0.058497809 0.87532425
0.028950334 0.059971888 0.87389767
0.027982101 0.061353542 0.87253588
0.026819821 0.062640399 0.8712461
0.025507415 0.063836575 0.87002814
0.02407627 0.064948082 0.86887896
0.022549082 0.065980956 0.86779481
0.020942567 0.066940561 0.86677212
0.019269327 0.06783139 0.86580777
0.01753909 0.068657093 0.86489916
0.015759548 0.069420531 0.86404425
0.01393694 0.070123844 0.86324161
0.012076517 0.070768498 0.8624903
0.010183003 0.071355261 0.86178994
0.008261756 0.071883962 0.8611412
0.0074217585 0.072094858 0.86087632
0.028545281 0.052438524 0.88085461
0.027158806 0.051177409 0.88191068
0.025471002 0.050113589 0.88275892
0.023587316 0.049248092 0.88340694
0.021585207 0.048562419 0.88387835
0.019514628 0.048033055 0.88419914
0.017406605 0.047638327 0.88439184
0.015280553 0.047360308 0.88447481
0.013149004 0.047184713 0.8844623
0.01102037 0.047100298 0.88436538
0.0089005809 0.047098212 0.88419282
0.0067940578 0.047171503 0.88395143
0.0047043199 0.047314681 0.88364655
0.0026343814 0.047523431 0.88328242
0.00058707822 0.047794402 0.88286245
-0.001434545 0.048124999 0.88238931
-0.0034261029 0.048513107 0.8818652
-0.0042787017 0.048698805 0.88162273
-0.027961528 0.065678671 0.86391729
-0.027994977 0.064100534 0.86537892
-0.027613671 0.062551893 0.86684728
-0.026900021 0.061077815 0.86827385
-0.025931789 0.05969616 0.86963564
-0.024769509 0.0584093 0.87092543
-0.023457102 0.057213131 0.87214339
-0.022025958 0.056101624 0.87329257
-0.020498769 0.05506875 0.87437671
-0.018892255 0.054109145 0.87539941
-0.017219014 0.053218316 0.87636375
-0.015488777 0.052392609 0.87727237
-0.013709235 0.051629175 0.87812728
-0.011886627 0.050925862 0.87892991
-0.010026204 0.050281208 0.87968123
-0.0081326896 0.049694445 0.88038158
-0.0062114443 0.049165744 0.88103032
-0.0053714463 0.048954848 0.88129514
-0.025745599 0.068617307 0.86184061
-0.024397915 0.069843136 0.86081409
-0.022757335 0.070877194 0.85998964
-0.020926354 0.071718477 0.85935974
-0.018980259 0.072384961 0.8589015
-0.016967613 0.072899513 0.85858971
-0.01491857 0.073283195 0.85840237
-0.012852004 0.073553436 0.85832173
-0.010780094 0.073724121 0.85833389
-0.0087110167 0.073806174 0.85842806
-0.0066505363 0.073808201 0.85859585
-0.0046029529 0.073736958 0.85883051
-0.0025716827 0.073597789 0.85912687
-0.00055965962 0.07339488 0.85948074
0.0014303622 0.073131487 0.85988897
0.0033954231 0.072810143 0.86034894
0.0053312583 0.072432891 0.86085832
0.0061600027 0.072252393 0.86109406
0.029180206 0.055747602 0.87830412
0.029212721 0.057281591 0.87688339
0.028842084 0.058786895 0.87545604
0.0281484 0.060219735 0.87406939
0.027207257 0.061562732 0.87274575
0.0260775 0.062813587 0.87149203
0.024801809 0.063976288 0.87030816
0.023410708 0.065056697 0.86919111
0.02192625 0.06606067 0.8681373
0.020364683 0.06699343 0.86714321
0.018738259 0.067859337 0.86620587
0.017056432 0.068661936 0.86532265
0.015326679 0.069404013 0.8644917
0.013555067 0.070087649 0.86371148
0.011746695 0.070714265 0.8629812
0.0099061606 0.071284607 0.86230046
0.008038668 0.071798518 0.86166984
0.0072221737 0.072003514 0.86141241
0.027754681 0.052897144 0.88083172
0.026406998 0.051671315 0.88185823
0.024766417 0.05063726 0.88268274
0.022935437 0.049795978 0.88331264
0.020989342 0.04912949 0.88377088
0.018976696 0.048614934 0.88408267
0.016927652 0.048231252 0.88427001
0.014861086 0.047961012 0.88435066
0.012789177 0.04779033 0.88433844
0.010720099 0.047708277 0.88424426
0.0086596189 0.04770625 0.88407654
0.006612035 0.047777489 0.88384187
0.004580765 0.047916658 0.88354552
0.002568742 0.048119571 0.88319159
0.00057872024 0.04838296 0.88278341
-0.0013863406 0.048704308 0.88232344
-0.0033221757 0.04908156 0.881814
-0.0041509201 0.049262062 0.88157833
-0.027171124 0.065766849 0.86436826
-0.027203638 0.064232863 0.865789
-0.026833002 0.062727556 0.86721629
-0.026139319 0.061294716 0.86860299
-0.025198175 0.059951719 0.86992663
-0.024068417 0.058700867 0.8711803
-0.022792727 0.057538163 0.87236422
-0.021401625 0.056457754 0.87348127
-0.019917168 0.055453777 0.87453508
-0.018355601 0.054521024 0.87552911
-0.016729176 0.053655118 0.87646651
-0.015047349 0.052852515 0.87734967
-0.013317596 0.052110437 0.87818068
-0.011545984 0.051426806 0.87896085
-0.0097376136 0.050800189 0.87969118
-0.0078970781 0.050229844 0.88037193
-0.0060295858 0.049715932 0.88100249
-0.0052130911 0.049510937 0.88125992
-0.024993939 0.068599559 0.86233878
-0.023685059 0.069790095 0.86134177
-0.022091713 0.070794374 0.86054105
-0.020313447 0.071611434 0.85992926
-0.01842338 0.072258733 0.85948426
-0.016468681 0.072758473 0.85918146
-0.01447863 0.073131114 0.85899949
-0.012471564 0.073393568 0.85892117
-0.010459307 0.073559336 0.85893297
-0.0084497994 0.073639035 0.85902447
-0.0064486419 0.073640995 0.85918736
-0.0044600088 0.073571809 0.85941529
-0.0024872215 0.073436648 0.85970312
-0.00053312618 0.07323958 0.8600468
0.0013996013 0.072983772 0.86044329
0.0033080857 0.072671674 0.86088997
0.0051881876 0.072305284 0.86138475
0.0059930715 0.07212998 0.86161369
0.028350504 0.05610038 0.8783282
0.028382082 0.057590205 0.87694842
0.028022118 0.059052169 0.87556219
0.027348405 0.060443755 0.87421548
0.026434356 0.061748087 0.87292993
0.025337128 0.062962927 0.87171233
0.024098163 0.064092152 0.87056249
0.022747114 0.065141454 0.86947763
0.021305395 0.066116527 0.86845416
0.019788787 0.067022428 0.86748868
0.018209189 0.067863405 0.86657834
0.016575783 0.068642899 0.86572057
0.014895831 0.069363609 0.86491352
0.013175225 0.07002756 0.86415577
0.011418919 0.070636138 0.86344647
0.0096313739 0.071190059 0.86278534
0.0078176493 0.071689174 0.8621729
0.0070246616 0.071888268 0.86192286
0.02696602 0.05333199 0.88078308
0.02565714 0.05214145 0.88178009
0.024063792 0.051137168 0.88258082
0.022285527 0.050320107 0.88319254
0.020395461 0.049672808 0.88363761
0.018440763 0.049173068 0.8839404
0.016450711 0.048800431 0.88412237
0.014443644 0.048537973 0.88420069
0.012431386 0.048372205 0.88418889
0.010421879 0.048292514 0.8840974
0.0084207216 0.048290547 0.8839345
0.0064320886 0.048359733 0.88370657
0.0044593015 0.048494898 0.88341874
0.0025052063 0.048691969 0.88307506
0.00057247869 0.048947774 0.88267857
-0.0013360057 0.049259868 0.88223183
-0.0032161076 0.049626257 0.88173711
-0.0040209913 0.049801562 0.88150817
-0.026378425 0.065831162 0.8647936
-0.026410002 0.064341344 0.86617345
-0.026050037 0.062879376 0.86755967
-0.025376325 0.06148779 0.86890638
-0.024462277 0.060183458 0.87019193
-0.023365047 0.058968619 0.87140954
-0.022126084 0.05783939 0.87255937
-0.020775035 0.056790087 0.87364423
-0.019333316 0.055815015 0.8746677
-0.017816707 0.054909118 0.87563318
-0.016237108 0.054068141 0.87654352
-0.014603702 0.053288646 0.87740129
-0.012923751 0.052567933 0.87820834
-0.011203145 0.051903982 0.87896609
-0.0094468389 0.051295407 0.87967539
-0.0076592937 0.050741483 0.88033652
-0.0058455691 0.050242368 0.88094896
-0.0050525814 0.050043274 0.881199
-0.024240132 0.068559997 0.86281353
-0.022970064 0.069715232 0.86184615
-0.021423964 0.070689738 0.86106914
-0.019698428 0.071482569 0.86047554
-0.01786441 0.072110675 0.86004364
-0.015967671 0.072595596 0.85974985
-0.014036633 0.07295718 0.8595733
-0.012089081 0.073211856 0.85949731
-0.010136491 0.073372707 0.85950875
-0.0081865722 0.073450036 0.8595975
-0.0062447549 0.073451951 0.85975564
-0.0043150913 0.073384814 0.85997677
-0.002400802 0.073253654 0.86025602
-0.00050465064 0.073062427 0.86058956
0.0013707656 0.072814211 0.86097425
0.0032226588 0.072511367 0.86140776
0.0050470093 0.072155841 0.86188781
0.0058280267 0.071985736 0.86210996
0.027522499 0.056431457 0.87832886
0.027553139 0.057877105 0.87698996
0.027203849 0.059295718 0.87564486
0.026550114 0.060646039 0.87433803
0.025663171 0.061911695 0.87309062
0.024598476 0.063090511 0.87190914
0.023396254 0.064186253 0.8707934
0.022085266 0.065204442 0.86974072
0.020686297 0.066150598 0.86874759
0.01921466 0.06702964 0.86781079
0.017681902 0.067845672 0.86692739
0.016096931 0.068602055 0.86609507
0.014466794 0.069301397 0.86531192
0.012797209 0.069945663 0.8645767
0.011092982 0.070536189 0.86388844
0.0093584433 0.071073689 0.86324686
0.0075985002 0.071557999 0.8626526
0.0068290271 0.071751192 0.86241001
0.026179068 0.053745158 0.88071096
0.024908999 0.052589923 0.88167834
0.023362899 0.051615417 0.88245535
0.021637363 0.050822586 0.88304895
0.019803345 0.050194483 0.88348085
0.017906606 0.049709558 0.88377464
0.015975568 0.049347974 0.88395119
0.014028016 0.049093299 0.88402718
0.012075426 0.048932444 0.88401574
0.010125508 0.048855115 0.88392699
0.0081836898 0.048853207 0.88376892
0.0062540267 0.048920345 0.88354772
0.0043397374 0.049051501 0.88326848
0.002443586 0.049242724 0.88293493
0.00056816981 0.049490947 0.88255024
-0.0012837233 0.049793787 0.88211673
-0.003108074 0.05014931 0.88163668
-0.0038890911 0.050319418 0.88141453
-0.025583563 0.065873697 0.86519563
-0.025614204 0.064428054 0.86653453
-0.025264913 0.063009433 0.86787963
-0.024611179 0.061659113 0.86918646
-0.023724236 0.06039346 0.87043387
-0.02265954 0.059214644 0.87161535
-0.021457318 0.058118902 0.87273109
-0.020146331 0.057100713 0.87378377
-0.018747361 0.056154553 0.8747769
-0.017275725 0.055275518 0.87571371
-0.015742967 0.054459479 0.87659711
-0.014157996 0.053703099 0.87742943
-0.012527859 0.053003758 0.87821257
-0.010858274 0.052359495 0.87894779
-0.0091540469 0.051768966 0.87963605
-0.007419508 0.051231466 0.88027763
-0.0056595649 0.050747152 0.88087189
-0.0048900917 0.050553963 0.88111448
-0.023484306 0.068500511 0.863267
-0.022253063 0.06962043 0.86232919
-0.020754226 0.070565149 0.86157596
-0.01908144 0.071333744 0.86100048
-0.017303485 0.07194265 0.86058182
-0.01546473 0.072412744 0.86029696
-0.013592721 0.072763279 0.86012584
-0.011704703 0.073010169 0.86005217
-0.0098118037 0.073166102 0.86006325
-0.0079214908 0.07324107 0.86014932
-0.0060390336 0.073242918 0.86030257
-0.0041683577 0.073177837 0.86051697
-0.0023125866 0.073050693 0.86078769
-0.00047439983 0.072865307 0.86111104
0.0013436866 0.072624676 0.86148399
0.0031389692 0.072331093 0.8619042
0.0049075512 0.071986437 0.8623696
0.0056646932 0.071821533 0.86258495
0.026695983 0.056742735 0.87830806
0.026725687 0.058144186 0.87701011
0.026387073 0.059519436 0.87570608
0.025753325 0.060828477 0.87443924
0.024893494 0.062055442 0.87322992
0.023861345 0.063198224 0.87208456
0.022695875 0.064260475 0.87100297
0.02142496 0.065247536 0.86998242
0.020068759 0.066164769 0.86901969
0.018642109 0.067016937 0.86811149
0.017156206 0.067808025 0.86725509
0.015619686 0.068541288 0.86644822
0.01403938 0.069219247 0.86568904
0.012420833 0.069843821 0.86497623
0.010768703 0.070416294 0.86430901
0.0090871882 0.070937365 0.8636871
0.0073810448 0.071406871 0.86311102
0.0066350941 0.071594156 0.86287582
0.02539362 0.054138549 0.88061732
0.024162376 0.05301863 0.88155514
0.022663539 0.052073918 0.88230836
0.020990754 0.05130532 0.88288385
0.019212799 0.050696418 0.88330251
0.017374042 0.05022632 0.88358736
0.015502034 0.049875785 0.88375854
0.013614016 0.049628895 0.88383222
0.011721116 0.049472958 0.88382107
0.0098308027 0.049397994 0.883735
0.0079483464 0.049396142 0.88358176
0.00607767 0.049461227 0.88336742
0.0042218994 0.049588375 0.88309664
0.0023837124 0.049773756 0.88277328
0.00056562613 0.050014388 0.88240033
-0.0012296565 0.05030797 0.88198018
-0.0029982384 0.050652627 0.88151473
-0.0037553804 0.050817534 0.88129938
-0.02478667 0.065896332 0.86557627
-0.024816375 0.064494878 0.86687428
-0.024477761 0.063119628 0.86817825
-0.023844011 0.061810587 0.86944509
-0.022984182 0.060583621 0.8706544
-0.021952033 0.05944084 0.87179977
-0.020786561 0.058378592 0.87288141
-0.019515648 0.057391532 0.8739019
-0.018159447 0.056474295 0.8748647
-0.016732795 0.055622131 0.87577283
-0.015246892 0.054831035 0.87662923
-0.013710373 0.054097779 0.8774361
-0.012130068 0.053419814 0.87819529
-0.010511521 0.052795246 0.8789081
-0.0088593904 0.05222277 0.87957531
-0.0071778754 0.051701702 0.88019723
-0.005471732 0.051232193 0.88077337
-0.0047257813 0.051044907 0.88100851
-0.022726573 0.068422809 0.86370105
-0.021534169 0.069507405 0.86279285
-0.020082613 0.070422314 0.86206335
-0.018462595 0.071166664 0.86150604
-0.016740726 0.071756363 0.86110055
-0.014959974 0.072211631 0.8608247
-0.01314702 0.072551109 0.86065894
-0.01131856 0.072790205 0.8605876
-0.0094853733 0.072941221 0.86059839
-0.007654692 0.073013827 0.86068171
-0.0058316169 0.073015615 0.86083013
-0.0040199524 0.072952583 0.86103773
-0.0022227236 0.072829448 0.86129993
-0.00044252223 0.072649918 0.86161309
0.0013182116 0.072416879 0.8619743
0.0030568612 0.072132558 0.86238122
0.0047696526 0.071798772 0.86283195
0.0055029099 0.071639068 0.86304051
0.025870759 0.057035934 0.87826765
0.025899528 0.05839318 0.87701058
0.025571594 0.059725046 0.87574774
0.024957836 0.060992796 0.87452084
0.024125129 0.062181052 0.87334973
0.02312554 0.063287787 0.87224048
0.021996835 0.064316526 0.87119299
0.020766012 0.06527245 0.87020463
0.019452592 0.066160746 0.86927223
0.018070947 0.066986032 0.86839271
0.016631916 0.067752168 0.86756337
0.015143868 0.068462297 0.86678189
0.013613415 0.069118872 0.86604667
0.012045925 0.06972374 0.86535639
0.010445912 0.07027816 0.86471021
0.0088174408 0.070782788 0.86410791
0.0071651186 0.07123749 0.86354995
0.0064426991 0.071418867 0.8633222
0.02460948 0.054513901 0.88050407
0.023417076 0.053429309 0.88141227
0.021965519 0.0525144 0.88214177
0.020345502 0.051770046 0.88269907
0.018623633 0.051180352 0.88310456
0.016842881 0.050725084 0.88338041
0.015029927 0.050385609 0.88354617
0.013201467 0.050146505 0.88361752
0.01136828 0.049995489 0.88360673
0.009537599 0.049922887 0.8835234
0.0077145239 0.049921095 0.88337499
0.0059028594 0.049984127 0.88316739
0.0041056303 0.050107263 0.88290519
0.0023254291 0.050286796 0.88259202
0.00056469522 0.050519839 0.88223082
-0.0011739543 0.050804161 0.8818239
-0.0028867456 0.051137943 0.88137317
-0.0036200031 0.05129765 0.88116461
-0.023987852 0.06590078 0.86593747
-0.024016621 0.06454353 0.86719453
-0.023688687 0.063211672 0.86845738
-0.023074929 0.061943918 0.86968428
-0.022242222 0.060755663 0.87085539
-0.021242633 0.059648927 0.87196463
-0.020113928 0.058620192 0.87301213
-0.018883105 0.057664264 0.87400049
-0.017569685 0.056775965 0.87493289
-0.01618804 0.055950683 0.87581241
-0.01474901 0.055184543 0.87664175
-0.013260961 0.054474417 0.87742323
-0.011730508 0.053817838 0.87815845
-0.010163018 0.053212974 0.87884873
-0.0085630054 0.052658558 0.87949491
-0.0069345338 0.052153926 0.88009721
-0.005282212 0.051699229 0.88065517
-0.0045597921 0.051517852 0.88088292
-0.021967024 0.068328485 0.86411744
-0.020813476 0.069377735 0.86323881
-0.019409224 0.070262827 0.86253309
-0.017842 0.070982926 0.86199391
-0.016176244 0.071553402 0.86160171
-0.014453522 0.071993835 0.8613348
-0.012699647 0.072322249 0.86117446
-0.010930772 0.07255356 0.86110544
-0.0091573242 0.072699651 0.86111587
-0.0073863002 0.072769888 0.86119646
-0.0056226356 0.072771624 0.86134005
-0.0038700097 0.072710648 0.86154091
-0.0021313471 0.072591521 0.86179459
-0.00040915899 0.07241784 0.8620975
0.0012941969 0.072192393 0.8624469
0.0029761875 0.07191734 0.86284059
0.0046331631 0.071594432 0.86327666
0.0053425254 0.071439929 0.86347842
0.025046634 0.057312682 0.87820929
0.025074463 0.058625694 0.87699324
0.024757218 0.059914161 0.87577152
0.02416346 0.061140597 0.87458462
0.023357891 0.062290132 0.87345165
0.022390876 0.063360795 0.87237853
0.021298952 0.064356014 0.87136519
0.02010824 0.065280788 0.87040907
0.01883762 0.066140138 0.86950707
0.017500998 0.066938527 0.86865622
0.016108863 0.067679696 0.86785388
0.014669307 0.068366684 0.86709791
0.013188727 0.069001861 0.86638659
0.011672319 0.069587022 0.86571878
0.010124447 0.070123367 0.86509371
0.008549043 0.070611559 0.86451101
0.0069505665 0.071051434 0.86397123
0.006251689 0.071226902 0.86375093
0.023826456 0.054872837 0.88037282
0.02267291 0.053823587 0.88125151
0.021268656 0.052938491 0.88195717
0.019701432 0.052218396 0.88249636
0.018035676 0.051647916 0.88288862
0.016312955 0.051207487 0.88315547
0.014559079 0.050879072 0.8833158
0.012790205 0.050647762 0.88338482
0.011016756 0.050501667 0.88337439
0.0092457328 0.05043143 0.88329381
0.0074820681 0.050429698 0.88315022
0.005729442 0.050490677 0.88294935
0.0039907792 0.050609797 0.88269573
0.0022685912 0.050783481 0.88239276
0.00056523539 0.051008929 0.88204336
-0.0011167553 0.051283985 0.88164967
-0.0027737308 0.05160689 0.88121367
-0.0034830931 0.051761393 0.8810119
-0.023187201 0.065888636 0.86628097
-0.023215031 0.064575627 0.86749703
-0.022897784 0.063287161 0.86871874
-0.022304028 0.062060725 0.86990565
-0.021498458 0.06091119 0.87103862
-0.020531444 0.059840523 0.87211174
-0.01943952 0.058845308 0.87312508
-0.018248808 0.057920534 0.87408119
-0.016978187 0.057061184 0.87498319
-0.015641566 0.056262791 0.87583411
-0.014249432 0.055521622 0.87663645
-0.012809874 0.054834638 0.87739241
-0.011329295 0.054199457 0.87810367
-0.0098128859 0.0536143 0.87877148
-0.0082650147 0.053077951 0.87939656
-0.0066896109 0.052589763 0.87997925
-0.0050911345 0.052149884 0.88051903
-0.0043922565 0.05197442 0.88073939
-0.021205742 0.068218969 0.86451769
-0.020091072 0.069232851 0.86366868
-0.018734148 0.070088118 0.86298674
-0.017219741 0.070783943 0.86246574
-0.015610125 0.071335196 0.86208671
-0.013945464 0.071760789 0.86182886
-0.012250699 0.072078131 0.86167389
-0.010541442 0.072301641 0.86160719
-0.0088277636 0.072442815 0.86161727
-0.0071164276 0.072510682 0.86169517
-0.0054122037 0.072512358 0.86183393
-0.0037186455 0.072453439 0.862028
-0.0020385815 0.072338328 0.8622731
-0.00037443516 0.072170496 0.86256582
0.0012715129 0.071952648 0.86290348
0.0028968158 0.071686864 0.86328387
0.0044979467 0.071374841 0.86370522
0.005183402 0.071225546 0.86390018
0.024223428 0.057574429 0.87813467
0.024250319 0.058843188 0.87695956
0.023943765 0.060088228 0.87577903
0.02337002 0.061273329 0.87463212
0.022591598 0.062384121 0.8735373
0.021657176 0.063418709 0.87250042
0.020602051 0.064380378 0.87152117
0.019451471 0.065273985 0.8705973
0.018223675 0.066104375 0.8697257
0.016932102 0.066875853 0.86890352
0.015586886 0.067592047 0.86812818
0.014195845 0.068255879 0.86739773
0.012765166 0.06886965 0.86671036
0.011299863 0.06943509 0.86606508
0.0098041585 0.06995336 0.86546105
0.0082818512 0.070425093 0.86489803
0.0067372476 0.070850149 0.86437643
0.0060619242 0.071019702 0.86416352
0.023044374 0.055216808 0.88022524
0.021929704 0.054202925 0.88107431
0.02057278 0.053347658 0.88175619
0.019058373 0.052651834 0.88227719
0.017448757 0.05210058 0.88265622
0.015784096 0.051674992 0.88291407
0.014089332 0.051357649 0.88306904
0.012380075 0.051134132 0.88313574
0.010666396 0.050992962 0.88312566
0.0089550596 0.050925095 0.88304776
0.0072508361 0.050923418 0.88290906
0.0055572782 0.050982341 0.88271493
0.0038772139 0.051097449 0.88246983
0.0022130676 0.051265277 0.88217711
0.00056711957 0.051483128 0.88183945
-0.0010581834 0.051748913 0.88145906
-0.0026593143 0.052060936 0.88103771
-0.0033447694 0.05221023 0.88084275
-0.022384796 0.065861352 0.86660832
-0.022411687 0.064592585 0.86778343
-0.022105133 0.063347548 0.8689639
-0.021531386 0.062162448 0.87011081
-0.020752966 0.061051656 0.87120563
-0.019818543 0.060017072 0.87224257
-0.018763419 0.059055399 0.87322176
-0.017612839 0.058161795 0.87414569
-0.016385043 0.057331406 0.87501729
-0.015093469 0.056559924 0.87583947
-0.013748254 0.05584373 0.87661475
-0.012357213 0.055179898 0.87734526
-0.010926533 0.054566126 0.87803257
-0.0094612306 0.054000691 0.87867785
-0.0079655265 0.053482417 0.87928188
-0.0064432188 0.053010684 0.87984496
-0.0048986152 0.052585628 0.8803665
-0.0042232918 0.052416079 0.88057941
-0.020442799 0.068095624 0.86490333
-0.01936703 0.069074124 0.86408395
-0.018057458 0.069899544 0.86342585
-0.016595902 0.070571087 0.86292303
-0.01504246 0.071103096 0.86255723
-0.013435894 0.071513832 0.86230832
-0.011800272 0.071820103 0.86215878
-0.010150664 0.072035819 0.86209446
-0.0084967911 0.072172061 0.86210418
-0.0068451785 0.072237566 0.86217934
-0.005200428 0.072239183 0.86231321
-0.0035659729 0.072182313 0.86250055
-0.0019445398 0.072071224 0.86273712
-0.0003384703 0.071909249 0.86301959
0.0012500372 0.071699001 0.86334544
0.0028186196 0.071442492 0.86371261
0.004363874 0.071141362 0.86411923
0.0050254073 0.070997275 0.8643074
0.023400968 0.057822555 0.87804508
0.023426922 0.05904704 0.87691098
0.023131067 0.060248628 0.8757717
0.022577342 0.061392374 0.87466478
0.021826088 0.062464401 0.87360823
0.020924274 0.063462876 0.87260747
0.019905973 0.064390995 0.87166244
0.018795544 0.065253414 0.87077075
0.017610596 0.066054821 0.86992961
0.016364098 0.06679938 0.8691361
0.015065826 0.067490578 0.86838782
0.013723332 0.068131246 0.86768287
0.012342581 0.068723597 0.86701953
0.010928415 0.0692693 0.86639673
0.0094849076 0.069769487 0.86581379
0.0080157258 0.070224755 0.86527038
0.0065250266 0.070634976 0.86476701
0.0058732708 0.070798613 0.86456156
0.022263061 0.055547215 0.88006276
0.021187292 0.054568715 0.88088214
0.019877722 0.053743295 0.88154024
0.018416164 0.053071752 0.88204306
0.016862722 0.05253974 0.88240886
0.015256156 0.052129004 0.88265777
0.013620536 0.051822733 0.88280731
0.011970928 0.05160702 0.88287169
0.010317055 0.051470775 0.88286191
0.0086654415 0.051405273 0.88278675
0.0070206914 0.051403657 0.88265288
0.0053862361 0.051460523 0.88246554
0.0037648031 0.051571615 0.88222897
0.0021587336 0.051733587 0.8819465
0.000570226 0.051943835 0.88162065
-0.00099835638 0.052200343 0.88125348
-0.0025436105 0.052501477 0.88084686
-0.0032051443 0.05264556 0.88065869
-0.021580705 0.065820284 0.86692101
-0.02160666 0.064595796 0.86805511
-0.021310803 0.063394211 0.86919439
-0.020757079 0.062250465 0.87030131
-0.020005824 0.061178435 0.87135786
-0.019104011 0.06017996 0.87235862
-0.018085709 0.059251845 0.87330365
-0.016975282 0.058389425 0.87419534
-0.015790334 0.057588015 0.87503654
-0.014543834 0.056843456 0.87582999
-0.013245563 0.056152258 0.87657827
-0.011903069 0.055511594 0.87728328
-0.010522317 0.054919239 0.87794656
-0.0091081522 0.05437354 0.87856936
-0.0076646446 0.053873353 0.8791523
-0.0061954628 0.053418081 0.87969571
-0.0047047632 0.05300786 0.88019907
-0.0040530073 0.052844226 0.88040453
-0.019678248 0.067959659 0.86527574
-0.018641403 0.068902761 0.86448598
-0.017379217 0.069698311 0.86385173
-0.015970547 0.070345551 0.86336708
-0.014473313 0.070858315 0.86301452
-0.012924878 0.071254194 0.86277467
-0.011348441 0.071549378 0.86263049
-0.0097585218 0.071757287 0.8625685
-0.0081644915 0.071888603 0.86257786
-0.006572641 0.071951732 0.86265033
-0.0049874047 0.071953289 0.86277938
-0.0034120891 0.071898483 0.86295992
-0.0018493261 0.07179141 0.86318791
-0.00030136976 0.071635298 0.86346018
0.0012296592 0.071432665 0.86377424
0.0027414844 0.071185432 0.86412811
0.0042308257 0.070895195 0.86452001
0.0048684226 0.070756324 0.86470139
0.022579087 0.058058318 0.87794197
0.022604099 0.059238493 0.87684894
0.022318948 0.060396604 0.87575084
0.021785261 0.061498962 0.87468398
0.021061189 0.062532201 0.87366563
0.020192007 0.063494548 0.87270111
0.019210553 0.06438908 0.87179029
0.018140303 0.065220296 0.87093085
0.016998231 0.065992706 0.87012011
0.015796835 0.066710323 0.86935532
0.014545541 0.067376509 0.86863416
0.013251622 0.067993999 0.86795467
0.011920832 0.068564914 0.86731535
0.010557837 0.069090873 0.86671513
0.009166562 0.069572963 0.86615324
0.00775054 0.070011757 0.86562949
0.0063137794 0.070407137 0.86514437
0.005685607 0.070564851 0.86494631
0.021482354 0.055865306 0.87988663
0.020445509 0.054922212 0.88067639
0.019183323 0.054126658 0.8813107
0.017774653 0.053479414 0.88179529
0.016277419 0.052966651 0.88214785
0.014728983 0.052570775 0.8823877
0.013152547 0.052275591 0.88253188
0.011562628 0.052067682 0.88259393
0.0099685974 0.051936366 0.88258451
0.0083767464 0.051873237 0.88251209
0.0067915102 0.051871676 0.88238299
0.0052161948 0.051926486 0.88220251
0.0036534318 0.052033558 0.88197446
0.0021054754 0.052189667 0.88170218
0.00057444634 0.052392308 0.88138813
-0.00093737891 0.052639537 0.88103426
-0.00242672 0.052929774 0.88064235
-0.0030643169 0.053068645 0.88046098
-0.020774981 0.065766655 0.8672204
-0.020799993 0.064586475 0.86831343
-0.020514844 0.063428365 0.86941153
-0.019981155 0.062326007 0.87047839
-0.019257085 0.061292768 0.87149674
-0.018387903 0.060330417 0.87246126
-0.017406447 0.059435889 0.87337208
-0.016336199 0.058604673 0.87423152
-0.015194126 0.05783226 0.87504226
-0.01399273 0.057114646 0.87580705
-0.012741436 0.056448456 0.8765282
-0.011447517 0.055830974 0.8772077
-0.010116727 0.055260051 0.87784702
-0.0087537309 0.054734096 0.87844723
-0.0073624561 0.05425201 0.87900913
-0.0059464341 0.053813212 0.87953287
-0.0045096739 0.053417832 0.880018
-0.0038815013 0.053260121 0.88021606
-0.018912133 0.067812249 0.86563617
-0.017914243 0.068719909 0.86487609
-0.016699476 0.069485575 0.86426562
-0.015343728 0.070108503 0.86379921
-0.013902747 0.070602 0.86345989
-0.012412484 0.070983 0.86322904
-0.010895274 0.071267098 0.86309034
-0.0093650864 0.071467198 0.86303061
-0.0078309439 0.071593583 0.86303961
-0.0062988978 0.071654335 0.86310935
-0.0047732177 0.07165584 0.86323357
-0.0032570858 0.07160309 0.86340731
-0.0017530354 0.071500041 0.86362678
-0.00026323512 0.071349792 0.8638888
0.0012102741 0.071154766 0.86419111
0.0026653009 0.070916824 0.86453164
0.0040986883 0.070637494 0.86490887
0.0047123306 0.070503838 0.8650834
0.021757614 0.058282889 0.87782657
0.021781689 0.05941873 0.87677455
0.02150725 0.06053333 0.8757177
0.020993613 0.061594274 0.87469095
0.020296745 0.062588692 0.87371087
0.019460216 0.063514888 0.87278259
0.018515635 0.06437581 0.87190598
0.017485594 0.065175794 0.87107885
0.016386431 0.065919191 0.87029856
0.01523017 0.066609845 0.86956251
0.014025886 0.067251004 0.86886841
0.012780578 0.067845292 0.86821449
0.011499786 0.068394765 0.86759919
0.010187997 0.068900958 0.8670215
0.0088489912 0.069364935 0.86648071
