# .PCD v0.7 - Point Cloud Data file format
VERSION 0.7
FIELDS x y z rgba
SIZE 4 4 4 4
TYPE F F F U
COUNT 1 1 1 1
WIDTH 1004
HEIGHT 1
VIEWPOINT 0 0 0 1 0 0 0
POINTS 1004
DATA ascii
-0.034731127 -0.056201279 0.72500002 4291866536
-0.033422016 -0.056123763 0.72400004 4291800743
-0.030558165 -0.055503611 0.71600002 4291537573
-0.02926996 -0.055426091 0.71500003 4291209635
-0.028024429 -0.055426091 0.71500003 4291143842
-0.026703993 -0.055271056 0.71300006 4290814879
-0.025461946 -0.055271056 0.71300006 4290222742
-0.024185929 -0.055193532 0.71200001 4290090909
-0.022881173 -0.055038497 0.71000004 4290025115
-0.021613868 -0.054960981 0.70900005 4289498779
-0.020321304 -0.054805938 0.70700002 4289498779
-0.019062709 -0.054728419 0.70600003 4289499280
-0.017757079 -0.05449586 0.70300001 4289499280
-0.016532453 -0.05449586 0.70300001 4289039500
-0.015286052 -0.05441834 0.70200002 4288776327
-0.014063166 -0.05441834 0.70200002 4288841087
-0.012840283 -0.05441834 0.70200002 4288512122
-0.011584301 -0.054263305 0.70000005 4288512376
-0.010364901 -0.054263305 0.70000005 4288512376
-0.0091455011 -0.054263305 0.70000005 4288381306
-0.0079261009 -0.054263305 0.70000005 4288381306
-0.0066971201 -0.054185789 0.69900006 4288316024
-0.0054794615 -0.054185789 0.69900006 4288316024
-0.0042618038 -0.054185789 0.69900006 4288316278
-0.0030441454 -0.054185789 0.69900006 4288382071
-0.0018291002 -0.054263305 0.70000005 4288381560
-0.00060882908 -0.054185789 0.69900006 4288381560
0.00060882908 -0.054185789 0.69900006 4288381308
0.0018264872 -0.054185789 0.69900006 4288315515
0.0030485005 -0.054263305 0.70000005 4288512376
0.0042618038 -0.054185789 0.69900006 4288512376
0.0054794615 -0.054185789 0.69900006 4288249972
0.0066971201 -0.054185789 0.69900006 4288381558
0.0079261009 -0.054263305 0.70000005 4288513141
0.0091716312 -0.05441834 0.70200002 4288644728
0.010394515 -0.05441834 0.70200002 4288710010
0.011617399 -0.05441834 0.70200002 4288841339
0.012840283 -0.05441834 0.70200002 4288971380
0.014063166 -0.05441834 0.70200002 4289037174
0.015286052 -0.05441834 0.70200002 4289365384
0.016532453 -0.05449586 0.70300001 4290023315
0.017757079 -0.05449586 0.70300001 4290353787
0.018981704 -0.05449586 0.70300001 4290814082
0.02020633 -0.05449586 0.70300001 4290617473
0.021430956 -0.05449586 0.70300001 4291012231
0.022720037 -0.054650899 0.70500004 4290552213
0.026666539 -0.055193532 0.71200001 4290288524
0.02794604 -0.055271056 0.71300006 4290222730
0.029188083 -0.055271056 0.71300006 4291209626
0.030430133 -0.055271056 0.71300006 4291604645
-0.038785636 -0.055317216 0.73000002 4291743117
-0.037411198 -0.055165663 0.72800004 4292658114
-0.036093373 -0.055089887 0.72700006 4291605426
-0.034731127 -0.054938328 0.72500002 4291800743
-0.033422016 -0.054862555 0.72400004 4291800743
-0.030686205 -0.054483671 0.71900004 4291734949
-0.02926996 -0.054180559 0.71500003 4291143844
-0.028024429 -0.054180559 0.71500003 4291143844
-0.026778897 -0.054180559 0.71500003 4290749856
-0.025461946 -0.05402901 0.71300006 4290289305
-0.024185929 -0.053953227 0.71200001 4290090907
-0.022945626 -0.053953227 0.71200001 4290090907
-0.021644354 -0.053801678 0.71000004 4289697177
-0.020378789 -0.053725902 0.70900005 4289500055
-0.019089708 -0.053574346 0.70700002 4289302671
-0.017807597 -0.05342279 0.70500004 4289236878
-0.016579488 -0.05342279 0.70500004 4289039500
-0.015307827 -0.053271234 0.70300001 4288578949
-0.0140832 -0.053271234 0.70300001 4288643964
-0.012858574 -0.053271234 0.70300001 4288512122
-0.011617399 -0.053195458 0.70200002 4288446581
-0.010394515 -0.053195458 0.70200002 4288512374
-0.0091716312 -0.053195458 0.70200002 4288512887
-0.0079487469 -0.053195458 0.70200002 4288512887
-0.0067258626 -0.053195458 0.70200002 4288251001
-0.0055029788 -0.053195458 0.70200002 4288382586
-0.0042800945 -0.053195458 0.70200002 4288644478
-0.0030572105 -0.053195458 0.70200002 4288710271
-0.0018343261 -0.053195458 0.70200002 4288841087
-0.0006097001 -0.053043909 0.70000005 4288906880
0.0006097001 -0.053043909 0.70000005 4289103232
0.0018291002 -0.053043909 0.70000005 4289037183
0.0030485005 -0.053043909 0.70000005 4288774267
0.0042679007 -0.053043909 0.70000005 4288708474
0.0054873005 -0.053043909 0.70000005 4288380534
0.0067067011 -0.053043909 0.70000005 4288643962
0.0079261009 -0.053043909 0.70000005 4288513658
0.0091716312 -0.053195458 0.70200002 4288447864
0.010394515 -0.053195458 0.70200002 4288578932
0.011617399 -0.053195458 0.70200002 4288644726
0.012840283 -0.053195458 0.70200002 4288971380
0.0140832 -0.053271234 0.70300001 4289234296
0.015307827 -0.053271234 0.70300001 4289825672
0.016532453 -0.053271234 0.70300001 4290352016
0.017757079 -0.053271234 0.70300001 4290812299
0.018981704 -0.053271234 0.70300001 4291075727
0.02020633 -0.053271234 0.70300001 4290747789
0.021522412 -0.053498566 0.70600003 4290616203
0.024185929 -0.053953227 0.71200001 4290025097
0.025426235 -0.053953227 0.71200001 4289827723
0.026703993 -0.05402901 0.71300006 4290090638
0.02794604 -0.05402901 0.71300006 4290157183
0.02926996 -0.054180559 0.71500003 4291341714
0.030515486 -0.054180559 0.71500003 4291472289
0.031805441 -0.054256339 0.71600002 4292722613
-0.038785636 -0.054045554 0.73000002 4292137903
-0.037411198 -0.053897489 0.72800004 4292722613
-0.036093373 -0.053823452 0.72700006 4291604131
-0.034731127 -0.053675383 0.72500002 4291734695
-0.033422016 -0.053601347 0.72400004 4291734695
-0.030686205 -0.053231169 0.71900004 4291800741
-0.02926996 -0.05293503 0.71500003 4291143844
-0.028024429 -0.05293503 0.71500003 4290946465
-0.026778897 -0.05293503 0.71500003 4290684061
-0.025461946 -0.052786961 0.71300006 4290618268
-0.024185929 -0.052712925 0.71200001 4289960604
-0.022945626 -0.052712925 0.71200001 4289829017
-0.021644354 -0.052564856 0.71000004 4289631632
-0.020378789 -0.052490819 0.70900005 4289500303
-0.019089708 -0.05234275 0.70700002 4289499530
-0.017832857 -0.052268714 0.70600003 4289302408
-0.016603004 -0.052268714 0.70600003 4288908163
-0.015351377 -0.052194681 0.70500004 4288447612
-0.0140832 -0.052046608 0.70300001 4288578684
-0.012858574 -0.052046608 0.70300001 4288578684
-0.011633948 -0.052046608 0.70300001 4288512374
-0.010409322 -0.052046608 0.70300001 4288512374
-0.0091846958 -0.052046608 0.70300001 4288315763
-0.007960069 -0.052046608 0.70300001 4288381556
-0.0067354436 -0.052046608 0.70300001 4288381819
-0.0055108173 -0.052046608 0.70300001 4288513406
-0.0042861914 -0.052046608 0.70300001 4288512637
-0.0030572105 -0.051972575 0.70200002 4288512637
-0.0018343261 -0.051972575 0.70200002 4288774267
-0.00061144208 -0.051972575 0.70200002 4288774267
0.00061144208 -0.051972575 0.70200002 4288774267
0.0018343261 -0.051972575 0.70200002 4289103232
0.0030572105 -0.051972575 0.70200002 4288642177
0.0042800945 -0.051972575 0.70200002 4288773763
0.0055029788 -0.051972575 0.70200002 4288774269
0.0067258626 -0.051972575 0.70200002 4288971392
0.0079487469 -0.051972575 0.70200002 4289102978
0.0091716312 -0.051972575 0.70200002 4289497736
0.010409322 -0.052046608 0.70300001 4289959289
0.011633948 -0.052046608 0.70300001 4290354046
0.012858574 -0.052046608 0.70300001 4290353546
0.0140832 -0.052046608 0.70300001 4290682768
0.015307827 -0.052046608 0.70300001 4290550939
0.016532453 -0.052046608 0.70300001 4290485146
0.017807597 -0.052194681 0.70500004 4290419338
0.019035708 -0.052194681 0.70500004 4289892993
0.020321304 -0.05234275 0.70700002 4289892746
0.022945626 -0.052712925 0.71200001 4289432696
0.0242199 -0.052786961 0.71300006 4289432696
0.025461946 -0.052786961 0.71300006 4289499030
0.026778897 -0.05293503 0.71500003 4290157217
0.028024429 -0.05293503 0.71500003 4290289037
0.02926996 -0.05293503 0.71500003 4291407518
0.030558165 -0.053009063 0.71600002 4291407268
0.031894282 -0.05315714 0.71800005 4292591286
-0.038785636 -0.052773893 0.73000002 4292005815
-0.037411198 -0.052629311 0.72800004 4292590773
-0.036093373 -0.052557018 0.72700006 4291669927
-0.034731127 -0.052412432 0.72500002 4291866023
-0.033422016 -0.052340139 0.72400004 4291866023
-0.032027543 -0.05212326 0.72100002 4291734949
-0.030686205 -0.051978674 0.71900004 4291734949
-0.02926996 -0.051689498 0.71500003 4291143590
-0.028024429 -0.051689498 0.71500003 4290946467
-0.026778897 -0.051689498 0.71500003 4290421407
-0.025461946 -0.051544916 0.71300006 4290355614
-0.024185929 -0.051472619 0.71200001 4289960854
-0.022945626 -0.051472619 0.71200001 4289829267
-0.021644354 -0.051328037 0.71000004 4289697166
-0.020378789 -0.051255744 0.70900005 4289433737
-0.019089708 -0.051111154 0.70700002 4289499532
-0.017858114 -0.051111154 0.70700002 4288973188
-0.016603004 -0.051038865 0.70600003 4288643974
-0.015351377 -0.050966572 0.70500004 4288578180
-0.0140832 -0.050821982 0.70300001 4288381819
-0.012858574 -0.050821982 0.70300001 4288447612
-0.011633948 -0.050821982 0.70300001 4288578680
-0.010409322 -0.050821982 0.70300001 4288512887
-0.0091846958 -0.050821982 0.70300001 4288381556
-0.007960069 -0.050821982 0.70300001 4288513141
-0.0067354436 -0.050821982 0.70300001 4288578680
-0.0055108173 -0.050821982 0.70300001 4288578680
-0.0042861914 -0.050821982 0.70300001 4288578934
-0.0030615653 -0.050821982 0.70300001 4288513141
-0.0018369391 -0.050821982 0.70300001 4288774269
-0.00061231304 -0.050821982 0.70300001 4288774269
0.00061231304 -0.050821982 0.70300001 4288774267
0.0018369391 -0.050821982 0.70300001 4288774267
0.0030615653 -0.050821982 0.70300001 4288183409
0.0042800945 -0.050749693 0.70200002 4288512374
0.0055029788 -0.050749693 0.70200002 4288970876
0.0067354436 -0.050821982 0.70300001 4289299841
0.007960069 -0.050821982 0.70300001 4289234816
0.0091846958 -0.050821982 0.70300001 4289629574
0.010409322 -0.050821982 0.70300001 4290549131
0.011633948 -0.050821982 0.70300001 4290877840
0.012895157 -0.050966572 0.70500004 4290615697
0.014123266 -0.050966572 0.70500004 4290615697
0.015351377 -0.050966572 0.70500004 4290223775
0.016579488 -0.050966572 0.70500004 4289829017
0.017832857 -0.051038865 0.70600003 4289761928
0.019089708 -0.051111154 0.70700002 4289367170
0.021705322 -0.051472619 0.71200001 4289301375
0.022977855 -0.051544916 0.71300006 4289367422
0.0242199 -0.051544916 0.71300006 4289564544
0.025461946 -0.051544916 0.71300006 4289433487
0.026778897 -0.051689498 0.71500003 4290157467
0.028063623 -0.051761791 0.71600002 4290420621
0.029310895 -0.051761791 0.71600002 4291341723
0.030643526 -0.051906381 0.71800005 4291473061
0.031938702 -0.051978674 0.71900004 4292657335
-0.038838763 -0.051572785 0.73100001 4291873502
-0.037513971 -0.051502235 0.73000002 4292524718
-0.03614302 -0.051361132 0.72800004 4291932581
-0.034731127 -0.05114948 0.72500002 4291866023
-0.033422016 -0.05107893 0.72400004 4291866023
-0.032071967 -0.050937831 0.72200006 4291734947
-0.030686205 -0.050726175 0.71900004 4291603618
-0.02926996 -0.05044397 0.71500003 4291012009
-0.028024429 -0.05044397 0.71500003 4290946215
-0.026778897 -0.05044397 0.71500003 4290551458
-0.025461946 -0.050302871 0.71300006 4290288285
-0.024185929 -0.050232317 0.71200001 4290222738
-0.022945626 -0.050232317 0.71200001 4290288787
-0.021644354 -0.050091214 0.71000004 4289631371
-0.020378789 -0.050020665 0.70900005 4289433991
-0.019143712 -0.050020665 0.70900005 4289432963
-0.017858114 -0.049879562 0.70700002 4288840826
-0.01662652 -0.049879562 0.70700002 4288512133
-0.015373153 -0.049809009 0.70600003 4288512133
-0.014123266 -0.049738459 0.70500004 4288578430
-0.012895157 -0.049738459 0.70500004 4288512637
-0.011633948 -0.049597356 0.70300001 4288578167
-0.010409322 -0.049597356 0.70300001 4288643960
-0.0092108259 -0.049738459 0.70500004 4288710008
-0.007982716 -0.049738459 0.70500004 4288710008
-0.006754606 -0.049738459 0.70500004 4288644474
-0.0055264956 -0.049738459 0.70500004 4288512887
-0.0042983857 -0.049738459 0.70500004 4288512626
-0.0030615653 -0.049597356 0.70300001 4288578419
-0.0018369391 -0.049597356 0.70300001 4288840062
-0.00061231304 -0.049597356 0.70300001 4288840062
0.00061231304 -0.049597356 0.70300001 4289300863
0.0018421654 -0.049738459 0.70500004 4289563779
0.0030702753 -0.049738459 0.70500004 4290221682
0.0042983857 -0.049738459 0.70500004 4290550646
0.0055108173 -0.049597356 0.70300001 4290222225
0.0067354436 -0.049597356 0.70300001 4290551189
0.007982716 -0.049738459 0.70500004 4290090636
0.0092108259 -0.049738459 0.70500004 4290090636
0.010453743 -0.049809009 0.70600003 4290222217
0.011683595 -0.049809009 0.70600003 4290024582
0.012913447 -0.049809009 0.70600003 4290024584
0.014143299 -0.049809009 0.70600003 4289498240
0.015373153 -0.049809009 0.70600003 4288773763
0.01662652 -0.049879562 0.70700002 4287786868
0.020551248 -0.05044397 0.71500003 4287454546
0.021796778 -0.05044397 0.71500003 4288441441
0.023042308 -0.05044397 0.71500003 4288443278
0.024287838 -0.05044397 0.71500003 4290219689
0.025533367 -0.05044397 0.71500003 4289827221
0.026816349 -0.050514523 0.71600002 4290353565
0.028142013 -0.050655626 0.71800005 4290223242
0.02939277 -0.050655626 0.71800005 4291144344
0.030686205 -0.050726175 0.71900004 4291341475
0.031938702 -0.050726175 0.71900004 4292591286
0.033283528 -0.050867274 0.72100002 4292526015
-0.038838763 -0.050299384 0.73100001 4292070074
-0.037565362 -0.050299384 0.73100001 4292458925
-0.03614302 -0.050092958 0.72800004 4291998374
-0.034826942 -0.050024152 0.72700006 4291668387
-0.033468179 -0.049886528 0.72500002 4291800229
-0.032071967 -0.049680106 0.72200006 4291734947
-0.030686205 -0.049473677 0.71900004 4291603618
-0.029310895 -0.049267251 0.71600002 4291077283
-0.028063623 -0.049267251 0.71600002 4290880161
-0.026778897 -0.049198441 0.71500003 4290551710
-0.025461946 -0.049060822 0.71300006 4290288281
-0.0242199 -0.049060822 0.71300006 4290354328
-0.022945626 -0.048992012 0.71200001 4289959570
-0.021644354 -0.048854396 0.71000004 4289499782
-0.020407531 -0.048854396 0.71000004 4289105025
-0.019143712 -0.04878559 0.70900005 4289168771
-0.017858114 -0.048647966 0.70700002 4288840062
-0.01662652 -0.048647966 0.70700002 4288511874
-0.015373153 -0.04857916 0.70600003 4288643460
-0.014143299 -0.04857916 0.70600003 4288578430
-0.012895157 -0.04851035 0.70500004 4288578430
-0.011667046 -0.04851035 0.70500004 4288644478
-0.010438936 -0.04851035 0.70500004 4288644478
-0.0092108259 -0.04851035 0.70500004 4288709758
-0.007982716 -0.04851035 0.70500004 4288709758
-0.006754606 -0.04851035 0.70500004 4288710006
-0.0055264956 -0.04851035 0.70500004 4288578419
-0.0042983857 -0.04851035 0.70500004 4288708972
-0.0030702753 -0.04851035 0.70500004 4288840814
-0.0018421654 -0.04851035 0.70500004 4289037185
-0.00061492604 -0.04857916 0.70600003 4289037185
0.00061492604 -0.04857916 0.70600003 4289825672
0.0018447782 -0.04857916 0.70600003 4290154637
0.0030746304 -0.04857916 0.70600003 4290550926
0.0043044826 -0.04857916 0.70600003 4290682768
0.0055343346 -0.04857916 0.70600003 4289895061
0.0067641865 -0.04857916 0.70600003 4289763474
0.0080053611 -0.048647966 0.70700002 4289894029
0.009236956 -0.048647966 0.70700002 4289630858
0.01046855 -0.048647966 0.70700002 4289170066
0.011700144 -0.048647966 0.70700002 4288709515
0.012931738 -0.048647966 0.70700002 4288774267
0.014163332 -0.048647966 0.70700002 4288774267
0.019305717 -0.049198441 0.71500003 4285017891
0.02057999 -0.049267251 0.71600002 4286389506
0.021827262 -0.049267251 0.71600002 4286257920
0.023074534 -0.049267251 0.71600002 4288898878
0.024321808 -0.049267251 0.71600002 4291465062
0.025569078 -0.049267251 0.71600002 4289959568
0.026891258 -0.049404867 0.71800005 4290091411
0.028142013 -0.049404867 0.71800005 4290091663
0.029433707 -0.049473677 0.71900004 4291144094
0.030771563 -0.049611293 0.72100002 4291275680
0.032027543 -0.049611293 0.72100002 4292460211
0.033329692 -0.049680106 0.72200006 4292526015
-0.038838763 -0.049025979 0.73100001 4292265157
-0.037565362 -0.049025979 0.73100001 4292523946
-0.036242314 -0.048958916 0.73000002 4292129444
-0.034826942 -0.048757717 0.72700006 4291866534
-0.033468179 -0.04862358 0.72500002 4291734947
-0.032071967 -0.048422381 0.72200006 4291734947
-0.030686205 -0.048221178 0.71900004 4291734947
-0.029310895 -0.048019975 0.71600002 4291143329
-0.028063623 -0.048019975 0.71600002 4290682778
-0.026778897 -0.047952913 0.71500003 4290551708
-0.025461946 -0.04781878 0.71300006 4290551708
-0.0242199 -0.04781878 0.71300006 4290222740
-0.022945626 -0.04775171 0.71200001 4289433224
-0.021705322 -0.04775171 0.71200001 4289235833
-0.020407531 -0.047617573 0.71000004 4288709489
-0.019143712 -0.047550507 0.70900005 4288643714
-0.017908633 -0.047550507 0.70900005 4288577665
-0.016673556 -0.047550507 0.70900005 4288380804
-0.015394927 -0.047416374 0.70700002 4288512133
-0.014163332 -0.047416374 0.70700002 4288512385
-0.012913447 -0.047349308 0.70600003 4288578178
-0.011683595 -0.047349308 0.70600003 4288643714
-0.010453743 -0.047349308 0.70600003 4288643714
-0.0092238905 -0.047349308 0.70600003 4288709508
-0.007994039 -0.047349308 0.70600003 4289170059
-0.0067641865 -0.047349308 0.70600003 4289433465
-0.0055343346 -0.047349308 0.70600003 4289630587
-0.0043105795 -0.047416374 0.70700002 4289893495
-0.0030789853 -0.047416374 0.70700002 4290419840
-0.0018473911 -0.047416374 0.70700002 4290091159
-0.00061579706 -0.047416374 0.70700002 4290091159
0.00061579706 -0.047416374 0.70700002 4289827984
0.0018473911 -0.047416374 0.70700002 4289827984
0.0030789853 -0.047416374 0.70700002 4290024584
0.0043105795 -0.047416374 0.70700002 4289695619
0.0055421731 -0.047416374 0.70700002 4289431427
0.006773768 -0.047416374 0.70700002 4288510325
0.0093806712 -0.048154112 0.71800005 4287192419
0.010631428 -0.048154112 0.71800005 4285804154
0.015634451 -0.048154112 0.71800005 4285601024
0.016885208 -0.048154112 0.71800005 4284482816
0.018161224 -0.048221178 0.71900004 4286055168
0.019413721 -0.048221178 0.71900004 4286778631
0.020637477 -0.048154112 0.71800005 4286054915
0.021888232 -0.048154112 0.71800005 4284940288
0.023171214 -0.048221178 0.71900004 4284745503
0.024491651 -0.048355311 0.72100002 4292311698
0.025747633 -0.048355311 0.72100002 4290222476
0.027003614 -0.048355311 0.72100002 4290222476
0.028259596 -0.048355311 0.72100002 4290158230
0.029515579 -0.048355311 0.72100002 4291013539
0.030814242 -0.048422381 0.72200006 4291275680
0.032071967 -0.048422381 0.72200006 4292328368
-0.041668646 -0.048079208 0.73600006 4287409738
-0.040331658 -0.048013877 0.73500001 4290750883
-0.038838763 -0.047752578 0.73100001 4292264122
-0.037513971 -0.047687255 0.73000002 4292654251
-0.03614302 -0.047556605 0.72800004 4292391335
-0.034826942 -0.047491282 0.72700006 4291932329
-0.033468179 -0.047360629 0.72500002 4291800743
-0.032071967 -0.047164656 0.72200006 4291604131
-0.030686205 -0.04696868 0.71900004 4291538338
-0.029310895 -0.046772704 0.71600002 4291143331
-0.028063623 -0.046772704 0.71600002 4290682780
-0.026778897 -0.046707381 0.71500003 4290814368
-0.025533367 -0.046707381 0.71500003 4290550939
-0.0242199 -0.046576735 0.71300006 4289827469
-0.022977855 -0.046576735 0.71300006 4289235331
-0.021705322 -0.046511404 0.71200001 4288906880
-0.020465018 -0.046511404 0.71200001 4288643964
-0.019170713 -0.046380755 0.71000004 4288709758
-0.017933892 -0.046380755 0.71000004 4288578171
-0.016697073 -0.046380755 0.71000004 4288315263
-0.015438477 -0.046315432 0.70900005 4288315263
-0.014203398 -0.046315432 0.70900005 4288446581
-0.012931738 -0.046184778 0.70700002 4288578167
-0.011700144 -0.046184778 0.70700002 4288840062
-0.010498164 -0.046315432 0.70900005 4289037185
-0.0092630871 -0.046315432 0.70900005 4289103228
-0.008028008 -0.046315432 0.70900005 4289497986
-0.00679293 -0.046315432 0.70900005 4289761414
-0.0055578519 -0.046315432 0.70900005 4290024330
-0.0043227733 -0.046315432 0.70900005 4290222476
-0.0030876955 -0.046315432 0.70900005 4290222476
-0.0018473911 -0.046184778 0.70700002 4289829277
-0.00061579706 -0.046184778 0.70700002 4289500568
0.00061579706 -0.046184778 0.70700002 4289236878
0.0018473911 -0.046184778 0.70700002 4288907913
0.0030876955 -0.046315432 0.70900005 4288841337
0.0043227733 -0.046315432 0.70900005 4288183663
0.0081299152 -0.046903353 0.71800005 4287059518
0.0093806712 -0.046903353 0.71800005 4286204209
0.010631428 -0.046903353 0.71800005 4285668109
0.011882184 -0.046903353 0.71800005 4284878593
0.01313294 -0.046903353 0.71800005 4285923328
0.014383697 -0.046903353 0.71800005 4287172865
0.015656227 -0.04696868 0.71900004 4287176192
0.016908726 -0.04696868 0.71900004 4285531648
0.018161224 -0.04696868 0.71900004 4286578688
0.019413721 -0.04696868 0.71900004 4287433736
0.020666219 -0.04696868 0.71900004 4287106304
0.021979688 -0.04709933 0.72100002 4285726720
0.023235669 -0.04709933 0.72100002 4285399040
0.024491651 -0.04709933 0.72100002 4292899166
0.025747633 -0.04709933 0.72100002 4290090636
0.02704107 -0.047164656 0.72200006 4290222479
0.028298793 -0.047164656 0.72200006 4290420121
0.029556518 -0.047164656 0.72200006 4291209637
0.030899599 -0.047295306 0.72400004 4291341475
0.032205228 -0.047360629 0.72500002 4292328370
0.033560503 -0.047491282 0.72700006 4292721845
-0.041668646 -0.046797093 0.73600006 4289964628
-0.040331658 -0.04673351 0.73500001 4291012803
-0.038838763 -0.046479177 0.73100001 4292196821
-0.037513971 -0.046415593 0.73000002 4292194987
-0.03614302 -0.046288431 0.72800004 4292128938
-0.034826942 -0.046224847 0.72700006 4291932327
-0.033468179 -0.046097681 0.72500002 4291800741
-0.032071967 -0.045906935 0.72200006 4291603618
-0.030686205 -0.045716181 0.71900004 4291274396
-0.02939277 -0.045652602 0.71800005 4290880411
-0.028063623 -0.045525432 0.71600002 4290354067
-0.026816349 -0.045525432 0.71600002 4290222240
-0.025533367 -0.045461852 0.71500003 4289432724
-0.024287838 -0.045461852 0.71500003 4289104515
-0.022977855 -0.045334686 0.71300006 4288709758
-0.021735808 -0.045334686 0.71300006 4288643974
-0.020465018 -0.045271099 0.71200001 4288578180
-0.019224714 -0.045271099 0.71200001 4288578167
-0.017984409 -0.045271099 0.71200001 4288710010
-0.016744105 -0.045271099 0.71200001 4288842111
-0.015460251 -0.045143936 0.71000004 4289039233
-0.014203398 -0.045080353 0.70900005 4289433467
-0.01296832 -0.045080353 0.70900005 4289762175
-0.011749791 -0.045143936 0.71000004 4289827723
-0.010542585 -0.045271099 0.71200001 4289893516
-0.0093022808 -0.045271099 0.71200001 4289894279
-0.0080619771 -0.045271099 0.71200001 4290091658
-0.0068216724 -0.045271099 0.71200001 4290025093
-0.0055813682 -0.045271099 0.71200001 4289564542
-0.00061841006 -0.045143936 0.71000004 4287259761
0.0056284028 -0.045652602 0.71800005 4284940293
0.0068791592 -0.045652602 0.71800005 4284940293
0.0081412373 -0.045716181 0.71900004 4285669120
0.0093937367 -0.045716181 0.71900004 4286918912
0.010646234 -0.045716181 0.71900004 4286789376
0.011898733 -0.045716181 0.71900004 4287381760
0.01315123 -0.045716181 0.71900004 4287779328
0.014403729 -0.045716181 0.71900004 4288371456
0.015656227 -0.045716181 0.71900004 4287580416
0.016908726 -0.045716181 0.71900004 4284882944
0.018161224 -0.045716181 0.71900004 4286384911
0.019467723 -0.045843344 0.72100002 4286779413
0.020723706 -0.045843344 0.72100002 4286644992
0.021979688 -0.045843344 0.72100002 4285792256
0.023267897 -0.045906935 0.72200006 4285333504
0.024525622 -0.045906935 0.72200006 4292700773
0.025854766 -0.046034098 0.72400004 4290156170
0.027115975 -0.046034098 0.72400004 4290419342
0.028377183 -0.046034098 0.72400004 4290420373
0.029638389 -0.046034098 0.72400004 4291275682
0.030942278 -0.046097681 0.72500002 4291341475
0.032294072 -0.046224847 0.72700006 4292262577
0.033560503 -0.046224847 0.72700006 4292656051
-0.041668646 -0.045514982 0.73600006 4291802817
-0.040331658 -0.045453139 0.73500001 4292131772
-0.038945027 -0.045329459 0.73300004 4291999930
-0.037565362 -0.045205776 0.73100001 4291866536
-0.03614302 -0.045020252 0.72800004 4291800743
-0.034874842 -0.045020252 0.72800004 4291866021
-0.033468179 -0.044834729 0.72500002 4291800227
-0.032071967 -0.04464921 0.72200006 4291538338
-0.030686205 -0.044463687 0.71900004 4291011738
-0.02939277 -0.044401843 0.71800005 4290682776
-0.028063623 -0.04427816 0.71600002 4290090638
-0.026816349 -0.04427816 0.71600002 4289762970
-0.025569078 -0.04427816 0.71600002 4288578953
-0.024287838 -0.04421632 0.71500003 4288710010
-0.023042308 -0.04421632 0.71500003 4288841339
-0.021796778 -0.04421632 0.71500003 4288643710
-0.020493761 -0.04409264 0.71300006 4288577917
-0.019251717 -0.04409264 0.71300006 4288512374
-0.017984409 -0.044030797 0.71200001 4288972925
-0.016744105 -0.044030797 0.71200001 4289170568
-0.015503802 -0.044030797 0.71200001 4289433739
-0.014223432 -0.043907117 0.71000004 4289696134
-0.012986612 -0.043907117 0.71000004 4289893514
-0.011782888 -0.044030797 0.71200001 4289827982
-0.010557393 -0.04409264 0.71300006 4289893775
-0.0093153464 -0.04409264 0.71300006 4289894811
-0.0080959452 -0.04421632 0.71500003 4289500053
-0.0068504158 -0.04421632 0.71500003 4289170320
-0.0056048855 -0.04421632 0.71500003 4288643976
-0.0043593552 -0.04421632 0.71500003 4288576373
-0.0031138253 -0.04421632 0.71500003 4288510579
-0.0018682951 -0.04421632 0.71500003 4286930789
0.0018761343 -0.044401843 0.71800005 4283238402
0.0031268904 -0.044401843 0.71800005 4285988864
0.0043776468 -0.044401843 0.71800005 4286447616
0.0056362418 -0.044463687 0.71900004 4286119936
0.0068887398 -0.044463687 0.71900004 4286316544
0.0081412373 -0.044463687 0.71900004 4286323968
0.0093937367 -0.044463687 0.71900004 4287902981
0.010646234 -0.044463687 0.71900004 4286988288
0.01193183 -0.044587366 0.72100002 4287514626
0.013187813 -0.044587366 0.72100002 4287387674
0.014443794 -0.044587366 0.72100002 4287453723
0.015699776 -0.044587366 0.72100002 4286926112
0.016955759 -0.044587366 0.72100002 4284623360
0.018211741 -0.044587366 0.72100002 4286518546
0.019467723 -0.044587366 0.72100002 4286518546
0.020723706 -0.044587366 0.72100002 4286776832
0.022010174 -0.04464921 0.72200006 4286251008
0.023267897 -0.04464921 0.72200006 4285662208
0.024525622 -0.04464921 0.72200006 4292504673
0.025854766 -0.044772889 0.72400004 4290090377
0.027153427 -0.044834729 0.72500002 4290353292
0.028416377 -0.044834729 0.72500002 4290354067
0.029761203 -0.044958413 0.72700006 4291275169
0.031027636 -0.044958413 0.72700006 4291209889
0.032338493 -0.045020252 0.72800004 4292064942
0.033698995 -0.045143936 0.73000002 4292590777
0.03501856 -0.045205776 0.73100001 4294961895
-0.041668646 -0.044232871 0.73600006 4292861403
-0.040221911 -0.044052571 0.73300004 4292064692
-0.038838763 -0.043932371 0.73100001 4291933363
-0.037513971 -0.043872274 0.73000002 4292063919
-0.03614302 -0.043752078 0.72800004 4291800491
-0.034826942 -0.043691982 0.72700006 4291866275
-0.033468179 -0.043571778 0.72500002 4291668639
-0.032071967 -0.043391485 0.72200006 4291274648
-0.030771563 -0.043331381 0.72100002 4290879891
-0.029433707 -0.043211188 0.71900004 4290617486
-0.028142013 -0.043151088 0.71800005 4289696384
-0.026891258 -0.043151088 0.71800005 4289302410
-0.025569078 -0.043030888 0.71600002 4288644224
-0.024321808 -0.043030888 0.71600002 4288710008
-0.023074534 -0.043030888 0.71600002 4288973179
-0.021796778 -0.042970791 0.71500003 4289234818
-0.020551248 -0.042970791 0.71500003 4289431941
-0.019305717 -0.042970791 0.71500003 4289433217
-0.01800967 -0.042850591 0.71300006 4289893768
-0.016767623 -0.042850591 0.71300006 4289697175
-0.015525577 -0.042850591 0.71300006 4289631382
-0.014283531 -0.042850591 0.71300006 4289828486
-0.013041485 -0.042850591 0.71300006 4289499521
-0.011799439 -0.042850591 0.71300006 4289301113
-0.010587006 -0.042970791 0.71500003 4288511341
-0.0093414756 -0.042970791 0.71500003 4287391111
-0.0080959452 -0.042970791 0.71500003 4286470009
-0.0068599968 -0.043030888 0.71600002 4285145195
-0.0056284028 -0.043151088 0.71800005 4284092507
-0.0043776468 -0.043151088 0.71800005 4284284928
-0.0031268904 -0.043151088 0.71800005 4283891712
-0.0018761343 -0.043151088 0.71800005 4284284928
-0.0006253781 -0.043151088 0.71800005 4284350464
0.00062624906 -0.043211188 0.71900004 4285333504
0.0018787471 -0.043211188 0.71900004 4285595648
0.0031312455 -0.043211188 0.71900004 4286915072
0.0043837437 -0.043211188 0.71900004 4288954384
0.0056362418 -0.043211188 0.71900004 4287513856
0.0069079017 -0.043331381 0.72100002 4286461184
0.0081638834 -0.043331381 0.72100002 4286662656
0.0093937367 -0.043211188 0.71900004 4287649538
0.010646234 -0.043211188 0.71900004 4287188480
0.01193183 -0.043331381 0.72100002 4285806848
0.013187813 -0.043331381 0.72100002 4286263552
0.014463828 -0.043391485 0.72200006 4286592256
0.015699776 -0.043331381 0.72100002 4286264332
0.016955759 -0.043331381 0.72100002 4286395919
0.018237 -0.043391485 0.72200006 4287122482
0.019494725 -0.043391485 0.72200006 4287451704
0.020752449 -0.043391485 0.72200006 4288176204
0.022010174 -0.043391485 0.72200006 4287978825
0.023332352 -0.043511681 0.72400004 4287650392
0.02459356 -0.043511681 0.72400004 4290018940
0.025890477 -0.043571778 0.72500002 4290089091
0.027153427 -0.043571778 0.72500002 4290483849
0.02849477 -0.043691982 0.72700006 4290288274
0.029761203 -0.043691982 0.72700006 4291209376
0.031070314 -0.043752078 0.72800004 4291340190
0.032427333 -0.043872274 0.73000002 4292195498
0.033745155 -0.043932371 0.73100001 4292459709
0.03501856 -0.043932371 0.73100001 4294962927
0.036291961 -0.043932371 0.73100001 4294966010
-0.041668646 -0.042950757 0.73600006 4292268501
-0.040221911 -0.042775687 0.73300004 4292194220
-0.038838763 -0.04265897 0.73100001 4292194220
-0.037513971 -0.042600613 0.73000002 4292130487
-0.03614302 -0.042483903 0.72800004 4291604143
-0.034826942 -0.042425543 0.72700006 4291997091
-0.033468179 -0.04230883 0.72500002 4291470746
-0.032160807 -0.042250473 0.72400004 4290944923
-0.030771563 -0.042075399 0.72100002 4290878874
-0.029433707 -0.04195869 0.71900004 4289829779
-0.028142013 -0.041900329 0.71800005 4288974470
-0.026891258 -0.041900329 0.71800005 4289104775
-0.025569078 -0.041783616 0.71600002 4288776066
-0.024321808 -0.041783616 0.71600002 4288840058
-0.023074534 -0.041783616 0.71600002 4289169023
-0.021796778 -0.041725259 0.71500003 4289300609
-0.020551248 -0.041725259 0.71500003 4289761160
-0.019305717 -0.041725259 0.71500003 4289893262
-0.018060187 -0.041725259 0.71500003 4289695882
-0.016814657 -0.041725259 0.71500003 4289301906
-0.015590901 -0.041783616 0.71600002 4289170320
-0.014383697 -0.041900329 0.71800005 4288972938
-0.01313294 -0.041900329 0.71800005 4288249216
-0.011882184 -0.041900329 0.71800005 4288180844
-0.010631428 -0.041900329 0.71800005 4287457122
-0.0093806712 -0.041900329 0.71800005 4286928227
-0.0081299152 -0.041900329 0.71800005 4285612623
-0.0068887398 -0.04195869 0.71900004 4284746773
-0.0056362418 -0.04195869 0.71900004 4283498498
-0.0043837437 -0.04195869 0.71900004 4285267968
-0.0031312455 -0.04195869 0.71900004 4285399040
-0.0018787471 -0.04195869 0.71900004 4285661184
-0.00062624906 -0.04195869 0.71900004 4286119936
0.00062799104 -0.042075399 0.72100002 4286185472
0.0018839733 -0.042075399 0.72100002 4286644224
0.0031399552 -0.042075399 0.72100002 4287704333
0.0043959371 -0.042075399 0.72100002 4289349414
0.0056519196 -0.042075399 0.72100002 4287387195
0.0069079017 -0.042075399 0.72100002 4286136871
0.0081638834 -0.042075399 0.72100002 4286206237
0.0094198659 -0.042075399 0.72100002 4286469152
0.010675848 -0.042075399 0.72100002 4286992164
0.01193183 -0.042075399 0.72100002 4285281803
0.013187813 -0.042075399 0.72100002 4285599232
0.014503893 -0.042250473 0.72400004 4287704333
0.015721552 -0.04213376 0.72200006 4286592043
0.016979277 -0.04213376 0.72200006 4287842111
0.018237 -0.04213376 0.72200006 4287849329
0.019548725 -0.042250473 0.72400004 4288112501
0.020809935 -0.042250473 0.72400004 4287392635
0.022071144 -0.042250473 0.72400004 4286800755
0.023364577 -0.04230883 0.72500002 4287982407
0.024627527 -0.04230883 0.72500002 4289298267
0.025961902 -0.042425543 0.72700006 4289892228
0.027228335 -0.042425543 0.72700006 4290484622
0.028533963 -0.042483903 0.72800004 4290353297
0.029802142 -0.042483903 0.72800004 4291142813
0.031155672 -0.042600613 0.73000002 4291274396
0.032471754 -0.04265897 0.73100001 4292261292
0.033745155 -0.04265897 0.73100001 4292393916
0.03501856 -0.04265897 0.73100001 4294962156
0.036291961 -0.04265897 0.73100001 4294965755
-0.041668646 -0.041668646 0.73600006 4291148217
-0.040221911 -0.041498803 0.73300004 4291667876
-0.038945027 -0.041498803 0.73300004 4292194220
-0.037513971 -0.041328952 0.73000002 4291867317
-0.03614302 -0.041215725 0.72800004 4291209387
-0.034826942 -0.041159112 0.72700006 4291077274
-0.033468179 -0.041045878 0.72500002 4290616723
-0.032160807 -0.040989265 0.72400004 4290089886
-0.030814242 -0.040876035 0.72200006 4289892764
-0.029433707 -0.040706191 0.71900004 4289761674
-0.028142013 -0.040649574 0.71800005 4289235329
-0.026891258 -0.040649574 0.71800005 4289105029
-0.025640501 -0.040649574 0.71800005 4289038979
-0.024389746 -0.040649574 0.71800005 4288841089
-0.023138989 -0.040649574 0.71800005 4288841089
-0.021918718 -0.040706191 0.71900004 4289102719
-0.020666219 -0.040706191 0.71900004 4289497221
-0.019413721 -0.040706191 0.71900004 4289102224
-0.018161224 -0.040706191 0.71900004 4288115329
-0.016908726 -0.040706191 0.71900004 4286403191
-0.015656227 -0.040706191 0.71900004 4286074226
-0.014403729 -0.040706191 0.71900004 4283826791
-0.01315123 -0.040706191 0.71900004 4282843224
-0.011898733 -0.040706191 0.71900004 4283564032
-0.010646234 -0.040706191 0.71900004 4283629568
-0.0093937367 -0.040706191 0.71900004 4284022784
-0.0081412373 -0.040706191 0.71900004 4284022784
-0.0068887398 -0.040706191 0.71900004 4284612608
-0.0056362418 -0.040706191 0.71900004 4284743680
-0.0043837437 -0.040706191 0.71900004 4285792256
-0.0031399552 -0.040819418 0.72100002 4288225568
-0.0018839733 -0.040819418 0.72100002 4286920192
-0.00062799104 -0.040819418 0.72100002 4288104460
0.00062799104 -0.040819418 0.72100002 4285992715
0.0018839733 -0.040819418 0.72100002 4285137408
0.0031399552 -0.040819418 0.72100002 4286983680
0.0044020345 -0.040876035 0.72200006 4287444224
0.0056519196 -0.040819418 0.72100002 4285933082
0.0069079017 -0.040819418 0.72100002 4284090880
0.0081638834 -0.040819418 0.72100002 4284946944
0.0094198659 -0.040819418 0.72100002 4285341696
0.010675848 -0.040819418 0.72100002 4286725426
0.011981477 -0.040989265 0.72400004 4287185977
0.013242685 -0.040989265 0.72400004 4287848214
0.014503893 -0.040989265 0.72400004 4289361709
0.015765101 -0.040989265 0.72400004 4288706173
0.017026309 -0.040989265 0.72400004 4289824398
0.018287517 -0.040989265 0.72400004 4289366918
0.019575726 -0.041045878 0.72500002 4288708987
0.020838678 -0.041045878 0.72500002 4286012812
0.022101626 -0.041045878 0.72500002 4283249506
0.023364577 -0.041045878 0.72500002 4283116349
0.024627527 -0.041045878 0.72500002 4286997879
0.025961902 -0.041159112 0.72700006 4289564294
0.027228335 -0.041159112 0.72700006 4290616982
0.028612353 -0.041328952 0.73000002 4290354067
0.029884012 -0.041328952 0.73000002 4290814618
0.031198351 -0.041385569 0.73100001 4291274394
0.032471754 -0.041385569 0.73100001 4292458925
0.033745155 -0.041385569 0.73100001 4292394177
0.03501856 -0.041385569 0.73100001 4294962160
0.036291961 -0.041385569 0.73100001 4294966271
-0.040221911 -0.040221911 0.73300004 4291668389
-0.038945027 -0.040221911 0.73300004 4292194733
-0.037513971 -0.040057294 0.73000002 4291408304
-0.036242314 -0.040057294 0.73000002 4290421153
-0.034826942 -0.039892677 0.72700006 4290683541
-0.033468179 -0.03978293 0.72500002 4289894025
-0.032160807 -0.039728057 0.72400004 4290023830
-0.030899599 -0.039728057 0.72400004 4289629072
-0.029556518 -0.039618313 0.72200006 4289366670
-0.028259596 -0.039563436 0.72100002 4289169034
-0.027003614 -0.039563436 0.72100002 4288906882
-0.025747633 -0.039563436 0.72100002 4288841089
-0.024491651 -0.039563436 0.72100002 4288644228
-0.023235669 -0.039563436 0.72100002 4288710021
-0.021979688 -0.039563436 0.72100002 4288906880
-0.020723706 -0.039563436 0.72100002 4288643964
-0.019467723 -0.039563436 0.72100002 4288706937
-0.018211741 -0.039563436 0.72100002 4286601817
-0.016955759 -0.039563436 0.72100002 4286137412
-0.015699776 -0.039563436 0.72100002 4283900450
-0.014443794 -0.039563436 0.72100002 4284284928
-0.013187813 -0.039563436 0.72100002 4284284928
-0.01193183 -0.039563436 0.72100002 4284809216
-0.010675848 -0.039563436 0.72100002 4284874752
-0.0094198659 -0.039563436 0.72100002 4285136896
-0.0081638834 -0.039563436 0.72100002 4285136896
-0.0069079017 -0.039563436 0.72100002 4285399040
-0.0056519196 -0.039563436 0.72100002 4285857792
-0.0043959371 -0.039563436 0.72100002 4285990656
-0.0031399552 -0.039563436 0.72100002 4288424978
-0.0018865862 -0.039618313 0.72200006 4286531073
-0.00062886212 -0.039618313 0.72200006 4286004736
0.00062886212 -0.039618313 0.72200006 4284880129
0.0018865862 -0.039618313 0.72200006 4284485376
0.0031443106 -0.039618313 0.72200006 4286458368
0.0044020345 -0.039618313 0.72200006 4286326528
0.005659759 -0.039618313 0.72200006 4285669888
0.0069174832 -0.039618313 0.72200006 4285735680
0.0081752073 -0.039618313 0.72200006 4285996829
0.0094590615 -0.039728057 0.72400004 4286325537
0.010735076 -0.03978293 0.72500002 4287379525
0.011998027 -0.03978293 0.72500002 4288169040
0.013260976 -0.03978293 0.72500002 4287982698
0.014523927 -0.03978293 0.72500002 4288114284
0.015786877 -0.03978293 0.72500002 4287789180
0.017049827 -0.03978293 0.72500002 4289302419
0.018312778 -0.03978293 0.72500002 4288975003
0.019575726 -0.03978293 0.72500002 4287988108
0.020838678 -0.03978293 0.72500002 4284047229
0.022162598 -0.039892677 0.72700006 4279113010
0.023429032 -0.039892677 0.72700006 4279438598
0.024695467 -0.039892677 0.72700006 4285886312
0.025961902 -0.039892677 0.72700006 4289040778
0.027228335 -0.039892677 0.72700006 4290159516
0.028612353 -0.040057294 0.73000002 4290354330
0.029924948 -0.040112168 0.73100001 4290814881
0.031198351 -0.040112168 0.73100001 4291078037
0.032471754 -0.040112168 0.73100001 4292196519
0.033745155 -0.040112168 0.73100001 4292460220
0.03501856 -0.040112168 0.73100001 4294963181
0.036291961 -0.040112168 0.73100001 4294966015
-0.040331658 -0.039051287 0.73500001 4291537069
-0.039051287 -0.039051287 0.73500001 4291997620
-0.037565362 -0.038838763 0.73100001 4291604391
-0.036242314 -0.038785636 0.73000002 4290749338
-0.034826942 -0.038626242 0.72700006 4290485648
-0.033560503 -0.038626242 0.72700006 4289893768
-0.032205228 -0.038519979 0.72500002 4289761172
-0.030899599 -0.038466848 0.72400004 4289432463
-0.029556518 -0.038360588 0.72200006 4289235081
-0.028298793 -0.038360588 0.72200006 4288971910
-0.02704107 -0.038360588 0.72200006 4288709504
-0.025783347 -0.038360588 0.72200006 4288512124
-0.024525622 -0.038360588 0.72200006 4288577667
-0.023267897 -0.038360588 0.72200006 4288709254
-0.021979688 -0.038307454 0.72100002 4289102719
-0.020723706 -0.038307454 0.72100002 4286997086
-0.019467723 -0.038307454 0.72100002 4285605966
-0.018211741 -0.038307454 0.72100002 4282056729
-0.016955759 -0.038307454 0.72100002 4283564032
-0.015699776 -0.038307454 0.72100002 4283695104
-0.014443794 -0.038307454 0.72100002 4284481536
-0.013187813 -0.038307454 0.72100002 4284743680
-0.01193183 -0.038307454 0.72100002 4285267968
-0.010690656 -0.038360588 0.72200006 4285857796
-0.0094329314 -0.038360588 0.72200006 4285333504
-0.0081752073 -0.038360588 0.72200006 4284809216
-0.0069174832 -0.038360588 0.72200006 4285929216
-0.005659759 -0.038360588 0.72200006 4287771146
-0.0044020345 -0.038360588 0.72200006 4286462720
-0.0031443106 -0.038360588 0.72200006 4286528512
-0.0018865862 -0.038360588 0.72200006 4286135040
-0.00062886212 -0.038360588 0.72200006 4285082112
0.00062886212 -0.038360588 0.72200006 4284613376
0.0018865862 -0.038360588 0.72200006 4284810752
0.0031443106 -0.038360588 0.72200006 4285868032
0.0044142287 -0.038466848 0.72400004 4286196992
0.0056754365 -0.038466848 0.72400004 4286927377
0.0069462257 -0.038519979 0.72500002 4288243237
0.0082091754 -0.038519979 0.72500002 4287192432
0.0094721252 -0.038519979 0.72500002 4286994797
0.010764691 -0.038626242 0.72700006 4285351773
0.012031124 -0.038626242 0.72700006 4285023064
0.013297559 -0.038626242 0.72700006 4283776091
0.014563993 -0.038626242 0.72700006 4282328645
0.015830427 -0.038626242 0.72700006 4282855000
0.017096862 -0.038626242 0.72700006 4285684100
0.018388554 -0.038679373 0.72800004 4284634991
0.019656731 -0.038679373 0.72800004 4283845732
0.020924907 -0.038679373 0.72800004 4282928232
0.022193084 -0.038679373 0.72800004 4280691270
0.023461258 -0.038679373 0.72800004 4280624225
0.024729436 -0.038679373 0.72800004 4285492908
0.026069032 -0.038785636 0.73000002 4289041280
0.027378146 -0.038838763 0.73100001 4290093968
0.028651547 -0.038838763 0.73100001 4290353824
0.029924948 -0.038838763 0.73100001 4290880424
0.031283714 -0.038945027 0.73300004 4291077772
0.032560598 -0.038945027 0.73300004 4292196252
0.033745155 -0.038838763 0.73100001 4292591290
0.03501856 -0.038838763 0.73100001 4294963436
0.036291961 -0.038838763 0.73100001 4294966269
-0.040386535 -0.03782231 0.73600006 4291537321
-0.039051287 -0.03777092 0.73500001 4291932079
-0.037565362 -0.037565362 0.73100001 4291406766
-0.036291961 -0.037565362 0.73100001 4290551458
-0.034874842 -0.037411198 0.72800004 4290222225
-0.033560503 -0.037359808 0.72700006 4289432965
-0.032205228 -0.037257027 0.72500002 4289629835
-0.030942278 -0.037257027 0.72500002 4288972162
-0.029638389 -0.03720564 0.72400004 4288839558
-0.028377183 -0.03720564 0.72400004 4288839558
-0.027115975 -0.03720564 0.72400004 4288643460
-0.025854766 -0.03720564 0.72400004 4288577667
-0.02459356 -0.03720564 0.72400004 4288315009
-0.023332352 -0.03720564 0.72400004 4288709767
-0.022010174 -0.037102863 0.72200006 4289299078
-0.020752449 -0.037102863 0.72200006 4283969588
-0.019494725 -0.037102863 0.72200006 4286384384
-0.018287517 -0.03720564 0.72400004 4284809216
-0.017026309 -0.03720564 0.72400004 4284874752
-0.015765101 -0.03720564 0.72400004 4285005824
-0.014503893 -0.03720564 0.72400004 4285399040
-0.013242685 -0.03720564 0.72400004 4285595648
-0.011981477 -0.03720564 0.72400004 4285399040
-0.010690656 -0.037102863 0.72200006 4286185984
-0.0094329314 -0.037102863 0.72200006 4285402624
-0.0081978533 -0.03720564 0.72400004 4285139456
-0.0069366447 -0.03720564 0.72400004 4285606668
-0.0056754365 -0.03720564 0.72400004 4286001426
-0.0044142287 -0.03720564 0.72400004 4285543680
-0.0031530203 -0.03720564 0.72400004 4284622592
-0.0018918123 -0.03720564 0.72400004 4284420352
-0.00063060404 -0.03720564 0.72400004 4284617472
0.00063060404 -0.03720564 0.72400004 4284613120
0.0018918123 -0.03720564 0.72400004 4285600004
0.0031530203 -0.03720564 0.72400004 4286263108
0.0044203256 -0.037257027 0.72500002 4286920781
0.0056832754 -0.037257027 0.72500002 4286732896
0.0069462257 -0.037257027 0.72500002 4286798690
0.0082318224 -0.037359808 0.72700006 4285751408
0.0094982563 -0.037359808 0.72700006 4285488492
0.010764691 -0.037359808 0.72700006 4282797416
0.012031124 -0.037359808 0.72700006 4280757833
0.013297559 -0.037359808 0.72700006 4278592338
0.014584026 -0.037411198 0.72800004 4278658131
0.015852202 -0.037411198 0.72800004 4280167243
0.017120378 -0.037411198 0.72800004 4282206826
0.018439071 -0.037513971 0.73000002 4282470009
0.019710733 -0.037513971 0.73000002 4281680750
0.020982392 -0.037513971 0.73000002 4280895091
0.022254052 -0.037513971 0.73000002 4280039782
0.023525711 -0.037513971 0.73000002 4280887652
0.024797373 -0.037513971 0.73000002 4285295526
0.026104743 -0.037565362 0.73100001 4288382601
0.027378146 -0.037565362 0.73100001 4289764254
0.028729938 -0.037668142 0.73300004 4289763224
0.030006822 -0.037668142 0.73300004 4290552484
0.031283714 -0.037668142 0.73300004 4291077783
0.032560598 -0.037668142 0.73300004 4292130728
0.033837482 -0.037668142 0.73300004 4292591290
0.03511437 -0.037668142 0.73300004 4294963179
0.036391255 -0.037668142 0.73300004 4294966526
-0.040386535 -0.036540199 0.73600006 4291471528
-0.039051287 -0.036490548 0.73500001 4291800493
-0.037668142 -0.036391255 0.73300004 4291406514
-0.036291961 -0.036291961 0.73100001 4290682791
-0.034970652 -0.036242314 0.73000002 4289959068
-0.033606671 -0.03614302 0.72800004 4289366931
-0.032294072 -0.036093373 0.72700006 4289038981
-0.030942278 -0.035994079 0.72500002 4288381308
-0.029679328 -0.035994079 0.72500002 4288511370
-0.028377183 -0.035944432 0.72400004 4288182662
-0.027115975 -0.035944432 0.72400004 4288117380
-0.025890477 -0.035994079 0.72500002 4288117380
-0.024627527 -0.035994079 0.72500002 4288117629
-0.023364577 -0.035994079 0.72500002 4288578180
-0.022101626 -0.035994079 0.72500002 4288970377
-0.020838678 -0.035994079 0.72500002 4283706936
-0.019548725 -0.035944432 0.72400004 4283826176
-0.018287517 -0.035944432 0.72400004 4284219392
-0.017026309 -0.035944432 0.72400004 4285267968
-0.015765101 -0.035944432 0.72400004 4285792259
-0.014503893 -0.035944432 0.72400004 4285727232
-0.013242685 -0.035944432 0.72400004 4288029970
-0.011981477 -0.035944432 0.72400004 4286987264
-0.010720269 -0.035944432 0.72400004 4287053312
-0.0094721252 -0.035994079 0.72500002 4285208576
-0.0082091754 -0.035994079 0.72500002 4284879616
-0.0069462257 -0.035994079 0.72500002 4284814336
-0.0056832754 -0.035994079 0.72500002 4284090624
-0.0044203256 -0.035994079 0.72500002 4284088832
-0.0031573751 -0.035994079 0.72500002 4284154624
-0.0018944253 -0.035994079 0.72500002 4285145880
-0.00063147506 -0.035994079 0.72500002 4286264362
0.00063147506 -0.035994079 0.72500002 4286665752
0.0018944253 -0.035994079 0.72500002 4287718441
0.0031573751 -0.035994079 0.72500002 4285418613
0.0044325194 -0.036093373 0.72700006 4284826476
0.0056989538 -0.036093373 0.72700006 4281932906
0.0069653881 -0.036093373 0.72700006 4280617046
0.0082318224 -0.036093373 0.72700006 4279698995
0.0095113218 -0.03614302 0.72800004 4280291388
0.01080911 -0.036242314 0.73000002 4280626270
0.012080772 -0.036242314 0.73000002 4280692319
0.01335243 -0.036242314 0.73000002 4280037997
0.014624092 -0.036242314 0.73000002 4280301425
0.01589575 -0.036242314 0.73000002 4280696179
0.017167412 -0.036242314 0.73000002 4281683074
0.018464329 -0.036291961 0.73100001 4281617787
0.019737732 -0.036291961 0.73100001 4280959600
0.021011135 -0.036291961 0.73100001 4280698491
0.022284538 -0.036291961 0.73100001 4280237940
0.023557939 -0.036291961 0.73100001 4281086312
0.024831342 -0.036291961 0.73100001 4284704671
0.026176166 -0.036391255 0.73300004 4288120450
0.027453052 -0.036391255 0.73300004 4289567897
0.028729938 -0.036391255 0.73300004 4289894811
0.030006822 -0.036391255 0.73300004 4290421155
0.031369068 -0.036490548 0.73500001 4291011738
0.032649439 -0.036490548 0.73500001 4292196269
0.033837482 -0.036391255 0.73300004 4292524983
0.03511437 -0.036391255 0.73300004 4294962666
0.036391255 -0.036391255 0.73300004 4294966783
-0.040496279 -0.035353892 0.73800004 4291603114
-0.039104421 -0.035258085 0.73600006 4291603114
-0.037668142 -0.03511437 0.73300004 4291471791
-0.036391255 -0.03511437 0.73300004 4290484896
-0.034970652 -0.034970652 0.73000002 4289893527
-0.033698995 -0.034970652 0.73000002 4289169805
-0.032338493 -0.034874842 0.72800004 4288907915
-0.031027636 -0.034826942 0.72700006 4288381571
-0.029679328 -0.034731127 0.72500002 4288511370
-0.028416377 -0.034731127 0.72500002 4288116612
-0.027153427 -0.034731127 0.72500002 4288051586
-0.025961902 -0.034826942 0.72700006 4288117380
-0.024695467 -0.034826942 0.72700006 4288117629
-0.023364577 -0.034731127 0.72500002 4288578180
-0.022101626 -0.034731127 0.72500002 4288706673
-0.020838678 -0.034731127 0.72500002 4281995787
-0.019575726 -0.034731127 0.72500002 4284153856
-0.018312778 -0.034731127 0.72500002 4284743680
-0.017049827 -0.034731127 0.72500002 4285267968
-0.015786877 -0.034731127 0.72500002 4285726720
-0.014523927 -0.034731127 0.72500002 4285795840
-0.013260976 -0.034731127 0.72500002 4288361750
-0.011998027 -0.034731127 0.72500002 4287584319
-0.010735076 -0.034731127 0.72500002 4286136617
