# .PCD v0.7 - Point Cloud Data file format
VERSION 0.7
FIELDS x y z rgba
SIZE 4 4 4 4
TYPE F F F U
COUNT 1 1 1 1
WIDTH 1064
HEIGHT 1
VIEWPOINT 0 0 0 1 0 0 0
POINTS 1064
DATA ascii
0.17111756 -0.12947679 0.74700004 4280030237
0.17288044 -0.12982343 0.74900001 4280163091
0.1741852 -0.12982343 0.74900001 4282334003
0.17548996 -0.12982343 0.74900001 4283123537
0.17679472 -0.12982343 0.74900001 4284439397
0.092359111 -0.13280836 0.77400005 4281212976
0.093586348 -0.13263677 0.77300006 4282463043
0.094932921 -0.13263677 0.77300006 4282331457
0.096030377 -0.1322936 0.77100003 4282068285
0.097820282 -0.13109249 0.76400006 4281410857
0.098891608 -0.1307493 0.76200002 4281345064
0.10008749 -0.13057773 0.76100004 4280687134
0.10141315 -0.13057773 0.76100004 4280614924
0.10246881 -0.13023455 0.75900006 4282127907
0.10379099 -0.13023455 0.75900006 4285223424
0.10511316 -0.13023455 0.75900006 4286276096
0.10615488 -0.12989138 0.75700003 4287064320
0.10747357 -0.12989138 0.75700003 4287788040
0.10879227 -0.12989138 0.75700003 4287066904
0.11011096 -0.12989138 0.75700003 4287264539
0.11142965 -0.12989138 0.75700003 4286868736
0.11274835 -0.12989138 0.75700003 4285552896
0.11391636 -0.12971978 0.75600004 4283183668
0.11523331 -0.12971978 0.75600004 4279435264
0.11624193 -0.12937661 0.75400001 4283116544
0.11755539 -0.12937661 0.75400001 4287853638
0.11886886 -0.12937661 0.75400001 4287458305
0.12018233 -0.12937661 0.75400001 4285024000
0.12149581 -0.12937661 0.75400001 4283510016
0.12280927 -0.12937661 0.75400001 4280156160
0.12412273 -0.12937661 0.75400001 4281401379
0.1254362 -0.12937661 0.75400001 4286597490
0.12674968 -0.12937661 0.75400001 4287129344
0.12806314 -0.12937661 0.75400001 4287589888
0.12937661 -0.12937661 0.75400001 4286078720
0.13069008 -0.12937661 0.75400001 4283183872
0.13200355 -0.12937661 0.75400001 4283777313
0.13331701 -0.12937661 0.75400001 4285422138
0.13427337 -0.12903345 0.75200003 4285617152
0.13540307 -0.12886184 0.75100005 4285814528
0.13671131 -0.12886184 0.75100005 4287195136
0.13801955 -0.12886184 0.75100005 4288182016
0.13932779 -0.12886184 0.75100005 4285752066
0.1402615 -0.12851869 0.74900001 4280028160
0.14156626 -0.12851869 0.74900001 4278191636
0.14287102 -0.12851869 0.74900001 4278190084
0.14417577 -0.12851869 0.74900001 4280681472
0.14548053 -0.12851869 0.74900001 4285813319
0.14678529 -0.12851869 0.74900001 4286800640
0.14809005 -0.12851869 0.74900001 4287458816
0.1493948 -0.12851869 0.74900001 4286998272
0.15069956 -0.12851869 0.74900001 4286471936
0.15200432 -0.12851869 0.74900001 4282920986
0.15330908 -0.12851869 0.74900001 4278321152
0.15461384 -0.12851869 0.74900001 4278190124
0.1559186 -0.12851869 0.74900001 4281081946
0.15722334 -0.12851869 0.74900001 4285155584
0.1585281 -0.12851869 0.74900001 4287063563
0.15983286 -0.12851869 0.74900001 4286865936
0.16113763 -0.12851869 0.74900001 4286800143
0.16244239 -0.12851869 0.74900001 4285093120
0.16374715 -0.12851869 0.74900001 4282921984
0.16505191 -0.12851869 0.74900001 4281475616
0.16635667 -0.12851869 0.74900001 4281146652
0.16766141 -0.12851869 0.74900001 4280555035
0.16896617 -0.12851869 0.74900001 4280686364
0.17027093 -0.12851869 0.74900001 4280490286
0.17157568 -0.12851869 0.74900001 4280556080
0.17288044 -0.12851869 0.74900001 4281410355
0.17465033 -0.12886184 0.75100005 4284042076
0.17595857 -0.12886184 0.75100005 4284109149
0.17726681 -0.12886184 0.75100005 4284174942
0.092359111 -0.13146004 0.77400005 4281741373
0.093586348 -0.13129021 0.77300006 4282135875
0.094932921 -0.13129021 0.77300006 4281741623
0.096030377 -0.13095051 0.77100003 4281083437
0.097120866 -0.13061082 0.76900005 4281083437
0.098076351 -0.13010129 0.76600003 4280951850
0.099151164 -0.12976159 0.76400006 4281410857
0.10021901 -0.1294219 0.76200002 4280884513
0.10154641 -0.1294219 0.76200002 4279569664
0.10273882 -0.12925206 0.76100004 4280753664
0.10406448 -0.12925206 0.76100004 4281869056
0.10511316 -0.12891237 0.75900006 4284369171
0.10643534 -0.12891237 0.75900006 4286207780
0.10775752 -0.12891237 0.75900006 4287655482
0.1090797 -0.12891237 0.75900006 4287590702
0.11040188 -0.12891237 0.75900006 4287590702
0.11142965 -0.12857267 0.75700003 4287853356
0.11274835 -0.12857267 0.75700003 4288116785
0.11406704 -0.12857267 0.75700003 4284439354
0.11538574 -0.12857267 0.75700003 4280952582
0.11670443 -0.12857267 0.75700003 4283447552
0.11802313 -0.12857267 0.75700003 4287395374
0.11918417 -0.12840284 0.75600004 4287065630
0.12050112 -0.12840284 0.75600004 4284565248
0.12181807 -0.12840284 0.75600004 4283576576
0.12313503 -0.12840284 0.75600004 4283181824
0.12412273 -0.12806314 0.75400001 4284167179
0.1254362 -0.12806314 0.75400001 4286864692
0.12674968 -0.12806314 0.75400001 4287588388
0.12806314 -0.12806314 0.75400001 4287325215
0.12937661 -0.12806314 0.75400001 4285159425
0.13069008 -0.12806314 0.75400001 4285093632
0.13200355 -0.12806314 0.75400001 4284961083
0.13331701 -0.12806314 0.75400001 4282855963
0.13463049 -0.12806314 0.75400001 4283442176
0.13558336 -0.12772344 0.75200003 4284297472
0.13689335 -0.12772344 0.75200003 4286732800
0.13820334 -0.12772344 0.75200003 4288640780
0.13951331 -0.12772344 0.75200003 4286015277
0.14063603 -0.12755361 0.75100005 4279699456
0.14194427 -0.12755361 0.75100005 4278452229
0.14325252 -0.12755361 0.75100005 4278190080
0.14456075 -0.12755361 0.75100005 4278845440
0.145869 -0.12755361 0.75100005 4285619029
0.14717723 -0.12755361 0.75100005 4286341641
0.14848548 -0.12755361 0.75100005 4286407434
0.14979373 -0.12755361 0.75100005 4286931991
0.15110198 -0.12755361 0.75100005 4287655713
0.15241022 -0.12755361 0.75100005 4283779349
0.15371846 -0.12755361 0.75100005 4278190080
0.1550267 -0.12755361 0.75100005 4279959552
0.15633494 -0.12755361 0.75100005 4284231468
0.15764318 -0.12755361 0.75100005 4286336768
0.15895142 -0.12755361 0.75100005 4287850253
0.16025966 -0.12755361 0.75100005 4287390465
0.16156791 -0.12755361 0.75100005 4287456259
0.16287614 -0.12755361 0.75100005 4285290023
0.16418439 -0.12755361 0.75100005 4281934592
0.16549262 -0.12755361 0.75100005 4281146652
0.16680087 -0.12755361 0.75100005 4281080859
0.16810912 -0.12755361 0.75100005 4280882460
0.16941737 -0.12755361 0.75100005 4280882460
0.17072561 -0.12755361 0.75100005 4280489784
0.17203385 -0.12755361 0.75100005 4280818493
0.17334209 -0.12755361 0.75100005 4281936699
0.17465033 -0.12755361 0.75100005 4284963178
0.17619286 -0.12772344 0.75200003 4284505190
0.17750286 -0.12772344 0.75200003 4283715675
0.092359111 -0.13011174 0.77400005 4282528584
0.09370742 -0.13011174 0.77400005 4282265412
0.094932921 -0.12994364 0.77300006 4281805363
0.096030377 -0.12960742 0.77100003 4281015847
0.097120866 -0.12927122 0.76900005 4280754728
0.098204389 -0.12893501 0.76700002 4280754728
0.099151164 -0.12843071 0.76400006 4281541410
0.10048205 -0.12843071 0.76400006 4282199596
0.10181294 -0.12843071 0.76400006 4284368896
0.10273882 -0.12792639 0.76100004 4285947909
0.10406448 -0.12792639 0.76100004 4284303616
0.10539015 -0.12792639 0.76100004 4278714368
0.1067158 -0.12792639 0.76100004 4279959552
0.10804147 -0.12792639 0.76100004 4280812288
0.10936712 -0.12792639 0.76100004 4281794816
0.11069279 -0.12792639 0.76100004 4286071357
0.11172406 -0.12759019 0.75900006 4286930688
0.11304624 -0.12759019 0.75900006 4288312330
0.11436841 -0.12759019 0.75900006 4286209297
0.1156906 -0.12759019 0.75900006 4284038400
0.11670443 -0.12725399 0.75700003 4284631075
0.11802313 -0.12725399 0.75700003 4287394381
0.11934181 -0.12725399 0.75700003 4287524364
0.12066051 -0.12725399 0.75700003 4286274304
0.1219792 -0.12725399 0.75700003 4284962048
0.1232979 -0.12725399 0.75700003 4285290752
0.12445197 -0.12708588 0.75600004 4285026816
0.12576893 -0.12708588 0.75600004 4285224192
0.12708588 -0.12708588 0.75600004 4283905553
0.12840284 -0.12708588 0.75600004 4282260736
0.12971978 -0.12708588 0.75600004 4284102435
0.13069008 -0.12674968 0.75400001 4287392085
0.13200355 -0.12674968 0.75400001 4286866432
0.13331701 -0.12674968 0.75400001 4283313920
0.13463049 -0.12674968 0.75400001 4283181056
0.13594395 -0.12674968 0.75400001 4284233728
0.13725741 -0.12674968 0.75400001 4286535936
0.13857087 -0.12674968 0.75400001 4288181001
0.13988435 -0.12674968 0.75400001 4286736384
0.14119782 -0.12674968 0.75400001 4283841536
0.14213328 -0.12641346 0.75200003 4278387250
0.14344326 -0.12641346 0.75200003 4278190107
0.14475325 -0.12641346 0.75200003 4280878106
0.14606324 -0.12641346 0.75200003 4286865268
0.14737321 -0.12641346 0.75200003 4286276608
0.14868321 -0.12641346 0.75200003 4285421568
0.14999318 -0.12641346 0.75200003 4286077184
0.15130317 -0.12641346 0.75200003 4286998272
0.15261315 -0.12641346 0.75200003 4284698374
0.15392312 -0.12641346 0.75200003 4281474560
0.15523313 -0.12641346 0.75200003 4282722604
0.15654311 -0.12641346 0.75200003 4285420117
0.1578531 -0.12641346 0.75200003 4286206976
0.15916307 -0.12641346 0.75200003 4287062272
0.16047305 -0.12641346 0.75200003 4286864640
0.16178304 -0.12641346 0.75200003 4285219840
0.16309302 -0.12641346 0.75200003 4283776000
0.16440302 -0.12641346 0.75200003 4281144320
0.165713 -0.12641346 0.75200003 4280491801
0.16702297 -0.12641346 0.75200003 4280689181
0.16833296 -0.12641346 0.75200003 4280685862
0.16964294 -0.12641346 0.75200003 4281015084
0.17095293 -0.12641346 0.75200003 4280819267
0.17226292 -0.12641346 0.75200003 4281937492
0.1735729 -0.12641346 0.75200003 4283054664
0.17488289 -0.12641346 0.75200003 4285489005
0.17666146 -0.12674968 0.75400001 4285225313
0.17797492 -0.12674968 0.75400001 4283580745
0.091010801 -0.12876344 0.77400005 4282462509
0.092359111 -0.12876344 0.77400005 4282660699
0.09370742 -0.12876344 0.77400005 4282265941
0.094932921 -0.12859707 0.77300006 4282001209
0.09627948 -0.12859707 0.77300006 4280751142
0.097373456 -0.12826434 0.77100003 4281079845
0.098204389 -0.1275989 0.76700002 4281540396
0.099540502 -0.1275989 0.76700002 4281278494
0.1007451 -0.12743254 0.76600003 4281015065
0.10207947 -0.12743254 0.76600003 4285876752
0.10314383 -0.12709983 0.76400006 4287784749
0.10447472 -0.12709983 0.76400006 4284961040
0.10580561 -0.12709983 0.76400006 4278714368
0.10685603 -0.1267671 0.76200002 4278190080
0.10818344 -0.1267671 0.76200002 4278190080
0.10936712 -0.12660074 0.76100004 4278190080
0.11069279 -0.12660074 0.76100004 4283320900
0.11201845 -0.12660074 0.76100004 4286271744
0.11334412 -0.12660074 0.76100004 4287061504
0.11466977 -0.12660074 0.76100004 4286865936
0.11599544 -0.12660074 0.76100004 4285155072
0.11701278 -0.12626801 0.75900006 4285288960
0.11833494 -0.12626801 0.75900006 4287723290
0.11965713 -0.12626801 0.75900006 4287131906
0.12097931 -0.12626801 0.75900006 4284763392
0.12230148 -0.12626801 0.75900006 4284565280
0.12362366 -0.12626801 0.75900006 4284697123
0.12461659 -0.12593529 0.75700003 4284041012
0.12593529 -0.12593529 0.75700003 4283317546
0.12725399 -0.12593529 0.75700003 4281281280
0.12840284 -0.12576893 0.75600004 4281215232
0.12971978 -0.12576893 0.75600004 4284364544
0.13103674 -0.12576893 0.75600004 4288246587
0.13235369 -0.12576893 0.75600004 4287654976
0.13367064 -0.12576893 0.75600004 4284102153
0.13498759 -0.12576893 0.75600004 4284233216
0.13630454 -0.12576893 0.75600004 4285022464
0.13762151 -0.12576893 0.75600004 4286470144
0.13893846 -0.12576893 0.75600004 4288312330
0.14025541 -0.12576893 0.75600004 4287459352
0.14157236 -0.12576893 0.75600004 4284696064
0.14251128 -0.1254362 0.75400001 4281278744
0.14382476 -0.1254362 0.75400001 4278452224
0.14513822 -0.1254362 0.75400001 4280753681
0.1464517 -0.1254362 0.75400001 4285885535
0.14776517 -0.1254362 0.75400001 4285751816
0.14907864 -0.1254362 0.75400001 4284699136
0.1503921 -0.1254362 0.75400001 4286077184
0.15170556 -0.1254362 0.75400001 4287129858
0.15301904 -0.1254362 0.75400001 4286342180
0.1543325 -0.1254362 0.75400001 4285881629
0.15564597 -0.1254362 0.75400001 4284306208
0.15695944 -0.1254362 0.75400001 4284108828
0.15827291 -0.1254362 0.75400001 4286075136
0.15958637 -0.1254362 0.75400001 4287588360
0.16089983 -0.1254362 0.75400001 4286604054
0.16221331 -0.1254362 0.75400001 4283051520
0.16352677 -0.1254362 0.75400001 4282787072
0.16440302 -0.12510349 0.75200003 4281274112
0.165713 -0.12510349 0.75200003 4280491799
0.16702297 -0.12510349 0.75200003 4280557849
0.16833296 -0.12510349 0.75200003 4280686884
0.16964294 -0.12510349 0.75200003 4281015849
0.17095293 -0.12510349 0.75200003 4281082433
0.17226292 -0.12510349 0.75200003 4282464086
0.1735729 -0.12510349 0.75200003 4283450190
0.175348 -0.1254362 0.75400001 4285423980
0.17666146 -0.1254362 0.75400001 4285421915
0.092359111 -0.12741512 0.77400005 4282989669
0.09370742 -0.12741512 0.77400005 4281936981
0.095055729 -0.12741512 0.77400005 4281541689
0.09627948 -0.12725051 0.77300006 4280554794
0.097626045 -0.12725051 0.77300006 4280686632
0.098716535 -0.12692127 0.77100003 4281147183
0.099800065 -0.12659203 0.76900005 4281080345
0.1007451 -0.12609817 0.76600003 4279435264
0.10207947 -0.12609817 0.76600003 4283640320
0.10341384 -0.12609817 0.76600003 4286600991
0.10474822 -0.12609817 0.76600003 4285945609
0.10580561 -0.12576893 0.76400006 4285485058
0.1071365 -0.12576893 0.76400006 4284370944
0.10818344 -0.12543969 0.76200002 4283844608
0.10951084 -0.12543969 0.76200002 4284829952
0.11083825 -0.12543969 0.76200002 4286211588
0.11201845 -0.12527508 0.76100004 4286406656
0.11334412 -0.12527508 0.76100004 4285617152
0.11466977 -0.12527508 0.76100004 4285682176
0.11599544 -0.12527508 0.76100004 4285616384
0.1173211 -0.12527508 0.76100004 4286734336
0.11864676 -0.12527508 0.76100004 4288181764
0.11997243 -0.12527508 0.76100004 4287064832
0.12129808 -0.12527508 0.76100004 4281801472
0.12262375 -0.12527508 0.76100004 4279631892
0.12394941 -0.12527508 0.76100004 4278976523
0.12494585 -0.12494585 0.75900006 4279173156
0.12626801 -0.12494585 0.75900006 4278321175
0.12759019 -0.12494585 0.75900006 4281601292
0.12857267 -0.12461659 0.75700003 4285943631
0.12989138 -0.12461659 0.75700003 4285682700
0.13121006 -0.12461659 0.75700003 4285222149
0.13252877 -0.12461659 0.75700003 4284894208
0.13384746 -0.12461659 0.75700003 4284038912
0.13516615 -0.12461659 0.75700003 4284104704
0.13648485 -0.12461659 0.75700003 4284631040
0.13780354 -0.12461659 0.75700003 4285616128
0.13912223 -0.12461659 0.75700003 4287524114
0.14044093 -0.12461659 0.75700003 4286737152
0.14157236 -0.12445197 0.75600004 4285487104
0.14288931 -0.12445197 0.75600004 4281017923
0.14420626 -0.12445197 0.75600004 4278649375
0.14552321 -0.12445197 0.75600004 4281540406
0.14684017 -0.12445197 0.75600004 4286014586
0.14815712 -0.12445197 0.75600004 4285225472
0.14907864 -0.12412273 0.75400001 4282593792
0.1503921 -0.12412273 0.75400001 4285090560
0.15170556 -0.12412273 0.75400001 4287919905
0.15301904 -0.12412273 0.75400001 4287590659
0.1543325 -0.12412273 0.75400001 4286801152
0.15564597 -0.12412273 0.75400001 4284171776
0.15695944 -0.12412273 0.75400001 4282526976
0.15827291 -0.12412273 0.75400001 4284956672
0.15958637 -0.12412273 0.75400001 4287457055
0.16089983 -0.12412273 0.75400001 4287063040
0.16221331 -0.12412273 0.75400001 4283510272
0.16352677 -0.12412273 0.75400001 4281010187
0.16484024 -0.12412273 0.75400001 4281339408
0.16615371 -0.12412273 0.75400001 4280555789
0.16746718 -0.12412273 0.75400001 4280884497
0.16878065 -0.12412273 0.75400001 4281147183
0.17009412 -0.12412273 0.75400001 4281541941
0.1714076 -0.12412273 0.75400001 4281609031
0.17272106 -0.12412273 0.75400001 4283122270
0.17403452 -0.12412273 0.75400001 4283714128
0.175348 -0.12412273 0.75400001 4284964195
0.17713007 -0.12445197 0.75600004 4284634691
0.092359111 -0.12606682 0.77400005 4283190377
0.09370742 -0.12606682 0.77400005 4281216331
0.095055729 -0.12606682 0.77400005 4281148984
0.096404031 -0.12606682 0.77400005 4280359468
0.097626045 -0.12590393 0.77300006 4280622886
0.098972619 -0.12590393 0.77300006 4280951850
0.10005962 -0.12557818 0.77100003 4281014052
0.10087661 -0.12492666 0.76700002 4279500813
0.10221273 -0.12492666 0.76700002 4280811520
0.10341384 -0.12476379 0.76600003 4284559152
0.10474822 -0.12476379 0.76600003 4285353520
0.10608259 -0.12476379 0.76600003 4286142779
0.10741696 -0.12476379 0.76600003 4286864451
0.10846739 -0.12443805 0.76400006 4286733122
0.10979827 -0.12443805 0.76400006 4286274883
0.11112916 -0.12443805 0.76400006 4286669641
0.11216564 -0.12411229 0.76200002 4286145861
0.11349305 -0.12411229 0.76200002 4284566829
0.11482046 -0.12411229 0.76200002 4283709952
0.11614786 -0.12411229 0.76200002 4285289230
0.1173211 -0.12394941 0.76100004 4287587886
0.11864676 -0.12394941 0.76100004 4288443195
0.11997243 -0.12394941 0.76100004 4287262520
0.12129808 -0.12394941 0.76100004 4281867264
0.12278488 -0.12411229 0.76200002 4278714371
0.12394941 -0.12394941 0.76100004 4278190080
0.12527508 -0.12394941 0.76100004 4278190080
0.12626801 -0.12362366 0.75900006 4278190080
0.12759019 -0.12362366 0.75900006 4281472000
0.12891237 -0.12362366 0.75900006 4287195973
0.13023455 -0.12362366 0.75900006 4286411331
0.13155673 -0.12362366 0.75900006 4281082368
0.1328789 -0.12362366 0.75900006 4281341440
0.13420108 -0.12362366 0.75900006 4281933568
0.13552327 -0.12362366 0.75900006 4282461184
0.13684544 -0.12362366 0.75900006 4282000640
0.13816762 -0.12362366 0.75900006 4285087488
0.1394898 -0.12362366 0.75900006 4287850776
0.14044093 -0.1232979 0.75700003 4286737920
0.14175962 -0.1232979 0.75700003 4285882624
0.14307831 -0.1232979 0.75700003 4282665496
0.14420626 -0.12313503 0.75600004 4280823296
0.14552321 -0.12313503 0.75600004 4283383323
0.14684017 -0.12313503 0.75600004 4285488699
0.14815712 -0.12313503 0.75600004 4284434944
0.14947407 -0.12313503 0.75600004 4282000640
0.15079102 -0.12313503 0.75600004 4283973120
0.15210798 -0.12313503 0.75600004 4287657510
0.15342493 -0.12313503 0.75600004 4287918647
0.1543325 -0.12280927 0.75400001 4286536994
0.15564597 -0.12280927 0.75400001 4283844352
0.15695944 -0.12280927 0.75400001 4282462720
0.15827291 -0.12280927 0.75400001 4283906048
0.15958637 -0.12280927 0.75400001 4287195681
0.16089983 -0.12280927 0.75400001 4286932224
0.16221331 -0.12280927 0.75400001 4282458368
0.16352677 -0.12280927 0.75400001 4280943616
0.16484024 -0.12280927 0.75400001 4281930752
0.16615371 -0.12280927 0.75400001 4281669653
0.16746718 -0.12280927 0.75400001 4281932824
0.16878065 -0.12280927 0.75400001 4281540658
0.17054531 -0.12313503 0.75600004 4282001209
0.17186226 -0.12313503 0.75600004 4282002240
0.17317921 -0.12313503 0.75600004 4283581529
0.17449616 -0.12313503 0.75600004 4283648096
0.17581311 -0.12313503 0.75600004 4284569198
0.17713007 -0.12313503 0.75600004 4284175685
0.09370742 -0.1247185 0.77400005 4281280298
0.095055729 -0.1247185 0.77400005 4281082433
0.096404031 -0.1247185 0.77400005 4281016640
0.09775234 -0.1247185 0.77400005 4280688429
0.098972619 -0.12455737 0.77300006 4280951600
0.10005962 -0.1242351 0.77100003 4281082392
0.10113966 -0.12391283 0.76900005 4279963911
0.10221273 -0.12359056 0.76700002 4279959592
0.10354884 -0.12359056 0.76700002 4279173148
0.10488496 -0.12359056 0.76700002 4280352768
0.10608259 -0.12342943 0.76600003 4281008139
0.10741696 -0.12342943 0.76600003 4281796105
0.10875133 -0.12342943 0.76600003 4282454291
0.1100857 -0.12342943 0.76600003 4281403664
0.11142007 -0.12342943 0.76600003 4280680452
0.11246005 -0.12310716 0.76400006 4280287232
0.11379094 -0.12310716 0.76400006 4279566336
0.11512183 -0.12310716 0.76400006 4279828517
0.11614786 -0.12278488 0.76200002 4283313755
0.11747527 -0.12278488 0.76200002 4283578385
0.11880267 -0.12278488 0.76200002 4284499487
0.12013007 -0.12278488 0.76200002 4283515422
0.12145747 -0.12278488 0.76200002 4282067976
0.12278488 -0.12278488 0.76200002 4279503419
0.12411229 -0.12278488 0.76200002 4278190113
0.12543969 -0.12278488 0.76200002 4278452229
0.12660074 -0.12262375 0.76100004 4281740599
0.12792639 -0.12262375 0.76100004 4283511829
0.12925206 -0.12262375 0.76100004 4287327823
0.13057773 -0.12262375 0.76100004 4286212352
0.13190338 -0.12262375 0.76100004 4280686080
0.13322905 -0.12262375 0.76100004 4278255662
0.1345547 -0.12262375 0.76100004 4278190124
0.13588037 -0.12262375 0.76100004 4278845445
0.13720603 -0.12262375 0.76100004 4279107592
0.13816762 -0.12230148 0.75900006 4283704576
0.1394898 -0.12230148 0.75900006 4288178744
0.14081198 -0.12230148 0.75900006 4287786520
0.14213416 -0.12230148 0.75900006 4287523348
0.14345634 -0.12230148 0.75900006 4284567320
0.14439701 -0.1219792 0.75700003 4283843340
0.14571571 -0.1219792 0.75700003 4284893993
0.14703439 -0.1219792 0.75700003 4285749559
0.1483531 -0.1219792 0.75700003 4284566272
0.14967178 -0.1219792 0.75700003 4279763712
0.15099049 -0.1219792 0.75700003 4283182096
0.15230916 -0.1219792 0.75700003 4287195469
0.15342493 -0.12181807 0.75600004 4286603520
0.15474187 -0.12181807 0.75600004 4282327040
0.15605883 -0.12181807 0.75600004 4281998617
0.15737578 -0.12181807 0.75600004 4283577650
0.15869273 -0.12181807 0.75600004 4285091072
0.16000968 -0.12181807 0.75600004 4286999051
0.16132665 -0.12181807 0.75600004 4286669312
0.1626436 -0.12181807 0.75600004 4281471744
0.16396053 -0.12181807 0.75600004 4280615168
0.1652775 -0.12181807 0.75600004 4281865232
0.16659445 -0.12181807 0.75600004 4281343767
0.1679114 -0.12181807 0.75600004 4281277974
0.16922835 -0.12181807 0.75600004 4281212976
0.17054531 -0.12181807 0.75600004 4281870906
0.17186226 -0.12181807 0.75600004 4281804336
0.17340827 -0.1219792 0.75700003 4283843663
0.17472698 -0.1219792 0.75700003 4284896603
0.17604566 -0.1219792 0.75700003 4284830810
0.17736436 -0.1219792 0.75700003 4283451205
0.093075067 -0.12432655 0.78000003 4283452502
0.094191693 -0.12400777 0.77800006 4281215540
0.095546968 -0.12400777 0.77800006 4281343808
0.096653134 -0.12368899 0.77600002 4280751928
0.09775234 -0.1233702 0.77400005 4280752426
0.099100649 -0.1233702 0.77400005 4281081390
0.10031918 -0.12321081 0.77300006 4280950306
0.1014027 -0.12289201 0.77100003 4279700239
0.10247926 -0.12257323 0.76900005 4278714386
0.10354884 -0.12225445 0.76700002 4278190081
0.10488496 -0.12225445 0.76700002 4278190080
0.10622107 -0.12225445 0.76700002 4278190080
0.10755718 -0.12225445 0.76700002 4278190080
0.1088933 -0.12225445 0.76700002 4278190080
0.11022941 -0.12225445 0.76700002 4278190080
0.11142007 -0.12209506 0.76600003 4278190080
0.11275445 -0.12209506 0.76600003 4278190080
0.11408882 -0.12209506 0.76600003 4278190080
0.11542319 -0.12209506 0.76600003 4278190080
0.11645272 -0.12177627 0.76400006 4278520576
0.11778361 -0.12177627 0.76400006 4278586112
0.1191145 -0.12177627 0.76400006 4280099331
0.12013007 -0.12145747 0.76200002 4280625664
0.12145747 -0.12145747 0.76200002 4280428544
0.12310716 -0.12177627 0.76400006 4279308312
0.12411229 -0.12145747 0.76200002 4278190081
0.12543969 -0.12145747 0.76200002 4278255616
0.1267671 -0.12145747 0.76200002 4282463032
0.12809451 -0.12145747 0.76200002 4284498974
0.1294219 -0.12145747 0.76200002 4285683247
0.1307493 -0.12145747 0.76200002 4284698136
0.13207671 -0.12145747 0.76200002 4280158464
0.13322905 -0.12129808 0.76100004 4278583305
0.1345547 -0.12129808 0.76100004 4278452230
0.13588037 -0.12129808 0.76100004 4278517760
0.13720603 -0.12129808 0.76100004 4279107840
0.1385317 -0.12129808 0.76100004 4284293888
0.13985737 -0.12129808 0.76100004 4288899384
0.14118302 -0.12129808 0.76100004 4287786557
0.14250869 -0.12129808 0.76100004 4287326006
0.14345634 -0.12097931 0.75900006 4286929957
0.1447785 -0.12097931 0.75900006 4286863908
0.14610069 -0.12097931 0.75900006 4286471996
0.14703439 -0.12066051 0.75700003 4286274873
0.1483531 -0.12066051 0.75700003 4284501765
0.15006723 -0.12097931 0.75900006 4280159232
0.15138941 -0.12097931 0.75900006 4282391297
0.15230916 -0.12066051 0.75700003 4286207291
0.15362787 -0.12066051 0.75700003 4284698919
0.15494657 -0.12066051 0.75700003 4278714368
0.15605883 -0.12050112 0.75600004 4279631872
0.15737578 -0.12050112 0.75600004 4285418820
0.15869273 -0.12050112 0.75600004 4286078720
0.16000968 -0.12050112 0.75600004 4287131392
0.16132665 -0.12050112 0.75600004 4286539008
0.1626436 -0.12050112 0.75600004 4281604352
0.16396053 -0.12050112 0.75600004 4279173120
0.16549611 -0.12066051 0.75700003 4281408025
0.1668148 -0.12066051 0.75700003 4281082142
0.1681335 -0.12066051 0.75700003 4280950556
0.16945221 -0.12066051 0.75700003 4281017394
0.17077088 -0.12066051 0.75700003 4281214773
0.17208959 -0.12066051 0.75700003 4281083437
0.17386644 -0.12097931 0.75900006 4284504929
0.1751886 -0.12097931 0.75900006 4285161099
0.093075067 -0.12296779 0.78000003 4283582290
0.094433829 -0.12296779 0.78000003 4281542706
0.095792592 -0.12296779 0.78000003 4281016390
0.096902244 -0.12265249 0.77800006 4280753474
0.09800493 -0.12233719 0.77600002 4280292651
0.099100649 -0.12202189 0.77400005 4280424493
0.10031918 -0.12186424 0.77300006 4280489242
0.10166574 -0.12186424 0.77300006 4279568140
0.10247926 -0.12123363 0.76900005 4280156193
0.10381886 -0.12123363 0.76900005 4281340210
0.10515846 -0.12123363 0.76900005 4282590477
0.10622107 -0.12091833 0.76700002 4284037923
0.10755718 -0.12091833 0.76700002 4284104231
0.1088933 -0.12091833 0.76700002 4284498733
0.11022941 -0.12091833 0.76700002 4284237364
0.11156553 -0.12091833 0.76700002 4284368951
0.11290164 -0.12091833 0.76700002 4284828231
0.11423776 -0.12091833 0.76700002 4284894025
0.11557388 -0.12091833 0.76700002 4284763706
0.11675756 -0.12076069 0.76600003 4284632120
0.11809193 -0.12076069 0.76600003 4284633124
0.1194263 -0.12076069 0.76600003 4285027882
0.12044539 -0.12044539 0.76400006 4284829220
0.12177627 -0.12044539 0.76400006 4283908118
0.12342943 -0.12076069 0.76600003 4283840569
0.12443805 -0.12044539 0.76400006 4283774776
0.12576893 -0.12044539 0.76400006 4283905079
0.12709983 -0.12044539 0.76400006 4283839286
0.12843071 -0.12044539 0.76400006 4284231454
0.12976159 -0.12044539 0.76400006 4284034076
0.13109249 -0.12044539 0.76400006 4284102435
0.13242337 -0.12044539 0.76400006 4282983697
0.13340411 -0.12013007 0.76200002 4282524461
0.13473152 -0.12013007 0.76200002 4282524461
0.13605893 -0.12013007 0.76200002 4282196260
0.13738634 -0.12013007 0.76200002 4281538329
0.13871373 -0.12013007 0.76200002 4283181568
0.14004113 -0.12013007 0.76200002 4283510532
0.14118302 -0.11997243 0.76100004 4283706624
0.14250869 -0.11997243 0.76100004 4283838464
0.14383434 -0.11997243 0.76100004 4283577856
0.14516 -0.11997243 0.76100004 4283906816
0.14648567 -0.11997243 0.76100004 4284236800
0.14742288 -0.11965713 0.75900006 4284829184
0.14874505 -0.11965713 0.75900006 4283910144
0.15046266 -0.11997243 0.76100004 4279304704
0.15138941 -0.11965713 0.75900006 4279173120
0.15271157 -0.11965713 0.75900006 4280026372
0.15403377 -0.11965713 0.75900006 4281074978
0.15535595 -0.11965713 0.75900006 4279959570
0.15667811 -0.11965713 0.75900006 4281603359
0.15800029 -0.11965713 0.75900006 4285814111
0.15890265 -0.11934181 0.75700003 4286405120
0.16022134 -0.11934181 0.75700003 4286931712
0.16154003 -0.11934181 0.75700003 4286144512
0.16285872 -0.11934181 0.75700003 4282394368
0.16417742 -0.11934181 0.75700003 4281014302
0.16593337 -0.11965713 0.75900006 4281474853
0.16725555 -0.11965713 0.75900006 4280950556
0.16857772 -0.11965713 0.75900006 4280687384
0.1698999 -0.11965713 0.75900006 4280360495
0.17122208 -0.11965713 0.75900006 4280689717
0.17299891 -0.11997243 0.76100004 4281672494
0.17432457 -0.11997243 0.76100004 4285488744
0.17565024 -0.11997243 0.76100004 4286210444
0.091833897 -0.12176494 0.78100002 4283778136
0.093194395 -0.12176494 0.78100002 4283645005
0.094433829 -0.12160904 0.78000003 4281868594
0.095792592 -0.12160904 0.78000003 4281148482
0.096902244 -0.12129722 0.77800006 4280227380
0.098257519 -0.12129722 0.77800006 4279700002
0.099356726 -0.1209854 0.77600002 4280686898
0.10044896 -0.12067357 0.77400005 4281673498
0.10166574 -0.12051767 0.77300006 4282002462
0.10274579 -0.12020585 0.77100003 4282788372
0.10408887 -0.12020585 0.77100003 4282919958
0.10543194 -0.12020585 0.77100003 4284363540
0.10649806 -0.11989404 0.76900005 4285547814
0.10783765 -0.11989404 0.76900005 4286467133
0.10917725 -0.11989404 0.76900005 4287125063
0.11051685 -0.11989404 0.76900005 4286602067
0.11185645 -0.11989404 0.76900005 4286602067
0.11319605 -0.11989404 0.76900005 4286863951
0.11423776 -0.11958221 0.76700002 4286863951
0.11557388 -0.11958221 0.76700002 4286929744
0.11690999 -0.11958221 0.76700002 4286534986
0.1182461 -0.11958221 0.76700002 4286730805
0.11958221 -0.11958221 0.76700002 4286730805
0.12076069 -0.1194263 0.76600003 4286598967
0.12209506 -0.1194263 0.76600003 4286598967
0.12342943 -0.1194263 0.76600003 4286402635
0.12476379 -0.1194263 0.76600003 4286073926
0.12609817 -0.1194263 0.76600003 4286073404
0.12743254 -0.1194263 0.76600003 4285810488
0.12876692 -0.1194263 0.76600003 4285414947
0.13010129 -0.1194263 0.76600003 4285349154
0.13143566 -0.1194263 0.76600003 4284759847
0.13277003 -0.1194263 0.76600003 4283641366
0.13375427 -0.1191145 0.76400006 4284033055
0.13508515 -0.1191145 0.76400006 4283704091
0.13641603 -0.1191145 0.76400006 4283179814
0.13774693 -0.1191145 0.76400006 4282587676
0.13907781 -0.1191145 0.76400006 4281473536
0.14004113 -0.11880267 0.76200002 4280881408
0.14136854 -0.11880267 0.76200002 4279175680
0.14269593 -0.11880267 0.76200002 4279044352
0.14402334 -0.11880267 0.76200002 4279570176
0.14535075 -0.11880267 0.76200002 4280096512
0.14667816 -0.11880267 0.76200002 4281473024
0.14781132 -0.11864676 0.76100004 4282130944
0.14913699 -0.11864676 0.76100004 4281410816
0.15046266 -0.11864676 0.76100004 4279042304
0.15178832 -0.11864676 0.76100004 4278321164
0.15311399 -0.11864676 0.76100004 4278255627
0.15443964 -0.11864676 0.76100004 4278648848
0.1557653 -0.11864676 0.76100004 4279437596
0.15709096 -0.11864676 0.76100004 4283048227
0.15800029 -0.11833494 0.75900006 4285613898
0.15932247 -0.11833494 0.75900006 4284763648
0.16064465 -0.11833494 0.75900006 4284895232
0.16196683 -0.11833494 0.75900006 4284632581
0.16328901 -0.11833494 0.75900006 4281737728
0.16504495 -0.11864676 0.76100004 4281080859
0.1663706 -0.11864676 0.76100004 4281278494
0.16769625 -0.11864676 0.76100004 4280621845
0.16902192 -0.11864676 0.76100004 4280292880
0.17034759 -0.11864676 0.76100004 4279964724
0.17189883 -0.11880267 0.76200002 4280951619
0.17322624 -0.11880267 0.76200002 4281281849
0.17455365 -0.11880267 0.76200002 4285755773
0.092069067 -0.12071277 0.78300005 4282595397
0.093194395 -0.12040444 0.78100002 4282659139
0.094554901 -0.12040444 0.78100002 4281804086
0.095915399 -0.12040444 0.78100002 4280886839
0.097151347 -0.12025028 0.78000003 4279702821
0.098257519 -0.11994194 0.77800006 4281404961
0.099356726 -0.11963361 0.77600002 4285352540
0.10044896 -0.11932527 0.77400005 4286537789
0.10179727 -0.11932527 0.77400005 4287195975
0.10301232 -0.11917111 0.77300006 4286735182
0.10435888 -0.11917111 0.77300006 4286406473
0.10570545 -0.11917111 0.77300006 4286864455
0.10677503 -0.11886277 0.77100003 4287061835
0.10811811 -0.11886277 0.77100003 4286994247
0.1094612 -0.11886277 0.77100003 4286928198
0.11080427 -0.11886277 0.77100003 4286666577
0.11214736 -0.11886277 0.77100003 4286469197
0.11349045 -0.11886277 0.77100003 4286337848
0.11453564 -0.11855444 0.76900005 4286403641
0.11587524 -0.11855444 0.76900005 4286599487
0.11690999 -0.1182461 0.76700002 4286336058
0.1182461 -0.1182461 0.76700002 4286270243
0.11958221 -0.1182461 0.76700002 4286138656
0.12091833 -0.1182461 0.76700002 4286269220
0.12225445 -0.1182461 0.76700002 4286466856
0.12359056 -0.1182461 0.76700002 4286401853
0.12492666 -0.1182461 0.76700002 4285744180
0.12626278 -0.1182461 0.76700002 4285809442
0.12743254 -0.11809193 0.76600003 4285809442
0.12876692 -0.11809193 0.76600003 4285743900
0.13010129 -0.11809193 0.76600003 4285743900
0.13143566 -0.11809193 0.76600003 4285612594
0.13277003 -0.11809193 0.76600003 4285678387
0.1341044 -0.11809193 0.76600003 4285480990
0.13543877 -0.11809193 0.76600003 4285283611
0.13641603 -0.11778361 0.76400006 4285022520
0.13774693 -0.11778361 0.76400006 4284956726
0.13907781 -0.11778361 0.76400006 4284301342
0.14040869 -0.11778361 0.76400006 4284432929
0.14173959 -0.11778361 0.76400006 4284104983
0.14307047 -0.11778361 0.76400006 4283512590
0.14440137 -0.11778361 0.76400006 4283313191
0.14573225 -0.11778361 0.76400006 4283050276
0.14667816 -0.11747527 0.76200002 4283179562
0.14800556 -0.11747527 0.76200002 4282916389
0.14933297 -0.11747527 0.76200002 4282655014
0.15066037 -0.11747527 0.76200002 4281931291
0.15198776 -0.11747527 0.76200002 4279501872
0.15331517 -0.11747527 0.76200002 4279042089
0.15464258 -0.11747527 0.76200002 4279894561
0.1557653 -0.1173211 0.76100004 4280881712
0.15709096 -0.1173211 0.76100004 4281864721
0.15841663 -0.1173211 0.76100004 4282061843
0.1597423 -0.1173211 0.76100004 4282192396
0.16106795 -0.1173211 0.76100004 4282192396
0.16239361 -0.1173211 0.76100004 4281472023
0.16371928 -0.1173211 0.76100004 4280682507
0.16504495 -0.1173211 0.76100004 4280685842
0.16658922 -0.11747527 0.76200002 4281080343
0.16791663 -0.11747527 0.76200002 4280621341
0.16924404 -0.11747527 0.76200002 4280555548
0.17057143 -0.11747527 0.76200002 4280359493
0.17235002 -0.11778361 0.76400006 4281017423
0.17368092 -0.11778361 0.76400006 4282659139
0.1750118 -0.11778361 0.76400006 4286738305
0.092069067 -0.11934879 0.78300005 4281743179
0.093194395 -0.11904394 0.78100002 4281740617
0.094554901 -0.11904394 0.78100002 4281477445
0.095915399 -0.11904394 0.78100002 4281017923
0.097151347 -0.11889151 0.78000003 4279044133
0.098510109 -0.11889151 0.78000003 4282125086
0.099612795 -0.11858667 0.77800006 4287322733
0.10070851 -0.11828181 0.77600002 4287192905
0.10179727 -0.11797697 0.77400005 4287192905
0.10314557 -0.11797697 0.77400005 4287127109
0.10449389 -0.11797697 0.77400005 4286929987
0.10570545 -0.11782454 0.77300006 4286929735
0.10705201 -0.11782454 0.77300006 4286863942
0.10839858 -0.11782454 0.77300006 4286928450
0.10974514 -0.11782454 0.77300006 4286796863
0.11109171 -0.11782454 0.77300006 4286665543
0.11214736 -0.11751968 0.77100003 4286468164
0.11349045 -0.11751968 0.77100003 4286468151
0.11483352 -0.11751968 0.77100003 4286533944
0.11617661 -0.11751968 0.77100003 4286336310
0.11721484 -0.11721484 0.76900005 4286073395
0.11855444 -0.11721484 0.76900005 4286204197
0.11989404 -0.11721484 0.76900005 4286006818
0.12091833 -0.11690999 0.76700002 4286137119
0.12225445 -0.11690999 0.76700002 4286334754
0.12391283 -0.11721484 0.76900005 4286138416
0.12492666 -0.11690999 0.76700002 4285414949
0.12626278 -0.11690999 0.76700002 4285938463
0.1275989 -0.11690999 0.76700002 4286070049
0.12893501 -0.11690999 0.76700002 4285938463
0.13027112 -0.11690999 0.76700002 4285938463
0.13160723 -0.11690999 0.76700002 4286003754
0.13294336 -0.11690999 0.76700002 4286332719
0.13427947 -0.11690999 0.76700002 4286334254
0.13561559 -0.11690999 0.76700002 4285741861
0.13677315 -0.11675756 0.76600003 4285676084
0.13810752 -0.11675756 0.76600003 4285676084
0.13944189 -0.11675756 0.76600003 4285676070
0.14077626 -0.11675756 0.76600003 4285807656
0.14211063 -0.11675756 0.76600003 4285609771
0.143445 -0.11675756 0.76600003 4285412648
0.14477937 -0.11675756 0.76600003 4285346853
0.14611375 -0.11675756 0.76600003 4285478696
0.14744812 -0.11675756 0.76600003 4284692785
0.14878249 -0.11675756 0.76600003 4284100647
0.14972492 -0.11645272 0.76400006 4283049511
0.1510558 -0.11645272 0.76400006 4282720289
0.1523867 -0.11645272 0.76400006 4282261789
0.15371758 -0.11645272 0.76400006 4281209102
0.15464258 -0.11614786 0.76200002 4280620048
0.15596999 -0.11614786 0.76200002 4280685842
0.15729739 -0.11614786 0.76200002 4281076752
0.1586248 -0.11614786 0.76200002 4281076752
0.15995219 -0.11614786 0.76200002 4280487173
0.1612796 -0.11614786 0.76200002 4280158464
0.162607 -0.11614786 0.76200002 4280355843
0.16393441 -0.11614786 0.76200002 4281145359
0.16526182 -0.11614786 0.76200002 4280884513
0.16658922 -0.11614786 0.76200002 4280687134
0.16835734 -0.11645272 0.76400006 4280884513
0.16968824 -0.11645272 0.76400006 4280752927
0.17101914 -0.11645272 0.76400006 4280228414
0.1728012 -0.11675756 0.76600003 4281280845
0.17413557 -0.11675756 0.76600003 4282859348
0.17546993 -0.11675756 0.76600003 4286148998
0.093433052 -0.11798481 0.78300005 4282332238
0.094797038 -0.11798481 0.78300005 4281740101
0.096161023 -0.11798481 0.78300005 4280427081
0.097275905 -0.11768343 0.78100002 4278584877
0.098510109 -0.11753275 0.78000003 4282782752
0.099868871 -0.11753275 0.78000003 4287519848
0.10096807 -0.11723139 0.77800006 4287256869
0.1020603 -0.11693002 0.77600002 4286796318
0.1034121 -0.11693002 0.77600002 4286599218
0.10449389 -0.11662865 0.77400005 4286665012
0.10584219 -0.11662865 0.77400005 4286534196
0.10705201 -0.11647797 0.77300006 4286534196
0.10839858 -0.11647797 0.77300006 4286665012
0.10974514 -0.11647797 0.77300006 4286665012
0.11109171 -0.11647797 0.77300006 4286599218
0.11243827 -0.11647797 0.77300006 4286467889
0.11378484 -0.11647797 0.77300006 4286598703
0.11513142 -0.11647797 0.77300006 4286598703
0.11647797 -0.11647797 0.77300006 4286467117
0.11751968 -0.11617661 0.77100003 4286269995
0.11886277 -0.11617661 0.77100003 4286269220
0.12020585 -0.11617661 0.77100003 4286137891
0.12154894 -0.11617661 0.77100003 4286202401
0.12289201 -0.11617661 0.77100003 4286465572
0.1242351 -0.11617661 0.77100003 4286334756
0.12525243 -0.11587524 0.76900005 4285479447
0.12659203 -0.11587524 0.76900005 4285676059
0.12793162 -0.11587524 0.76900005 4285807645
0.12927122 -0.11587524 0.76900005 4285939226
0.13061082 -0.11587524 0.76900005 4285544468
0.13195042 -0.11587524 0.76900005 4285609250
0.13329001 -0.11587524 0.76900005 4285740580
0.13462962 -0.11587524 0.76900005 4285740318
0.13596922 -0.11587524 0.76900005 4285740318
0.1369517 -0.11557388 0.76700002 4285280547
0.13828781 -0.11557388 0.76700002 4285083167
0.13962393 -0.11557388 0.76700002 4285083417
0.14096004 -0.11557388 0.76700002 4285083417
0.14229615 -0.11557388 0.76700002 4285018145
0.14363226 -0.11557388 0.76700002 4284820509
0.14496839 -0.11557388 0.76700002 4284951316
0.1463045 -0.11557388 0.76700002 4285082902
0.14744812 -0.11542319 0.76600003 4284691740
0.14878249 -0.11542319 0.76600003 4284889118
0.15011686 -0.11542319 0.76600003 4284495421
0.15145123 -0.11542319 0.76600003 4284495421
0.1527856 -0.11542319 0.76600003 4284168991
0.15411998 -0.11542319 0.76600003 4284366370
0.15504847 -0.11512183 0.76400006 4283578907
0.15637936 -0.11512183 0.76400006 4282460170
0.15812311 -0.11542319 0.76600003 4281800482
0.15945747 -0.11542319 0.76600003 4281208602
0.16079184 -0.11542319 0.76600003 4280685321
0.16212621 -0.11542319 0.76600003 4278976512
0.1634606 -0.11542319 0.76600003 4279697939
0.16479497 -0.11542319 0.76600003 4281145641
0.16612934 -0.11542319 0.76600003 4280884513
0.1674637 -0.11542319 0.76600003 4280621341
0.16879807 -0.11542319 0.76600003 4280359720
0.17013244 -0.11542319 0.76600003 4280556843
0.17146683 -0.11542319 0.76600003 4280425786
0.1728012 -0.11542319 0.76600003 4282399576
0.17413557 -0.11542319 0.76600003 4283713378
0.17569901 -0.11557388 0.76700002 4286476684
0.093671709 -0.11691869 0.78500003 4282860127
0.095039174 -0.11691869 0.78500003 4282267990
0.096161023 -0.11662082 0.78300005 4280230210
0.097275905 -0.11632293 0.78100002 4278650922
0.098636404 -0.11632293 0.78100002 4283703059
0.099868871 -0.11617399 0.78000003 4287584847
0.10096807 -0.11587612 0.77800006 4286994747
0.10232335 -0.11587612 0.77800006 4286534196
0.1034121 -0.11557822 0.77600002 4286534446
0.10449389 -0.11528035 0.77400005 4286534446
0.10584219 -0.11528035 0.77400005 4286598703
0.1071905 -0.11528035 0.77400005 4286598703
0.10853881 -0.11528035 0.77400005 4286599468
0.10974514 -0.11513142 0.77300006 4286599468
0.11109171 -0.11513142 0.77300006 4286533162
0.11243827 -0.11513142 0.77300006 4286336040
0.11378484 -0.11513142 0.77300006 4286532397
0.11513142 -0.11513142 0.77300006 4286466604
0.11647797 -0.11513142 0.77300006 4286400557
0.11782454 -0.11513142 0.77300006 4286137641
0.11917111 -0.11513142 0.77300006 4286202401
0.12020585 -0.11483352 0.77100003 4286136608
0.12154894 -0.11483352 0.77100003 4286332704
0.12289201 -0.11483352 0.77100003 4286727461
0.1242351 -0.11483352 0.77100003 4286728749
0.12525243 -0.11453564 0.76900005 4285610012
0.12659203 -0.11453564 0.76900005 4285609246
0.12793162 -0.11453564 0.76900005 4286201383
0.12927122 -0.11453564 0.76900005 4286070824
0.13061082 -0.11453564 0.76900005 4285215515
0.13195042 -0.11453564 0.76900005 4285410850
0.13329001 -0.11453564 0.76900005 4285410850
0.13462962 -0.11453564 0.76900005 4285410850
0.13596922 -0.11453564 0.76900005 4285213470
0.13730881 -0.11453564 0.76900005 4284950303
0.13864842 -0.11453564 0.76900005 4284950303
0.13998801 -0.11453564 0.76900005 4284818710
0.14096004 -0.11423776 0.76700002 4284950553
0.14229615 -0.11423776 0.76700002 4284886050
0.14363226 -0.11423776 0.76700002 4284886050
0.14496839 -0.11423776 0.76700002 4284557069
0.1463045 -0.11423776 0.76700002 4284557069
0.14764062 -0.11423776 0.76700002 4284556819
0.14897671 -0.11423776 0.76700002 4284754455
0.15031283 -0.11423776 0.76700002 4284624693
0.15164895 -0.11423776 0.76700002 4284756279
0.15338399 -0.11453564 0.76900005 4284952609
0.15472358 -0.11453564 0.76900005 4285216037
0.15565729 -0.11423776 0.76700002 4284561198
0.15699342 -0.11423776 0.76700002 4284034854
0.15832953 -0.11423776 0.76700002 4283312939
0.15966563 -0.11423776 0.76700002 4281536785
0.16100174 -0.11423776 0.76700002 4281010944
0.16233787 -0.11423776 0.76700002 4279697408
0.16367398 -0.11423776 0.76700002 4279631877
0.16501009 -0.11423776 0.76700002 4281341214
0.16612934 -0.11408882 0.76600003 4280884261
0.1674637 -0.11408882 0.76600003 4280555296
0.16879807 -0.11408882 0.76600003 4280358950
0.17013244 -0.11408882 0.76600003 4280490536
0.17169066 -0.11423776 0.76700002 4280820019
0.17302677 -0.11423776 0.76700002 4283254103
0.1743629 -0.11423776 0.76700002 4284107884
0.17615716 -0.11453564 0.76900005 4286213003
0.093910359 -0.11584563 0.78700006 4283189092
0.095039174 -0.11555123 0.78500003 4282728541
0.096161023 -0.11525683 0.78300005 4280885837
0.097275905 -0.11496242 0.78100002 4279109426
0.098636404 -0.11496242 0.78100002 4282585357
0.099868871 -0.11481524 0.78000003 4284888112
0.10122763 -0.11481524 0.78000003 4286070049
0.10232335 -0.11452084 0.77800006 4286925358
0.10367863 -0.11452084 0.77800006 4286532145
0.1047639 -0.11422643 0.77600002 4286729523
0.10584219 -0.11393204 0.77400005 4286599218
0.1071905 -0.11393204 0.77400005 4286599218
0.10853881 -0.11393204 0.77400005 4286599468
0.10988712 -0.11393204 0.77400005 4286599468
0.11123542 -0.11393204 0.77400005 4286730516
0.11258373 -0.11393204 0.77400005 4286401551
0.11378484 -0.11378484 0.77300006 4286269741
0.11513142 -0.11378484 0.77300006 4286269741
0.11647797 -0.11378484 0.77300006 4286269993
0.11782454 -0.11378484 0.77300006 4286138406
0.11917111 -0.11378484 0.77300006 4286269713
0.12051767 -0.11378484 0.77300006 4286072077
0.12186424 -0.11378484 0.77300006 4286071062
0.12289201 -0.11349045 0.77100003 4286202905
0.1242351 -0.11349045 0.77100003 4286137112
0.12557818 -0.11349045 0.77100003 4285149960
0.12692127 -0.11349045 0.77100003 4285411363
0.12826434 -0.11349045 0.77100003 4285608998
0.12960742 -0.11349045 0.77100003 4285543957
0.13095051 -0.11349045 0.77100003 4284951564
0.13195042 -0.11319605 0.76900005 4284950816
0.13329001 -0.11319605 0.76900005 4285016609
0.13462962 -0.11319605 0.76900005 4284950303
0.13596922 -0.11319605 0.76900005 4284752667
0.13730881 -0.11319605 0.76900005 4284622115
0.13864842 -0.11319605 0.76900005 4284753701
0.13998801 -0.11319605 0.76900005 4284688912
0.14132762 -0.11319605 0.76900005 4284228361
0.1426672 -0.11319605 0.76900005 4284097556
0.1440068 -0.11319605 0.76900005 4284294935
0.1453464 -0.11319605 0.76900005 4284556810
0.14706749 -0.11349045 0.77100003 4284556810
0.14802559 -0.11319605 0.76900005 4284031507
0.1493652 -0.11319605 0.76900005 4283965713
0.15070479 -0.11319605 0.76900005 4284162856
0.1520444 -0.11319605 0.76900005 4284360492
0.15338399 -0.11319605 0.76900005 4284623118
0.15472358 -0.11319605 0.76900005 4284359947
0.1560632 -0.11319605 0.76900005 4284230941
0.15740278 -0.11319605 0.76900005 4286204731
0.15874238 -0.11319605 0.76900005 4285682493
0.15966563 -0.11290164 0.76700002 4284827185
0.16100174 -0.11290164 0.76700002 4284367635
0.16233787 -0.11290164 0.76700002 4283183618
0.16367398 -0.11290164 0.76700002 4282789155
0.16501009 -0.11290164 0.76700002 4281538831
0.16634621 -0.11290164 0.76700002 4280622636
0.16768232 -0.11290164 0.76700002 4280491050
0.16901845 -0.11290164 0.76700002 4280162367
0.17035455 -0.11290164 0.76700002 4280885833
0.17213836 -0.11319605 0.76900005 4281084470
0.17347796 -0.11319605 0.76900005 4283189846
0.17481756 -0.11319605 0.76900005 4284962146
0.094029687 -0.11462013 0.78800005 4282794588
0.09528131 -0.11447468 0.78700006 4282399830
0.096406646 -0.11418375 0.78500003 4281742148
0.097525015 -0.11389284 0.78300005 4280426288
0.098636404 -0.11360192 0.78100002 4281603609
0.099996902 -0.11360192 0.78100002 4282919469
0.10122763 -0.11345647 0.78000003 4284491017
0.10258639 -0.11345647 0.78000003 4285872670
0.10367863 -0.11316556 0.77800006 4286729497
0.1050339 -0.11316556 0.77800006 4286861082
0.10638918 -0.11316556 0.77800006 4286664748
0.10746747 -0.11287465 0.77600002 4286664748
0.10881927 -0.11287465 0.77600002 4286468652
0.10988712 -0.11258373 0.77400005 4286534446
0.11123542 -0.11258373 0.77400005 4286534196
0.11258373 -0.11258373 0.77400005 4286139438
0.11393204 -0.11258373 0.77400005 4286269993
0.11528035 -0.11258373 0.77400005 4286204199
0.11662865 -0.11258373 0.77400005 4286269220
0.11797697 -0.11258373 0.77400005 4286269220
0.11917111 -0.11243827 0.77300006 4286269220
0.12051767 -0.11243827 0.77300006 4285940512
0.12186424 -0.11243827 0.77300006 4285874203
0.12321081 -0.11243827 0.77300006 4285939996
0.12455737 -0.11243827 0.77300006 4286003486
0.12590393 -0.11243827 0.77300006 4285411606
0.12725051 -0.11243827 0.77300006 4285541918
0.12859707 -0.11243827 0.77300006 4285607711
0.12994364 -0.11243827 0.77300006 4285346062
0.13129021 -0.11243827 0.77300006 4284951305
0.1322936 -0.11214736 0.77100003 4284885019
0.13363667 -0.11214736 0.77100003 4284885019
0.13497975 -0.11214736 0.77100003 4284884760
0.13632283 -0.11214736 0.77100003 4284752917
0.13802303 -0.11243827 0.77300006 4284688158
0.13936961 -0.11243827 0.77300006 4284753951
0.14071617 -0.11243827 0.77300006 4284295948
0.14169516 -0.11214736 0.77100003 4283835397
0.14303824 -0.11214736 0.77100003 4284031507
0.14438133 -0.11214736 0.77100003 4284163349
0.14572442 -0.11214736 0.77100003 4284491017
0.14706749 -0.11214736 0.77100003 4284622603
0.14841057 -0.11214736 0.77100003 4284097804
0.14975365 -0.11214736 0.77100003 4283900424
0.15109675 -0.11214736 0.77100003 4283966997
0.15243983 -0.11214736 0.77100003 4284098839
0.1537829 -0.11214736 0.77100003 4284556556
0.15472358 -0.11185645 0.76900005 4284162054
0.1560632 -0.11185645 0.76900005 4283768073
0.15740278 -0.11185645 0.76900005 4286268207
0.15874238 -0.11185645 0.76900005 4286209860
0.16008198 -0.11185645 0.76900005 4286144067
0.16142158 -0.11185645 0.76900005 4284696617
0.16276118 -0.11185645 0.76900005 4284762666
0.16410078 -0.11185645 0.76900005 4283512374
0.16544037 -0.11185645 0.76900005 4282788651
0.16677998 -0.11185645 0.76900005 4280033579
0.16811956 -0.11185645 0.76900005 4279375905
0.16945916 -0.11185645 0.76900005 4279111727
0.17079876 -0.11185645 0.76900005 4280559173
0.17258605 -0.11214736 0.77100003 4281020222
0.17392914 -0.11214736 0.77100003 4283981163
0.17527221 -0.11214736 0.77100003 4285358728
0.17707345 -0.11243827 0.77300006 4285358728
0.094029687 -0.11324743 0.78800005 4282200400
0.095402382 -0.11324743 0.78800005 4282266193
0.096652269 -0.11310373 0.78700006 4282132795
0.097774118 -0.11281629 0.78500003 4281804086
0.098889001 -0.11252886 0.78300005 4283375153
0.099996902 -0.11224142 0.78100002 4284427841
0.10135741 -0.11224142 0.78100002 4285276965
0.10258639 -0.11209772 0.78000003 4285869102
