# .PCD v0.7 - Point Cloud Data file format
VERSION 0.7
FIELDS x y z
SIZE 4 4 4
TYPE F F F
COUNT 1 1 1
WIDTH 1401
HEIGHT 1
VIEWPOINT 0 0 0 1 0 0 0
POINTS 1401
DATA ascii
0.13747586 -0.087317348 0.80783266
0.13858148 -0.08720053 0.80776578
0.14001954 -0.087050006 0.80768001
0.14167126 -0.086880416 0.80758446
0.14346175 -0.086702719 0.80748653
0.14534488 -0.086525805 0.80739254
0.14747472 -0.086342804 0.80730164
0.14962983 -0.086182378 0.80723214
0.15180299 -0.08605361 0.80719197
0.15398845 -0.085967049 0.80719036
0.15618066 -0.085935362 0.80723876
0.15837306 -0.085974313 0.80735111
0.16055644 -0.086104155 0.80754548
0.16271658 -0.086351678 0.80784559
0.16482991 -0.086753078 0.80828339
0.16685605 -0.087356895 0.80890143
0.16872653 -0.088223733 0.80975217
0.17033696 -0.089411527 0.81088448
0.17157361 -0.090933651 0.8123064
0.17240255 -0.092731819 0.81396395
0.17293148 -0.094780371 0.81583768
0.17318903 -0.096217901 0.81714857
0.14185289 -0.11433835 0.83245677
0.14295828 -0.11422013 0.83238858
0.14439559 -0.11406501 0.83229864
0.1460454 -0.11388366 0.83219236
0.14783187 -0.11368112 0.83207178
0.14970759 -0.11345847 0.83193606
0.15182361 -0.11319014 0.8317675
0.15395686 -0.11289472 0.83157492
0.15609746 -0.11256494 0.83135158
0.15823649 -0.11219181 0.83108884
0.16036458 -0.11176425 0.83077645
0.16247034 -0.11126842 0.83040148
0.16453844 -0.11068664 0.82994735
0.16654663 -0.10999603 0.82939249
0.16846058 -0.10916653 0.82870859
0.17022581 -0.10815969 0.82785887
0.17175689 -0.10693127 0.82680023
0.17293449 -0.10544711 0.82549763
0.17364451 -0.10371806 0.82395673
0.17387268 -0.10180752 0.82223457
0.17373127 -0.099717773 0.82033712
0.17352226 -0.098275088 0.81902331
0.13726041 -0.11482653 0.83273739
0.13615479 -0.11494334 0.83280432
0.13471672 -0.11509386 0.83289003
0.13306502 -0.11526346 0.83298558
0.13127451 -0.11544116 0.83308357
0.12939139 -0.11561807 0.83317757
0.12726155 -0.11580107 0.8332684
0.12510642 -0.1159615 0.8333379
0.12293327 -0.11609027 0.83337814
0.12074781 -0.11617683 0.83337969
0.1185556 -0.11620852 0.83333129
0.11636321 -0.11616956 0.83321893
0.11417983 -0.11603972 0.83302462
0.11201969 -0.1157922 0.83272451
0.10990635 -0.1153908 0.83228672
0.1078802 -0.11478698 0.83166867
0.10600973 -0.11392014 0.83081788
0.10439931 -0.11273235 0.82968563
0.10316265 -0.11121023 0.8282637
0.10233372 -0.10941205 0.82660609
0.10180479 -0.1073635 0.82473236
0.10154724 -0.10592598 0.82342148
0.13288338 -0.087805524 0.80811334
0.13177799 -0.087923735 0.80818152
0.13034068 -0.088078864 0.80827147
0.12869087 -0.088260219 0.80837768
0.1269044 -0.088462748 0.80849826
0.12502867 -0.088685401 0.80863398
0.12291265 -0.088953733 0.8088026
0.12077941 -0.089249156 0.80899513
0.11863881 -0.089578934 0.80921853
0.11649977 -0.089952067 0.8094812
0.11437168 -0.090379626 0.80979359
0.11226593 -0.090875462 0.81016862
0.11019782 -0.091457233 0.81062275
0.10818963 -0.09214785 0.81117755
0.10627569 -0.092977345 0.81186146
0.10451045 -0.093984187 0.81271118
0.10297937 -0.095212609 0.81376982
0.10180178 -0.096696764 0.81507248
0.10109176 -0.09842582 0.81661332
0.10086359 -0.10033636 0.81833547
0.101005 -0.1024261 0.82023293
0.10121401 -0.10386879 0.82154679
0.13747512 -0.087408938 0.80791676
0.13857333 -0.087292902 0.8078503
0.14000174 -0.087143391 0.80776513
0.14164239 -0.086974934 0.80767024
0.14342089 -0.086798429 0.80757296
0.1452914 -0.0866227 0.80747956
0.14740697 -0.086440928 0.80738932
0.14954764 -0.086281575 0.8073203
0.15170623 -0.086153671 0.80728036
0.15387703 -0.086067684 0.80727881
0.15605457 -0.086036213 0.80732685
0.15823226 -0.086074904 0.80743843
0.160401 -0.086203873 0.80763149
0.16254666 -0.086449742 0.80792958
0.16464584 -0.086848453 0.80836445
0.1666584 -0.087448224 0.80897838
0.16851635 -0.088309251 0.80982345
0.17011598 -0.08948908 0.81094813
0.17134434 -0.091001004 0.81236053
0.17216772 -0.092787124 0.81400698
0.1726931 -0.094821945 0.81586814
0.17294893 -0.096249841 0.81717026
0.1418228 -0.11424885 0.83237582
0.14292079 -0.11413143 0.83230811
0.14434847 -0.11397734 0.83221877
0.14598723 -0.1137972 0.83211321
0.14776172 -0.11359602 0.83199346
0.14962487 -0.11337487 0.83185863
0.15172671 -0.11310833 0.83169121
0.15384565 -0.11281489 0.83149993
0.1559719 -0.11248732 0.83127803
0.15809661 -0.11211669 0.83101708
0.16021045 -0.111692 0.83070683
0.16230208 -0.11119948 0.83033431
0.16435634 -0.11062162 0.82988322
0.16635105 -0.10993563 0.82933211
0.16825217 -0.10911169 0.8286528
0.17000557 -0.1081116 0.8278088
0.17152639 -0.10689141 0.82675725
0.1726961 -0.1054172 0.82546329
0.17340136 -0.10369973 0.82393277
0.173628 -0.101802 0.82222217
0.17348753 -0.09972626 0.82033741
0.17327993 -0.098293237 0.81903237
0.13726111 -0.11473376 0.8326546
0.13616289 -0.11484978 0.83272105
0.13473447 -0.1149993 0.83280623
0.13309383 -0.11516776 0.83290112
0.13131534 -0.11534426 0.83299845
0.12944482 -0.11551999 0.8330918
0.12732926 -0.11570176 0.83318204
0.12518859 -0.11586112 0.83325112
0.12302999 -0.11598902 0.83329105
0.12085918 -0.116075 0.8332926
0.11868165 -0.11610647 0.8332445
0.11650397 -0.11606778 0.83313292
0.11433522 -0.11593882 0.83293986
0.11218955 -0.11569295 0.83264178
0.11009037 -0.11529424 0.8322069
0.10807782 -0.11469447 0.83159304
0.10621987 -0.11383344 0.83074796
0.10462025 -0.11265361 0.82962322
0.10339188 -0.11114168 0.82821089
0.1025685 -0.10935557 0.82656443
0.10204311 -0.10732074 0.82470322
0.10178729 -0.10589285 0.82340109
0.13291343 -0.087893844 0.80819553
0.13181543 -0.088011265 0.8082633
0.13038775 -0.08816535 0.80835265
0.128749 -0.08834549 0.80845815
0.12697449 -0.088546664 0.80857795
0.12511136 -0.088767827 0.80871272
0.12300951 -0.089034356 0.80888021
0.12089057 -0.089327797 0.80907142
0.11876431 -0.08965537 0.80929333
0.11663961 -0.090025999 0.80955428
0.11452578 -0.090450689 0.80986458
0.11243414 -0.09094321 0.81023705
0.11037989 -0.091521077 0.81068814
0.10838517 -0.092207067 0.81123924
0.10648405 -0.093031004 0.81191856
0.10473064 -0.094031096 0.81276262
0.10320982 -0.095251285 0.81381416
0.10204011 -0.096725494 0.81510806
0.10133486 -0.098442957 0.81663859
0.10110822 -0.10034069 0.81834924
0.10124869 -0.10241643 0.82023394
0.10145628 -0.10384945 0.82153898
0.13747437 -0.087500617 0.80800086
0.13856518 -0.087385371 0.80793482
0.13998395 -0.087236866 0.80785018
0.14161353 -0.087069541 0.80775595
0.14338002 -0.086894229 0.80765933
0.14523791 -0.086719692 0.80756658
0.1473392 -0.086539142 0.80747694
0.14946543 -0.086380862 0.80740833
0.15160945 -0.086253822 0.8073687
0.1537656 -0.086168416 0.80736715
0.15592843 -0.086137161 0.80741489
0.15809143 -0.086175591 0.80752575
0.16024554 -0.086303689 0.80771744
0.16237673 -0.086547896 0.80801356
0.16446175 -0.08694391 0.80844545
0.16646072 -0.087539643 0.80905527
0.16830613 -0.088394858 0.80989462
0.16989495 -0.089566723 0.81101173
0.17111504 -0.091068447 0.81241459
0.17193285 -0.092842512 0.8140499
0.1724547 -0.094863601 0.81589854
0.17270879 -0.096281856 0.81719184
0.14179271 -0.1141594 0.83229482
0.1428833 -0.11404277 0.83222753
0.14430134 -0.11388972 0.83213878
0.14592904 -0.1137108 0.83203399
0.14769156 -0.11351098 0.83191502
0.14954214 -0.11329132 0.83178115
0.15162979 -0.11302658 0.83161479
0.15373443 -0.11273512 0.83142483
0.15584634 -0.11240976 0.83120441
0.1579567 -0.11204164 0.83094525
0.16005626 -0.11161981 0.83063704
0.1621338 -0.11113062 0.83026707
0.16417418 -0.11055665 0.82981902
0.16615544 -0.10987528 0.82927167
0.16804373 -0.1090569 0.82859695
0.16978531 -0.10806356 0.82775855
0.17129585 -0.10685162 0.82671416
0.17245767 -0.10538735 0.82542896
0.17315817 -0.10368147 0.82390875
0.17338328 -0.10179655 0.82220966
0.17324376 -0.09973482 0.82033765
0.17303756 -0.098311469 0.81904143
0.13726181 -0.11464103 0.83257169
0.136171 -0.11475628 0.83263773
0.13475223 -0.11490478 0.83272231
0.13312265 -0.11507211 0.83281654
0.13135615 -0.11524742 0.83291322
0.12949827 -0.11542197 0.83300596
0.12739699 -0.11560251 0.83309561
0.12527075 -0.11576079 0.83316416
0.12312673 -0.11588783 0.83320385
0.12097057 -0.11597323 0.8332054
0.11880774 -0.11600449 0.83315766
0.11664475 -0.11596606 0.83304679
0.11449064 -0.11583796 0.83285505
0.11235945 -0.11559375 0.83255899
0.11027444 -0.11519774 0.83212703
0.10827546 -0.11460201 0.83151728
0.10643005 -0.11374679 0.83067793
0.10484122 -0.11257493 0.82956082
0.10362114 -0.1110732 0.82815796
0.10280333 -0.10929914 0.82652259
0.10228148 -0.10727805 0.82467395
0.10202739 -0.10585979 0.82338065
0.13294347 -0.087982252 0.80827773
0.13185288 -0.088098884 0.80834496
0.13043484 -0.088251926 0.80843371
0.12880714 -0.088430852 0.80853856
0.12704462 -0.088630669 0.80865753
0.12519404 -0.088850334 0.8087914
0.12310639 -0.089115068 0.80895776
0.12100174 -0.089406535 0.80914772
0.11888984 -0.089731887 0.80936807
0.11677948 -0.090100013 0.80962729
0.11467991 -0.090521842 0.80993545
0.11260238 -0.09101104 0.81030542
0.110562 -0.09158501 0.81075346
0.10858074 -0.092266366 0.81130087
0.10669245 -0.093084745 0.8119756
0.10495088 -0.094078086 0.81281394
0.10344032 -0.095290035 0.81385839
0.10227851 -0.096754298 0.81514359
0.10157801 -0.098460175 0.8166638
0.1013529 -0.1003451 0.81836283
0.10149241 -0.10240684 0.82023484
0.10169862 -0.10383018 0.82153112
0.13747363 -0.087592378 0.80808485
0.13855702 -0.087477915 0.80801928
0.13996616 -0.087330416 0.80793524
0.14158466 -0.087164231 0.80784166
0.14333914 -0.086990111 0.80774564
0.14518441 -0.086816758 0.80765349
0.14727142 -0.086637437 0.8075645
0.14938319 -0.086480238 0.80749637
0.15151265 -0.086354055 0.80745697
0.15365416 -0.086269237 0.80745548
0.15580229 -0.086238191 0.80750287
0.15795058 -0.086276352 0.80761296
0.16009006 -0.086403579 0.80780339
0.16220675 -0.086646132 0.80809748
0.1642776 -0.087039456 0.80852646
0.166263 -0.087631136 0.8091321
0.16809586 -0.08848054 0.80996573
0.16967389 -0.089644447 0.81107527
0.17088568 -0.091135964 0.81246859
0.17169794 -0.092897974 0.81409281
0.17221624 -0.094905324 0.81592888
0.1724686 -0.096313946 0.81721342
0.14176263 -0.11407 0.8322137
0.14284579 -0.11395416 0.83214688
0.14425421 -0.11380215 0.83205873
0.14587083 -0.11362445 0.83195466
0.14762139 -0.11342598 0.83183646
0.14945939 -0.11320781 0.83170354
0.15153286 -0.11294488 0.83153832
0.15362319 -0.11265539 0.83134961
0.15572076 -0.11233225 0.83113074
0.15781677 -0.11196662 0.83087331
0.15990207 -0.11154766 0.83056724
0.16196547 -0.11106179 0.83019978
0.16399199 -0.11049172 0.82975477
0.16595979 -0.10981499 0.82921112
0.16783525 -0.10900218 0.82854092
0.16956499 -0.10801559 0.8277083
0.17106527 -0.10681187 0.82667094
0.1722192 -0.10535756 0.82539451
0.17291494 -0.10366327 0.82388461
0.17313851 -0.10179116 0.82219708
0.17299995 -0.099743441 0.82033783
0.17279515 -0.09832976 0.81905037
0.13726251 -0.11454836 0.83248872
0.13617912 -0.11466282 0.83255428
0.13476998 -0.11481032 0.83263832
0.13315149 -0.1149765 0.8327319
0.13139699 -0.11515062 0.83282793
0.12955174 -0.11532398 0.83292001
0.12746473 -0.1155033 0.83300906
0.12535295 -0.1156605 0.83307713
0.12322349 -0.11578668 0.83311653
0.12108199 -0.1158715 0.83311808
0.11893386 -0.11590255 0.8330707
0.11678556 -0.11586438 0.83296061
0.11464608 -0.11573716 0.83277017
0.11252938 -0.1154946 0.83247608
0.11045855 -0.11510128 0.8320471
0.10847314 -0.1145096 0.83144146
0.10664029 -0.11366019 0.83060777
0.10506225 -0.11249629 0.82949829
0.10385046 -0.11100477 0.82810497
0.1030382 -0.10924277 0.82648075
0.10251991 -0.10723541 0.82464468
0.10226753 -0.10582679 0.82336015
0.13297351 -0.088070743 0.8083598
0.13189034 -0.088186577 0.80842662
0.13048193 -0.088338584 0.80851477
0.1288653 -0.088516288 0.8086189
0.12711476 -0.088714749 0.80873704
0.12527676 -0.088932924 0.80887002
0.12320329 -0.089195862 0.80903524
0.12111294 -0.08948534 0.80922389
0.1190154 -0.089808486 0.80944282
0.11691937 -0.090174116 0.80970019
0.11483408 -0.090593077 0.81000632
0.11277067 -0.091078945 0.81037378
0.11074415 -0.091649011 0.81081879
0.10877635 -0.09232574 0.81136245
0.10690089 -0.093138553 0.81203258
0.10517116 -0.094125152 0.81286526
0.10367087 -0.095328867 0.81390256
0.10251695 -0.096783176 0.81517905
0.10182121 -0.09847746 0.8166889
0.10159763 -0.10034958 0.81837642
0.1017362 -0.1023973 0.82023573
0.101941 -0.10381097 0.82152313
0.1374729 -0.087684214 0.80816877
0.13854887 -0.087570533 0.80810368
0.13994837 -0.087424047 0.80802017
0.14155579 -0.087259002 0.80792725
0.14329827 -0.087086067 0.80783188
0.1451309 -0.086913899 0.80774039
0.14720362 -0.086735807 0.807652
0.14930095 -0.08657968 0.80758435
0.15141584 -0.086454369 0.80754524
0.15354268 -0.086370125 0.80754369
0.15567611 -0.086339287 0.80759078
0.1578097 -0.086377196 0.8077001
0.15993454 -0.08650355 0.80788928
0.16203676 -0.086744443 0.80818135
0.16409342 -0.087135077 0.8086074
0.16606523 -0.087722704 0.80920887
0.16788556 -0.088566296 0.81003684
0.16945279 -0.089722238 0.81113875
0.17065629 -0.091203548 0.81252253
0.17146298 -0.092953496 0.81413561
0.17197774 -0.094947115 0.81595916
0.17222838 -0.096346095 0.81723487
0.14173254 -0.11398063 0.83213252
0.1428083 -0.11386558 0.83206618
0.14420706 -0.11371462 0.83197862
0.14581263 -0.11353812 0.83187526
0.14755119 -0.11334103 0.8317579
0.14937662 -0.11312434 0.83162582
0.1514359 -0.11286321 0.83146173
0.15351194 -0.11257571 0.83127439
0.15559514 -0.11225478 0.83105695
0.15767682 -0.11189165 0.83080131
0.15974784 -0.11147556 0.83049732
0.16179712 -0.11099301 0.83013237
0.16380978 -0.11042684 0.8296904
0.16576411 -0.10975475 0.82915044
0.16762672 -0.10894749 0.82848489
0.16934463 -0.10796765 0.82765794
0.17083465 -0.10677218 0.82662773
0.17198068 -0.10532781 0.82536
0.17267165 -0.10364513 0.82386047
0.1728937 -0.10178582 0.8221845
0.17275608 -0.099752121 0.82033789
0.17255268 -0.098348118 0.81905931
0.13726322 -0.11445571 0.83240563
0.13618724 -0.1145694 0.83247077
0.13478775 -0.11471588 0.83255422
0.13318032 -0.11488093 0.8326472
0.13143784 -0.11505386 0.83274251
0.12960522 -0.11522603 0.83283401
0.12753248 -0.11540412 0.8329224
0.12543516 -0.11556025 0.83299005
0.12332028 -0.11568557 0.83302921
0.12119342 -0.1157698 0.8330307
0.11905999 -0.11580064 0.83298361
0.1169264 -0.11576273 0.8328743
0.11480157 -0.11563638 0.83268517
0.11269935 -0.11539549 0.83239311
0.11064269 -0.11500485 0.83196706
0.10867088 -0.11441723 0.83136559
0.10685056 -0.11357363 0.83053762
0.10528332 -0.11241769 0.82943571
0.10407983 -0.11093638 0.82805192
0.10327313 -0.10918643 0.82643878
0.10275838 -0.10719281 0.8246153
0.10250773 -0.10579383 0.82333958
0.13300358 -0.0881593 0.80844188
0.13192782 -0.088274345 0.80850828
0.13052905 -0.088425316 0.80859578
0.12892348 -0.088601805 0.80869919
0.12718491 -0.088798903 0.80881655
0.12535949 -0.089015588 0.80894858
0.12330021 -0.089276724 0.80911267
0.12122417 -0.089564219 0.80930007
0.11914098 -0.08988516 0.80951744
0.1170593 -0.090248279 0.80977309
0.11498827 -0.090664372 0.81007713
0.11293899 -0.091146916 0.81044203
0.11092634 -0.091713086 0.810884
0.10897201 -0.09238518 0.81142396
0.10710938 -0.093192436 0.8120895
0.10539148 -0.094172277 0.81291646
0.10390146 -0.095367752 0.81394672
0.10275544 -0.096812114 0.8152144
0.10206447 -0.098494805 0.81671399
0.10184242 -0.10035411 0.81838995
0.10198003 -0.10238782 0.8202365
0.10218344 -0.10379182 0.82151514
0.13747215 -0.087776124 0.80825269
0.13854071 -0.087663218 0.80818802
0.13993056 -0.087517746 0.80810511
0.14152691 -0.087353833 0.80801284
0.14325738 -0.087182097 0.80791813
0.14507738 -0.087011114 0.80782729
0.14713582 -0.086834252 0.8077395
0.14921869 -0.086679198 0.80767232
0.151319 -0.086554751 0.80763346
0.15343119 -0.086471088 0.80763191
0.15554991 -0.086440466 0.8076787
0.15766881 -0.086478107 0.8077873
0.159779 -0.086603597 0.80797511
0.16186672 -0.086842827 0.80826515
0.16390921 -0.087230764 0.80868828
0.16586743 -0.087814346 0.80928558
0.16767521 -0.088652126 0.81010783
0.16923164 -0.089800097 0.81120217
0.17042685 -0.091271192 0.81257641
0.17122798 -0.093009084 0.81417841
0.17173919 -0.094988964 0.81598938
0.1719881 -0.096378297 0.81725627
0.14170244 -0.1138913 0.83205128
0.14277078 -0.11377704 0.83198535
0.14415991 -0.11362711 0.83189845
0.14575441 -0.11345184 0.83179575
0.14748101 -0.1132561 0.83167922
0.14929384 -0.11304091 0.83154809
0.15133892 -0.11278158 0.83138514
0.15340066 -0.11249606 0.83119905
0.15546949 -0.11217733 0.83098316
0.15753683 -0.11181671 0.83072925
0.15959358 -0.11140349 0.83042735
0.16162874 -0.11092427 0.83006489
0.16362752 -0.110362 0.82962596
0.16556838 -0.10969454 0.82908976
0.16741817 -0.10889285 0.8284288
0.16912423 -0.10791976 0.82760757
0.17060398 -0.10673252 0.8265844
0.1717421 -0.10529812 0.82532543
0.17242831 -0.10362703 0.82383621
0.17264883 -0.10178053 0.82217181
0.17251216 -0.099760845 0.82033795
0.17231016 -0.098366521 0.81906813
0.13726392 -0.1143631 0.83232254
0.13619536 -0.114476 0.83238721
0.13480552 -0.11462148 0.83247006
0.13320917 -0.11478539 0.83256239
0.1314787 -0.11495713 0.8326571
0.1296587 -0.11512811 0.83274794
0.12760025 -0.11530498 0.83283573
0.12551738 -0.11546002 0.83290291
0.12341709 -0.11558448 0.83294177
0.12130488 -0.11566814 0.83294326
0.11918616 -0.11569876 0.83289653
0.11706728 -0.11566111 0.83278793
0.11495709 -0.11553563 0.83260012
0.11286936 -0.1152964 0.83231008
0.11082686 -0.11490846 0.83188695
0.10886865 -0.11432488 0.83128959
0.10706088 -0.1134871 0.83046734
0.10550445 -0.11233913 0.829373
0.10430924 -0.11086803 0.82799876
0.1035081 -0.10913014 0.82639676
0.1029969 -0.10715026 0.82458586
0.10274798 -0.10576092 0.8233189
0.13303363 -0.088247932 0.80852389
0.13196529 -0.08836218 0.80858982
0.13057616 -0.088512108 0.80867678
0.12898166 -0.088687383 0.80877942
0.12725508 -0.088883124 0.80889601
0.12544224 -0.089098312 0.80902714
0.12339716 -0.089357652 0.80919009
0.12133542 -0.089643173 0.80937618
0.11926659 -0.089961894 0.80959207
0.11719926 -0.090322517 0.80984598
0.11514251 -0.090735741 0.81014788
0.11310735 -0.091214955 0.81051028
0.11110856 -0.09177722 0.81094921
0.10916771 -0.092444688 0.81148541
0.10731792 -0.093246378 0.81214643
0.10561186 -0.094219469 0.81296766
0.10413211 -0.095406704 0.81399077
0.10299398 -0.096841104 0.8152498
0.10230777 -0.098512195 0.81673896
0.10208725 -0.10035869 0.81840342
0.10222393 -0.10237838 0.82023728
0.10242593 -0.1037727 0.82150704
0.13747142 -0.087868087 0.80833656
0.13853256 -0.087755971 0.80827236
0.13991277 -0.087611504 0.80819005
0.14149803 -0.087448731 0.80809838
0.14321649 -0.087278187 0.80800432
0.14502385 -0.087108396 0.80791414
0.14706801 -0.086932756 0.80782694
0.14913642 -0.086778782 0.80776018
0.15122215 -0.086655192 0.80772161
0.15331969 -0.086572111 0.80772012
0.1554237 -0.086541705 0.80776656
0.15752788 -0.086579084 0.80787438
0.15962341 -0.086703703 0.80806088
0.16169666 -0.086941272 0.80834895
0.16372497 -0.087326519 0.80876911
0.16566959 -0.087906048 0.80936229
0.16746482 -0.088738009 0.81017888
0.16901045 -0.089878015 0.81126559
0.17019735 -0.091338903 0.8126303
0.17099293 -0.093064725 0.81422114
0.17150059 -0.095030859 0.81601954
0.17174777 -0.096410558 0.81727767
0.14167234 -0.11380198 0.83196998
0.14273328 -0.11368852 0.83190453
0.14411277 -0.11353964 0.83181816
0.14569619 -0.11336558 0.83171624
0.1474108 -0.1131712 0.83160049
0.14921105 -0.1129575 0.83147025
0.15124194 -0.11269996 0.83130842
0.15328936 -0.11241643 0.83112365
0.15534383 -0.11209992 0.83090925
0.15739682 -0.1117418 0.83065712
0.15943928 -0.11133145 0.83035731
0.16146033 -0.11085555 0.82999736
0.16344523 -0.11029719 0.82956153
0.16537261 -0.10963435 0.82902902
0.16720957 -0.10883824 0.8283726
0.16890378 -0.1078719 0.82755709
0.17037326 -0.1066929 0.82654107
0.17150348 -0.10526846 0.8252908
0.17218493 -0.10360897 0.82381195
0.17240392 -0.10177529 0.82215905
0.1722682 -0.099769622 0.82033795
0.1720676 -0.098384976 0.81907696
0.13726464 -0.11427052 0.83223933
0.1362035 -0.11438263 0.83230352
0.13482329 -0.1145271 0.83238584
0.13323803 -0.11468987 0.83247751
0.13151957 -0.11486042 0.83257157
0.12971221 -0.11503021 0.83266175
0.12766805 -0.11520585 0.83274895
0.12559964 -0.11535983 0.83281571
0.12351391 -0.11548341 0.83285427
0.12141638 -0.11556649 0.83285576
0.11931236 -0.11559691 0.83280933
0.11720818 -0.11555952 0.8327015
0.11511265 -0.1154349 0.832515
0.1130394 -0.11519734 0.83222693
0.1110111 -0.11481208 0.83180678
0.10906646 -0.11423256 0.83121359
0.10727124 -0.11340059 0.83039701
0.10572562 -0.11226059 0.8293103
0.1045387 -0.11079971 0.82794559
0.10374313 -0.10907388 0.82635474
0.10323548 -0.10710774 0.82455635
0.10298829 -0.10572805 0.82329822
0.13306372 -0.088336624 0.80860591
0.13200279 -0.088450082 0.80867136
0.1306233 -0.088598967 0.80875772
0.12903987 -0.088773027 0.80885965
0.12732527 -0.088967413 0.8089754
0.12552501 -0.089181103 0.80910563
0.12349413 -0.08943864 0.80926746
0.12144671 -0.089722179 0.80945224
0.11939223 -0.090038687 0.80966663
0.11733925 -0.090396807 0.80991876
0.11529677 -0.090807162 0.81021857
0.11327574 -0.091283053 0.81057853
0.11129083 -0.091841415 0.81101435
0.10936344 -0.092504248 0.81154686
0.1075265 -0.093300372 0.81220329
0.10583228 -0.094266705 0.8130188
0.1043628 -0.0954457 0.81403482
0.10323258 -0.096870147 0.81528509
0.10255112 -0.098529644 0.81676394
0.10233214 -0.10036331 0.81841683
0.10246786 -0.10236898 0.82023793
0.10266846 -0.10375363 0.82149893
0.13747069 -0.087960117 0.80842042
0.13852441 -0.087848783 0.80835664
0.13989496 -0.087705329 0.80827492
0.14146915 -0.087543689 0.80818391
0.14317559 -0.087374337 0.80809051
0.14497033 -0.08720573 0.80800092
0.14700018 -0.08703132 0.80791432
0.14905412 -0.086878426 0.8078481
0.15112528 -0.0867557 0.80780977
0.15320815 -0.0866732 0.80780828
0.15529746 -0.086643003 0.80785441
0.15738691 -0.086680122 0.80796146
0.1594678 -0.086803868 0.80814672
0.16152655 -0.087039776 0.8084327
0.16354069 -0.087422334 0.80884999
0.16547172 -0.087997809 0.809439
0.16725439 -0.088823952 0.81024981
0.16878921 -0.089955986 0.81132895
0.16996782 -0.091406658 0.81268412
0.17075783 -0.093120418 0.81426388
0.17126194 -0.095072806 0.8160497
0.17150739 -0.096442856 0.81729901
0.14164224 -0.11371269 0.83188862
0.14269575 -0.11360002 0.83182359
0.14406559 -0.11345218 0.83173788
0.14563796 -0.11327934 0.83163661
0.14734057 -0.11308631 0.83152169
0.14912824 -0.11287411 0.83139235
0.15114492 -0.11261838 0.83123165
0.15317804 -0.11233683 0.83104819
0.15521814 -0.11202253 0.83083528
0.15725677 -0.11166692 0.83058488
0.15928496 -0.11125942 0.83028722
0.16129187 -0.11078686 0.82992977
0.1632629 -0.11023241 0.82949698
0.16517681 -0.10957421 0.82896817
0.16700092 -0.10878365 0.82831639
0.16868329 -0.10782407 0.82750654
0.17014249 -0.10665332 0.82649761
0.17126481 -0.10523883 0.82525611
0.1719415 -0.10359094 0.82378757
0.17215896 -0.10177009 0.82214624
0.17202418 -0.099778436 0.82033789
0.17182499 -0.098403476 0.81908572
0.13726535 -0.11417795 0.83215606
0.13621162 -0.11428928 0.83221984
0.13484107 -0.11443274 0.83230156
0.1332669 -0.11459438 0.83239257
0.13156044 -0.11476373 0.83248597
0.12976572 -0.11493234 0.83257556
0.12773585 -0.11510675 0.83266217
0.12568191 -0.11525964 0.83272839
0.12361076 -0.11538237 0.83276671
0.1215279 -0.11546487 0.8327682
0.11943859 -0.11549506 0.83272207
0.11734912 -0.11545794 0.83261502
0.11526823 -0.1153342 0.83242977
0.11320949 -0.11509829 0.83214378
0.11119536 -0.11471573 0.83172655
0.10926433 -0.11414026 0.83113748
0.10748165 -0.11331411 0.83032668
0.10594683 -0.11218208 0.82924753
0.10476822 -0.1107314 0.82789236
0.10397821 -0.10901765 0.8263126
0.1034741 -0.10706526 0.82452679
0.10322864 -0.10569521 0.82327747
0.1330938 -0.088425376 0.80868787
0.13204029 -0.088538043 0.80875289
0.13067044 -0.088685885 0.80883861
0.12909809 -0.088858724 0.80893987
0.12739547 -0.089051753 0.80905479
0.1256078 -0.089263953 0.80918413
0.12359112 -0.089519687 0.80934483
0.12155801 -0.089801237 0.80952829
0.11951789 -0.09011554 0.8097412
0.11747926 -0.090471148 0.8099916
0.11545108 -0.090878643 0.81028932
0.11344417 -0.091351204 0.81064671
0.11147314 -0.091905661 0.8110795
0.10955923 -0.09256386 0.81160831
0.10773513 -0.093354419 0.81226009
0.10605276 -0.094313994 0.81306994
0.10459355 -0.095484748 0.81407887
0.10347123 -0.096899234 0.81532037
0.10279454 -0.098547123 0.81678891
0.10257708 -0.10036798 0.81843024
0.10271186 -0.10235963 0.82023859
0.10291106 -0.10373459 0.82149076
0.13746996 -0.088052191 0.80850428
0.13851626 -0.087941647 0.80844092
0.13987716 -0.087799199 0.8083598
0.14144026 -0.087638706 0.80826938
0.14313468 -0.087470539 0.8081767
0.14491677 -0.087303124 0.80808771
0.14693235 -0.087129943 0.80800176
0.14897183 -0.086978123 0.80793595
0.15102838 -0.086856261 0.80789793
0.15309659 -0.086774342 0.80789644
0.15517117 -0.086744361 0.80794221
0.15724593 -0.086781219 0.80804855
0.15931216 -0.086904094 0.80823249
0.1613564 -0.08713834 0.80851644
0.16335636 -0.0875182 0.80893075
0.16527379 -0.088089623 0.80951566
0.16704391 -0.088909954 0.81032079
0.16856793 -0.090034015 0.81139231
0.16973823 -0.091474466 0.81273794
0.17052267 -0.093176164 0.81430656
0.17102323 -0.095114797 0.8160798
0.17126696 -0.096475199 0.81732035
0.14161213 -0.11362341 0.83180714
0.14265822 -0.11351154 0.83174264
0.14401841 -0.11336474 0.83165753
0.14557971 -0.11319312 0.83155698
0.14727032 -0.11300145 0.83144283
0.14904541 -0.11279074 0.83131444
0.1510479 -0.11253681 0.83115488
0.15306668 -0.11225723 0.83097267
0.15509243 -0.11194515 0.83076125
0.1571167 -0.11159205 0.83051264
0.1591306 -0.11118743 0.83021706
0.16112338 -0.11071819 0.82986218
0.16308053 -0.11016764 0.82943237
0.16498096 -0.10951407 0.82890731
0.16679221 -0.10872908 0.82826012
0.16846274 -0.10777626 0.827456
0.16991167 -0.10661376 0.82645416
0.1710261 -0.10520922 0.82522142
0.171698 -0.10357294 0.82376319
0.17191394 -0.10176491 0.82213342
0.17178011 -0.099787287 0.82033783
0.17158233 -0.098422006 0.81909448
0.13726607 -0.1140854 0.83207273
0.13621975 -0.11419594 0.83213609
0.13485886 -0.11433839 0.83221722
0.13329577 -0.11449889 0.83230764
0.13160133 -0.11466705 0.83240032
0.12981924 -0.11483447 0.83248931
0.12780368 -0.11500765 0.83257526
0.12576419 -0.11515947 0.83264107
0.12370764 -0.11528133 0.83267909
0.12163944 -0.11536325 0.83268058
0.11956485 -0.11539324 0.83263481
0.11749009 -0.11535637 0.83252847
0.11542386 -0.1152335 0.83234453
0.11337961 -0.11499926 0.83206058
0.11137966 -0.11461939 0.8316462
0.10946223 -0.11404797 0.83106136
0.10769212 -0.11322764 0.83025622
0.1061681 -0.11210358 0.82918471
0.10499779 -0.11066312 0.82783908
0.10421334 -0.10896143 0.82627046
0.10371279 -0.10702279 0.82449722
0.10346906 -0.10566239 0.82325667
0.13312389 -0.088514179 0.80876982
0.1320778 -0.088626049 0.80883437
0.13071761 -0.088772856 0.80891949
0.12915632 -0.08894448 0.80902004
0.1274657 -0.089136146 0.80913419
0.12569061 -0.089346848 0.80926257
0.12368812 -0.089600779 0.80942214
0.12166934 -0.089880355 0.80960435
0.11964359 -0.090192437 0.80981576
0.11761932 -0.09054555 0.81006438
0.11560541 -0.090950169 0.81035995
0.11361264 -0.091419399 0.81071484
0.1116555 -0.091969959 0.81114465
0.10975506 -0.092623517 0.81166971
0.1079438 -0.09340851 0.81231689
0.10627328 -0.094361328 0.81312102
0.10482435 -0.095523842 0.81412286
0.10370993 -0.096928366 0.8153556
0.10303801 -0.098564647 0.81681383
0.10282208 -0.10037268 0.81844354
0.10295591 -0.1023503 0.82023919
0.1031537 -0.10371558 0.82148254
0.13746923 -0.088144325 0.80858809
0.13850811 -0.088034563 0.8085252
0.13985935 -0.087893121 0.80844462
0.14141136 -0.087733768 0.80835491
0.14309376 -0.0875668 0.80826283
0.14486322 -0.087400571 0.80817449
0.14686449 -0.087228611 0.80808914
0.1488895 -0.087077871 0.80802381
0.15093148 -0.086956874 0.80798602
0.15298501 -0.086875536 0.80798459
0.15504488 -0.086845763 0.80803001
0.15710491 -0.086882368 0.80813563
0.15915649 -0.087004364 0.8083182
0.16118623 -0.087236948 0.80860019
0.16317199 -0.087614119 0.80901158
0.16507582 -0.088181488 0.80959231
0.16683339 -0.088995993 0.81039172
0.16834658 -0.090112083 0.81145567
0.16950859 -0.091542326 0.81279171
0.17028747 -0.093231939 0.81434923
0.17078449 -0.095156826 0.8161099
0.17102648 -0.096507579 0.81734163
0.14158201 -0.11353415 0.83172566
0.14262068 -0.11342306 0.83166158
0.14397123 -0.11327731 0.83157706
0.14552145 -0.1131069 0.83147728
0.14720008 -0.1129166 0.83136392
0.14896256 -0.11270738 0.83123642
0.15095085 -0.11245525 0.83107799
0.15295531 -0.11217766 0.83089709
0.15496668 -0.11186779 0.83068722
0.1569766 -0.11151718 0.83044034
0.15897623 -0.11111544 0.83014685
0.16095486 -0.11064953 0.82979447
0.16289812 -0.11010288 0.82936776
0.16478507 -0.10945395 0.8288464
0.16658348 -0.10867453 0.8282038
0.16824216 -0.10772847 0.82740539
0.1696808 -0.10657421 0.82641065
0.17078732 -0.10517965 0.82518661
0.17145447 -0.10355497 0.82373875
0.17166887 -0.10175977 0.82212061
0.171536 -0.099796176 0.82033771
0.1713396 -0.09844058 0.81910318
0.13726678 -0.11399285 0.83198935
0.13622789 -0.11410262 0.83205223
0.13487665 -0.11424405 0.83213282
0.13332465 -0.11440341 0.83222258
0.13164224 -0.11457038 0.83231461
0.12987278 -0.11473661 0.83240294
0.12787151 -0.11490856 0.83248836
0.12584651 -0.11505931 0.83255363
0.12380453 -0.1151803 0.83259141
0.121751 -0.11526164 0.8325929
0.11969113 -0.11529141 0.83254743
0.11763109 -0.11525481 0.83244187
0.11557952 -0.11513281 0.83225924
0.11354978 -0.11490022 0.83197725
0.11156401 -0.11452306 0.83156592
0.10966019 -0.11395569 0.83098513
0.10790262 -0.11314118 0.83018571
0.10638942 -0.11202509 0.82912183
0.10522741 -0.11059485 0.82778573
0.10444853 -0.10890523 0.82622826
0.10395152 -0.10698035 0.8244676
0.10370952 -0.1056296 0.82323587
0.13315399 -0.088603027 0.80885178
0.13211532 -0.088714108 0.80891585
0.13076477 -0.088859871 0.80900037
0.12921456 -0.089030281 0.80910021
0.12753592 -0.089220583 0.80921352
0.12577344 -0.089429796 0.80934101
0.12378516 -0.089681931 0.80949944
0.12178069 -0.089959517 0.80968034
0.11976932 -0.090269387 0.80989027
0.11775941 -0.090619989 0.81013709
0.11575978 -0.091021739 0.81043065
0.11378115 -0.091487646 0.81078297
0.11183789 -0.092034295 0.81120974
0.10995094 -0.092683218 0.81173104
0.10815252 -0.093462646 0.81237364
0.10649385 -0.094408706 0.8131721
0.1050552 -0.095562965 0.81416684
0.10394868 -0.096957527 0.81539083
0.10328154 -0.098582208 0.81683868
0.10306714 -0.10037741 0.81845689
0.10320001 -0.102341 0.82023978
0.1033964 -0.1036966 0.82147431
0.1374685 -0.088236503 0.80867189
0.13849996 -0.088127524 0.80860949
0.13984154 -0.087987103 0.8085295
0.14138246 -0.087828882 0.80844039
0.14305285 -0.087663107 0.80834895
0.14480965 -0.087498061 0.80826128
0.14679661 -0.087327339 0.80817652
0.14880715 -0.087177671 0.80811167
0.15083453 -0.087057538 0.80807418
0.1528734 -0.086976781 0.80807269
0.15491855 -0.086947225 0.80811781
0.15696386 -0.086983562 0.80822265
0.15900077 -0.087104693 0.80840397
0.16101602 -0.087335616 0.80868393
0.16298759 -0.087710083 0.80909234
0.1648778 -0.088273399 0.80966896
0.16662282 -0.089082092 0.81046265
0.1681252 -0.090190202 0.81151897
0.1692789 -0.091610223 0.81284553
0.17005222 -0.093287766 0.81439185
0.17054568 -0.095198892 0.81613994
0.17078595 -0.096539989 0.8173629
0.1415519 -0.11344489 0.83164418
0.14258315 -0.1133346 0.83158052
0.14392404 -0.11318988 0.8314966
0.14546317 -0.11302069 0.83139753
0.1471298 -0.11283174 0.831285
0.14887969 -0.11262403 0.8311584
0.15085377 -0.11237369 0.8310011
0.15284392 -0.11209809 0.83082151
0.15484092 -0.11179043 0.83061308
0.15683647 -0.11144233 0.83036798
0.15882179 -0.11104346 0.83007658
0.1607863 -0.11058088 0.82972676
0.16271567 -0.11003814 0.82930309
0.16458914 -0.10939385 0.82878548
0.1663747 -0.10862 0.82814741
0.16802152 -0.1076807 0.82735473
0.16944988 -0.10653468 0.82636708
0.17054848 -0.10515009 0.8251518
0.17121087 -0.10353702 0.82371432
0.17142373 -0.10175464 0.82210767
0.17129181 -0.099805087 0.82033753
0.17109683 -0.098459177 0.81911182
0.1372675 -0.11390031 0.83190596
0.13623604 -0.11400929 0.83196837
0.13489445 -0.11414972 0.83204842
0.13335353 -0.11430793 0.83213753
0.13168316 -0.11447372 0.8322289
0.12992634 -0.11463875 0.83231658
0.12793937 -0.11480948 0.83240134
0.12592883 -0.11495914 0.83246619
0.12390146 -0.11507928 0.83250374
0.1218626 -0.11516003 0.83250517
0.11981744 -0.11518959 0.83246005
0.11777213 -0.11515325 0.8323552
0.11573522 -0.11503212 0.83217388
0.11371998 -0.1148012 0.83189392
0.1117484 -0.11442673 0.83148551
0.10985819 -0.11386342 0.83090889
0.10811318 -0.11305473 0.8301152
0.10661079 -0.11194661 0.82905889
0.10545709 -0.1105266 0.82773238
0.10468377 -0.10884905 0.826186
0.10419031 -0.10693792 0.82443792
0.10395005 -0.10559683 0.82321501
0.13318409 -0.088691935 0.80893373
0.13215286 -0.088802218 0.80899733
0.13081196 -0.088946939 0.80908126
0.12927282 -0.089116126 0.80918038
0.12760618 -0.089305073 0.80929285
0.1258563 -0.089512788 0.80941945
0.12388222 -0.08976312 0.80957675
0.12189208 -0.090038724 0.8097564
0.11989508 -0.090346381 0.80996478
0.11789952 -0.09069448 0.81020987
0.1159142 -0.091093354 0.81050128
0.1139497 -0.091555931 0.8108511
0.11202032 -0.092098676 0.81127483
0.11014686 -0.092742965 0.81179237
0.1083613 -0.093516819 0.81243044
0.10671447 -0.094456114 0.81322318
0.10528611 -0.095602132 0.81421077
0.1041875 -0.096986726 0.81542605
0.10352512 -0.098599792 0.81686354
0.10331225 -0.10038217 0.81847018
0.10344418 -0.10233173 0.82024032
0.10363916 -0.10367764 0.82146603
0.13746777 -0.088328727 0.8087557
0.13849179 -0.088220529 0.80869371
0.13982373 -0.088081114 0.80861431
0.14135355 -0.087924041 0.80852586
0.14301191 -0.087759458 0.80843508
0.14475606 -0.087595597 0.80834806
0.14672872 -0.087426104 0.8082639
0.14872479 -0.087277517 0.80819952
0.15073758 -0.087158248 0.80816227
0.15276176 -0.087078072 0.80816084
0.15479219 -0.087048732 0.8082056
0.15682279 -0.087084807 0.80830967
0.15884504 -0.08720506 0.80848968
0.16084576 -0.087434322 0.80876768
0.16280314 -0.087806098 0.80917317
0.16467975 -0.088365361 0.80974561
0.16641219 -0.089168221 0.81053358
0.16790377 -0.090268359 0.81158227
0.16904916 -0.091678157 0.81289929
0.16981691 -0.093343623 0.81443453
0.17030682 -0.095240995 0.81616998
0.17054535 -0.096572436 0.81738412
0.14152177 -0.11335562 0.83156258
0.1425456 -0.11324614 0.8314994
0.14387684 -0.11310246 0.83141613
0.14540489 -0.11293449 0.83131772
0.14705952 -0.1127469 0.83120602
0.14879681 -0.11254068 0.83108032
0.15075667 -0.11229215 0.83092415
0.15273249 -0.11201853 0.83074582
0.15471512 -0.11171309 0.83053893
0.1566963 -0.11136749 0.83029562
0.15866734 -0.11097149 0.8300063
0.16061769 -0.11051224 0.82965899
0.16253318 -0.10997341 0.82923836
0.16439316 -0.10933375 0.82872444
0.16616586 -0.10856548 0.82809103
0.16780083 -0.10763294 0.82730401
0.16921891 -0.10649517 0.82632351
0.1703096 -0.10512055 0.82511699
0.17096722 -0.10351909 0.82368982
0.17117856 -0.10174955 0.8220948
0.17104758 -0.099814028 0.82033736
0.170854 -0.098477803 0.81912047
0.13726822 -0.11380778 0.83182251
0.13624418 -0.11391597 0.8318845
0.13491225 -0.11405538 0.8319639
0.13338242 -0.11421246 0.83205235
0.13172407 -0.11437704 0.83214313
0.12997991 -0.1145409 0.83223015
0.12800725 -0.1147104 0.83231431
0.12601118 -0.11485898 0.83237869
0.1239984 -0.11497825 0.83241594
0.12197422 -0.11505842 0.83241737
0.11994379 -0.11508777 0.83237261
0.1179132 -0.11505169 0.83226854
0.11589095 -0.11493144 0.83208853
0.11389022 -0.11470218 0.83181053
0.11193284 -0.1143304 0.83140504
0.11005623 -0.11377114 0.8308326
0.10832378 -0.11296828 0.83004463
0.10683221 -0.11186814 0.82899594
0.10568682 -0.11045834 0.82767892
0.10491906 -0.10879288 0.82614368
0.10442916 -0.10689551 0.82440823
0.10419063 -0.10556407 0.82319409
0.13321421 -0.088780873 0.80901563
0.13219039 -0.088890366 0.80907881
0.13085915 -0.089034043 0.80916214
0.1293311 -0.089202017 0.80926049
0.12767646 -0.0893896 0.80937219
0.12593916 -0.089595824 0.80949789
0.1239793 -0.089844353 0.80965406
0.12200349 -0.090117969 0.80983239
0.12002086 -0.090423413 0.81003928
0.11803968 -0.090769008 0.81028259
0.11606864 -0.091165014 0.81057191
0.11411829 -0.09162426 0.81091923
0.1122028 -0.092163093 0.81133986
0.11034282 -0.092802748 0.81185377
0.10857011 -0.093571022 0.81248719
0.10693515 -0.094503567 0.8132742
0.10551707 -0.09564133 0.8142547
0.10442637 -0.097015955 0.81546122
0.10376875 -0.098617412 0.81688839
0.10355742 -0.10038695 0.81848341
0.1036884 -0.10232247 0.82024086
0.10388198 -0.1036587 0.82145774
0.13746704 -0.088420995 0.8088395
0.13848364 -0.08831358 0.80877799
0.13980591 -0.088175178 0.80869913
0.14132464 -0.088019237 0.80861133
0.14297096 -0.087855853 0.80852121
0.14470248 -0.087693185 0.80843478
0.14666083 -0.087524921 0.80835128
0.14864242 -0.087377407 0.80828732
0.15064061 -0.087259009 0.80825037
0.1526501 -0.087179415 0.80824894
0.1546658 -0.087150276 0.8082934
0.15668166 -0.087186091 0.80839676
0.15868925 -0.087305479 0.80857545
0.16067547 -0.087533079 0.80885136
0.16261865 -0.087902151 0.80925393
0.16448165 -0.088457361 0.8098222
0.16620152 -0.089254402 0.81060445
0.16768228 -0.090346552 0.81164557
0.16881937 -0.091746122 0.812953
0.16958155 -0.09339951 0.81447715
0.17006789 -0.095283121 0.81620002
0.1703047 -0.096604906 0.81740534
0.14149164 -0.11326636 0.83148098
0.14250803 -0.11315767 0.83141828
0.14382961 -0.11301503 0.83133554
0.14534658 -0.11284828 0.83123785
0.14698923 -0.11266205 0.83112699
0.14871392 -0.11245733 0.83100224
0.15065956 -0.1122106 0.8308472
0.15262105 -0.11193897 0.83067012
0.1545893 -0.11163574 0.83046472
0.1565561 -0.11129265 0.8302232
0.15851285 -0.11089952 0.82993597
0.16044906 -0.11044361 0.82959116
0.16235064 -0.10990868 0.82917356
0.16419713 -0.10927366 0.82866341
0.16595697 -0.10851096 0.82803458
0.16758008 -0.10758518 0.82725328
0.16898789 -0.10645568 0.82627988
0.17007068 -0.10509101 0.82508212
0.17072351 -0.10350118 0.82366532
0.17093332 -0.10174447 0.8220818
0.17080329 -0.099822983 0.82033718
0.17061111 -0.098496459 0.81912911
0.13726893 -0.11371523 0.83173901
0.13625233 -0.11382265 0.83180052
0.13493006 -0.11396105 0.83187938
0.13341133 -0.11411699 0.83196718
0.13176501 -0.11428037 0.8320573
0.13003349 -0.11444304 0.83214372
0.12807514 -0.11461131 0.83222723
0.12609355 -0.11475882 0.83229119
0.12409537 -0.11487722 0.83232814
0.12208587 -0.11495681 0.83232957
0.12007017 -0.11498595 0.83228511
0.11805431 -0.11495014 0.83218181
0.11604672 -0.11483075 0.83200312
0.11406051 -0.11460315 0.83172715
0.11211732 -0.11423407 0.83132458
0.11025432 -0.11367887 0.83075631
0.10853445 -0.11288182 0.82997406
0.10705369 -0.11178967 0.82893294
0.1059166 -0.1103901 0.82762551
0.10515442 -0.10873672 0.82610142
0.10466807 -0.10685311 0.82437849
0.10443126 -0.10553132 0.82317317
0.13324434 -0.088869862 0.80909759
0.13222794 -0.088978559 0.80916023
0.13090636 -0.089121193 0.80924296
0.12938938 -0.089287944 0.80934066
0.12774675 -0.089474171 0.80945152
0.12602206 -0.089678898 0.80957633
0.1240764 -0.089925624 0.80973136
0.12211492 -0.090197258 0.80990839
0.12014668 -0.090500489 0.81011379
0.11817987 -0.090843573 0.81035531
0.11622313 -0.091236703 0.81064254
0.11428691 -0.091692619 0.81098735
0.11238533 -0.092227548 0.81140494
0.11053883 -0.092862561 0.8119151
0.10877899 -0.09362527 0.81254393
0.10715588 -0.094551042 0.81332523
0.10574808 -0.09568055 0.81429863
0.10466529 -0.097045213 0.81549639
0.10401245 -0.098635048 0.81691319
0.10380265 -0.10039176 0.8184967
0.10393268 -0.10231324 0.82024133
0.10412486 -0.10363977 0.8214494
0.13746631 -0.0885133 0.8089233
0.13847548 -0.088406675 0.80886227
0.13978809 -0.088269278 0.80878395
0.14129572 -0.088114478 0.80869681
0.14293002 -0.087952286 0.80860734
0.14464886 -0.08779081 0.80852157
0.14659292 -0.087623768 0.80843866
0.14856002 -0.087477341 0.80837518
0.1505436 -0.087359801 0.80833846
0.15253842 -0.087280788 0.80833709
0.15453939 -0.087251872 0.8083812
0.15654051 -0.087287426 0.80848378
0.15853342 -0.087405935 0.80866116
0.16050513 -0.087631866 0.80893511
0.16243412 -0.087998249 0.8093347
0.1642835 -0.088549398 0.80989885
0.1659908 -0.089340612 0.81067538
0.16746074 -0.090424791 0.81170887
0.16858952 -0.091814131 0.81300676
0.16934612 -0.093455434 0.8145197
0.16982892 -0.095325276 0.81623006
0.170064 -0.096637405 0.81742656
0.14146149 -0.1131771 0.83139932
0.14247046 -0.1130692 0.83133703
0.14378239 -0.1129276 0.83125496
0.14528827 -0.11276207 0.83115798
0.14691891 -0.11257721 0.83104789
0.14863099 -0.11237398 0.83092403
0.15056242 -0.11212905 0.83077013
0.15250957 -0.1118594 0.83059442
0.15446343 -0.11155839 0.83039051
0.15641586 -0.11121782 0.83015072
0.15835832 -0.11082756 0.82986557
0.16028038 -0.11037497 0.82952332
0.16216807 -0.10984395 0.82910877
0.16400106 -0.10921358 0.82860237
0.16574804 -0.10845645 0.82797813
0.16735929 -0.10753744 0.8272025
0.1687568 -0.10641618 0.82623625
0.16983168 -0.10506149 0.82504725
0.17047974 -0.10348327 0.82364076
0.17068802 -0.10173941 0.82206887
0.17055894 -0.099831961 0.82033694
0.17036816 -0.098515131 0.81913769
0.13726965 -0.11362269 0.83165544
0.13626048 -0.11372931 0.83171654
0.13494787 -0.11386671 0.8317948
0.13344024 -0.11402151 0.831882
0.13180594 -0.1141837 0.83197141
0.13008709 -0.11434518 0.83205724
0.12814304 -0.11451221 0.83214015
0.12617594 -0.11465865 0.83220357
0.12419236 -0.11477619 0.83224028
0.12219755 -0.11485519 0.83224171
0.12019657 -0.11488412 0.83219755
0.11819544 -0.11484856 0.83209503
0.11620253 -0.11473005 0.83191764
0.11423083 -0.11450411 0.8316437
0.11230185 -0.11413773 0.83124405
0.11045246 -0.11358659 0.83067995
0.10874516 -0.11279538 0.82990336
0.10727523 -0.1117112 0.82886988
0.10614645 -0.11032186 0.82757199
0.10538983 -0.10868055 0.82605904
0.10490704 -0.10681071 0.82434875
0.10467196 -0.10549858 0.82315224
0.13327447 -0.088958889 0.80917948
0.13226549 -0.089066789 0.80924171
0.13095357 -0.089208379 0.80932385
0.12944768 -0.089373916 0.80942076
0.12781705 -0.08955878 0.80953085
0.12610497 -0.08976201 0.80965471
0.12417354 -0.090006933 0.80980861
0.12222639 -0.090276584 0.80998439
0.12027252 -0.090577595 0.81018829
0.11832009 -0.090918168 0.81042802
0.11637764 -0.09130843 0.81071317
0.11445559 -0.091761015 0.81105548
0.11256789 -0.092292033 0.81146997
0.11073489 -0.092922404 0.81197643
0.10898791 -0.09367954 0.81260067
0.10737666 -0.094598547 0.81337625
0.10597916 -0.095719807 0.81434256
0.10490429 -0.097074486 0.81553155
0.10425621 -0.098652706 0.81693798
0.10404795 -0.10039658 0.81850994
0.10417702 -0.10230403 0.82024181
0.10436779 -0.10362086 0.82144105
0.13746558 -0.088605642 0.80900711
0.13846733 -0.088499799 0.80894649
0.13977027 -0.088363424 0.80886883
0.14126679 -0.088209763 0.80878228
0.14288905 -0.088048764 0.80869353
0.14459525 -0.087888472 0.80860835
0.14652498 -0.087722667 0.80852604
0.1484776 -0.087577313 0.80846304
0.15044658 -0.087460645 0.80842662
0.1524267 -0.087382212 0.80842519
0.15441294 -0.087353505 0.808469
0.15639934 -0.087388799 0.8085708
0.15837757 -0.087506436 0.80874687
0.16033475 -0.087730706 0.80901879
0.16224954 -0.088094391 0.80941546
0.1640853 -0.08864148 0.80997545
0.16578004 -0.089426868 0.81074631
0.16723914 -0.090503059 0.81177217
0.16835961 -0.091882169 0.81306052
0.16911066 -0.093511388 0.81456232
0.16958989 -0.095367461 0.81626004
0.16982324 -0.096669927 0.81744772
0.14143135 -0.11308783 0.8313176
0.14243288 -0.11298072 0.83125579
0.14373516 -0.11284018 0.83117431
0.14522995 -0.11267586 0.83107805
0.14684857 -0.11249235 0.8309688
0.14854805 -0.11229062 0.83084583
0.15046526 -0.1120475 0.83069307
0.15239808 -0.11177984 0.83051866
0.15433754 -0.11148104 0.83031625
0.1562756 -0.11114297 0.83007824
0.15820375 -0.11075559 0.82979518
0.16011165 -0.11030634 0.82945544
0.16198544 -0.10977922 0.82904398
0.16380495 -0.1091535 0.82854128
0.16553907 -0.10840194 0.82792163
0.16713844 -0.1074897 0.82715172
0.16852567 -0.1063767 0.82619256
0.16959262 -0.10503199 0.82501233
0.17023593 -0.10346539 0.82361621
0.17044266 -0.10173436 0.82205588
0.17031454 -0.099840961 0.8203367
0.17012517 -0.098533824 0.81914634
0.13727038 -0.11353014 0.83157188
0.13626863 -0.11363598 0.83163249
0.13496569 -0.11377236 0.83171022
0.13346916 -0.11392602 0.83179677
0.13184689 -0.11408702 0.83188552
0.13014071 -0.11424731 0.83197069
0.12821098 -0.11441312 0.83205301
0.12625834 -0.11455847 0.83211595
0.12428937 -0.11467514 0.83215243
0.12230925 -0.11475357 0.8321538
0.12032301 -0.11478228 0.83210999
0.11833662 -0.11474699 0.83200818
0.11635838 -0.11462935 0.83183211
0.1144012 -0.11440507 0.83156019
0.11248642 -0.1140414 0.83116353
0.11065065 -0.11349431 0.83060354
0.10895592 -0.11270891 0.82983273
0.10749681 -0.11163272 0.82880682
0.10637634 -0.11025361 0.82751852
0.1056253 -0.10862439 0.82601666
0.10514607 -0.10676832 0.82431895
0.10491271 -0.10546586 0.82313126
0.1333046 -0.089047946 0.80926138
0.13230306 -0.089155056 0.80932319
0.1310008 -0.089295611 0.80940467
0.12950601 -0.089459926 0.80950093
0.12788738 -0.089643426 0.80961019
0.12618789 -0.089845158 0.80973315
0.12427069 -0.090088278 0.80988592
0.12233788 -0.09035594 0.81006038
0.12039841 -0.090654738 0.81026274
0.11846034 -0.090992808 0.8105008
0.11653221 -0.091380194 0.8107838
0.1146243 -0.091829449 0.81112355
0.11275051 -0.092356555 0.81153506
0.11093101 -0.092982285 0.81203777
0.10919689 -0.09373384 0.81265736
0.10759751 -0.094646081 0.81342727
0.10621028 -0.095759086 0.81438643
0.10514333 -0.097103789 0.81556672
0.10450003 -0.098670393 0.81696278
0.10429329 -0.10040142 0.81852311
0.10442142 -0.10229482 0.82024229
0.10461079 -0.10360195 0.82143271
0.13746485 -0.088698022 0.80909097
0.13845916 -0.088592969 0.80903077
0.13975243 -0.088457599 0.80895364
0.14123785 -0.088305078 0.80886775
0.14284809 -0.088145271 0.80877966
0.14454162 -0.087986171 0.80869508
0.14645703 -0.087821595 0.80861342
0.14839517 -0.087677322 0.80855089
0.15034953 -0.087561518 0.80851471
0.15231496 -0.087483667 0.80851334
0.15428646 -0.087455176 0.80855685
0.15625812 -0.087490201 0.80865788
0.15822168 -0.087606974 0.80883265
0.16016434 -0.087829575 0.80910254
0.16206491 -0.088190563 0.80949628
0.16388705 -0.088733591 0.8100521
0.16556922 -0.089513153 0.81081718
0.16701749 -0.090581357 0.81183547
0.16812965 -0.091950238 0.81311423
0.16887511 -0.093567364 0.81460494
0.1693508 -0.095409669 0.81629002
0.16958241 -0.096702471 0.81746894
0.1414012 -0.11299855 0.83123589
0.1423953 -0.11289224 0.83117455
0.1436879 -0.11275273 0.83109367
0.14517161 -0.11258963 0.83099812
0.14677823 -0.1124075 0.83088964
0.1484651 -0.11220726 0.83076763
0.15036808 -0.11196595 0.830616
0.15228654 -0.11170027 0.83044285
0.15421163 -0.11140369 0.83024192
0.15613531 -0.11106813 0.83000571
0.15804914 -0.11068361 0.82972479
0.1599429 -0.1102377 0.82938755
0.16180278 -0.1097145 0.82897907
0.16360877 -0.10909341 0.82848012
0.16533004 -0.10834743 0.82786512
0.16691755 -0.10744196 0.82710093
0.16829447 -0.10633722 0.82614887
0.16935351 -0.10500249 0.8249774
0.16999204 -0.10344751 0.82359165
0.17019723 -0.10172933 0.82204288
0.17007007 -0.099849977 0.82033646
0.1698821 -0.09855254 0.81915492
0.13727109 -0.11343758 0.83148825
0.13627678 -0.11354263 0.83154845
0.13498351 -0.113678 0.83162558
0.13349809 -0.11383052 0.83171147
0.13188785 -0.11399033 0.83179957
0.13019432 -0.11414943 0.83188409
0.12827891 -0.114314 0.8319658
0.12634078 -0.11445828 0.83202833
0.12438641 -0.11457408 0.83206451
0.12242098 -0.11465193 0.83206588
0.12044948 -0.11468042 0.83202237
0.11847783 -0.1146454 0.83192134
0.11651427 -0.11452863 0.83174658
0.11457161 -0.11430603 0.83147669
0.11267104 -0.11394504 0.83108294
0.11084889 -0.11340201 0.83052713
0.10916673 -0.11262245 0.82976198
0.10771845 -0.11155424 0.8287437
0.1066063 -0.11018536 0.82746494
0.10586083 -0.10856824 0.82597429
0.10538515 -0.10672593 0.8242892
0.10515353 -0.10543314 0.82311028
0.13333476 -0.089137048 0.80934334
0.13234064 -0.08924336 0.80940467
0.13104804 -0.089382872 0.80948555
0.12956433 -0.089545965 0.8095811
0.12795772 -0.08972811 0.80968952
0.12627085 -0.089928344 0.80981159
0.12436787 -0.090169661 0.80996323
0.1224494 -0.090435334 0.81013638
0.12052432 -0.090731911 0.81033725
0.11860064 -0.091067478 0.81057352
0.11668681 -0.091451988 0.81085443
0.11479305 -0.091897905 0.81119168
0.11293317 -0.0924211 0.81160009
0.11112717 -0.093042187 0.81209904
0.10940591 -0.093788169 0.8127141
