# .PCD v0.7 - Point Cloud Data file format
VERSION 0.7
FIELDS x y z
SIZE 4 4 4
TYPE F F F
COUNT 1 1 1
WIDTH 1331
HEIGHT 1
VIEWPOINT 0 0 0 1 0 0 0
POINTS 1331
DATA ascii
-0.025363581 0.039909858 0.83343238
-0.024126096 0.041043893 0.83240461
-0.022365144 0.041908097 0.83161557
-0.020213751 0.042417143 0.83114302
-0.017887119 0.042626578 0.8309384
-0.015471396 0.04264608 0.83090389
-0.012915079 0.042556826 0.83096611
-0.0097547909 0.042387348 0.83109623
-0.010123438 0.042408295 0.83107996
0.0092390915 0.030523773 0.84162384
0.0092957942 0.031129463 0.84107912
0.0093647195 0.03192196 0.84036648
0.009431636 0.032863457 0.83951992
0.009471626 0.033914819 0.83857483
0.0094295125 0.035251547 0.83737385
0.0092042005 0.036611319 0.83615351
0.0086691827 0.037958328 0.83494675
0.0076650339 0.039220907 0.83381921
0.0060909796 0.040276349 0.83288181
0.0040620482 0.041025102 0.83222324
0.0018018066 0.041497566 0.83181453
-0.00058331783 0.041792359 0.83156639
-0.0031285326 0.041995637 0.83140159
-0.0062865475 0.042188469 0.83125055
-0.0059179366 0.042167142 0.83126712
0.0085854074 0.027494343 0.84435087
0.0085253855 0.026900714 0.84488475
0.008441749 0.026124584 0.84558278
0.0083278753 0.025204204 0.84641069
0.0081670303 0.024180308 0.84733194
0.0078723961 0.022888899 0.84849459
0.0073957564 0.021595631 0.8496601
0.0066212392 0.020349368 0.85078555
0.0054078735 0.019237436 0.85179329
0.0036812448 0.018390078 0.8525669
0.0015717851 0.017890954 0.85303032
-0.00070949737 0.0176856 0.85323089
-0.0030781366 0.017666478 0.85326475
-0.0055846269 0.017753994 0.85320371
-0.0086833183 0.017920166 0.85307616
-0.0083218561 0.017899627 0.85309207
-0.027306987 0.029552508 0.84275371
-0.027362583 0.028958624 0.84328783
-0.027430166 0.028181572 0.84398657
-0.027495779 0.027258426 0.84481663
-0.027534988 0.026227554 0.8457433
-0.027493695 0.024916884 0.84692085
-0.027272778 0.023583615 0.84811747
-0.026748186 0.02226286 0.84930068
-0.025763609 0.021024892 0.85040623
-0.024220236 0.019990021 0.85132539
-0.022230851 0.01925586 0.85197115
-0.020014664 0.018792609 0.85237187
-0.017676027 0.01850356 0.85261518
-0.015180423 0.018304242 0.85277671
-0.012083962 0.018115168 0.85292488
-0.012445387 0.018136082 0.85290861
-0.02701297 0.032572377 0.84003782
-0.02695295 0.033166006 0.83950394
-0.026869312 0.033942141 0.83880591
-0.026755439 0.034862518 0.83797801
-0.026594594 0.035886414 0.83705676
-0.026299961 0.037177823 0.83589417
-0.025823321 0.038471092 0.8347286
-0.025048804 0.039717354 0.8336032
-0.023835437 0.040829286 0.83259541
-0.022108808 0.041676644 0.8318218
-0.019999349 0.042175766 0.83135837
-0.017718066 0.042381123 0.8311578
-0.015349427 0.042400245 0.83112395
-0.012842936 0.042312726 0.83118498
-0.0097442456 0.042146556 0.83131254
-0.010105708 0.042167094 0.83129662
0.0088794241 0.030514214 0.84163499
0.0089350203 0.031108098 0.84110087
0.0090026027 0.031885151 0.84040213
0.0090682153 0.032808296 0.83957207
0.0091074249 0.033839166 0.8386454
0.0090661319 0.035149839 0.83746785
0.0088452129 0.036483105 0.83627123
0.0083206231 0.037803862 0.83508801
0.0073360451 0.039041828 0.83398247
0.0057926723 0.040076699 0.8330633
0.003803286 0.040810861 0.83241755
0.0015870996 0.041274112 0.83201683
-0.00075153587 0.041563161 0.83177352
-0.0032471409 0.041762479 0.83161199
-0.0063436027 0.041951556 0.83146381
-0.0059821764 0.041930638 0.83148009
0.008230919 0.02754491 0.8443079
0.0081720939 0.026963104 0.84483117
0.0080901226 0.026202429 0.84551531
0.0079785148 0.025300382 0.84632671
0.0078208754 0.024296876 0.84722966
0.0075321086 0.023031188 0.84836906
0.0070649609 0.021763677 0.84951144
0.0063058678 0.020542236 0.85061443
0.0051166685 0.019452449 0.85160214
0.0034244277 0.018621964 0.85236037
0.0013569805 0.018132783 0.8528145
-0.00087886874 0.017931517 0.85301107
-0.0032003338 0.017912777 0.85304427
-0.005656905 0.017998548 0.85298443
-0.0086938832 0.01816141 0.85285944
-0.0083396193 0.018141283 0.85287505
-0.026946643 0.029562084 0.84274262
-0.027001133 0.028980028 0.84326607
-0.027067369 0.028218452 0.84395093
-0.027131675 0.027313692 0.84476441
-0.027170105 0.026303351 0.84567267
-0.027129633 0.025018783 0.84682673
-0.026913114 0.023712069 0.84799951
-0.02639897 0.022417616 0.84915912
-0.025434002 0.021204304 0.85024267
-0.023921369 0.020190045 0.85114354
-0.021971602 0.019470505 0.85177642
-0.019799553 0.019016478 0.85216916
-0.017507493 0.018733187 0.85240763
-0.015061592 0.018537838 0.85256594
-0.012026799 0.018352529 0.85271114
-0.012381027 0.018373027 0.85269523
-0.026658483 0.03252181 0.8400808
-0.026599657 0.033103619 0.83955753
-0.026517686 0.033864293 0.83887339
-0.02640608 0.034766339 0.83806199
-0.02624844 0.035769846 0.83715904
-0.025959672 0.037035532 0.83601964
-0.025492525 0.038303044 0.83487725
-0.024733432 0.039524484 0.83377427
-0.023544233 0.040614273 0.83278656
-0.021851992 0.041444756 0.83202833
-0.019784544 0.041933939 0.8315742
-0.017548695 0.042135205 0.83137763
-0.01522723 0.042153943 0.83134443
-0.012770658 0.042068172 0.83140427
-0.0097336806 0.04190531 0.83152926
-0.010087945 0.041925438 0.83151364
0.0085190805 0.030504636 0.84164613
0.0085735694 0.031086693 0.84112269
0.008639806 0.03184827 0.84043783
0.008704111 0.032753032 0.83962429
0.0087425411 0.033763371 0.83871609
0.0087020695 0.035047937 0.83756196
0.008485551 0.036354654 0.83638918
0.0079714069 0.037649106 0.83522958
0.0070064394 0.038862418 0.83414602
0.0054938039 0.039876677 0.83324516
0.0035440389 0.040596217 0.83261228
0.0013719894 0.041050244 0.83221954
-0.00092006946 0.041333534 0.83198106
-0.0033659723 0.041528884 0.83182275
-0.0064007649 0.041714191 0.83167756
-0.0060465373 0.041693695 0.83169347
0.0078757321 0.027595578 0.84426486
0.0078181038 0.027025616 0.84477746
0.0077378023 0.026280431 0.84544772
0.0076284674 0.025396748 0.84624261
0.0074740374 0.024413675 0.84712714
0.0071911509 0.023173757 0.84824336
0.0067335144 0.021932054 0.84936243
0.0059898766 0.020735482 0.85044301
0.0048248908 0.019667884 0.85141057
0.0031671051 0.018854309 0.85215336
0.0011417518 0.018375088 0.85259825
-0.0010485731 0.018177919 0.85279083
-0.0033227722 0.018159561 0.85282332
-0.0057293256 0.018243587 0.85276479
-0.0087044686 0.018403133 0.8526423
-0.0083574178 0.018383414 0.85265762
-0.02658559 0.02957168 0.84273142
-0.02663897 0.029001474 0.84324419
-0.026703859 0.028255405 0.84391516
-0.026766853 0.027369067 0.84471208
-0.026804501 0.026379297 0.8456018
-0.026764855 0.025120884 0.84673244
-0.026552742 0.023840776 0.84788132
-0.026049068 0.022572678 0.84901732
-0.025103748 0.02138407 0.85007882
-0.023621911 0.020390462 0.85096133
-0.021711843 0.019685572 0.85158134
-0.019584021 0.019240791 0.85196608
-0.017338628 0.018963266 0.85219967
-0.014942526 0.018771896 0.85235482
-0.011969524 0.018590361 0.85249704
-0.012316539 0.01861044 0.85248142
-0.026303297 0.032471143 0.84012383
-0.026245667 0.033041105 0.83961123
-0.026165366 0.033786293 0.83894098
-0.026056031 0.034669973 0.83814609
-0.025901601 0.035653047 0.83726156
-0.025618715 0.036892965 0.83614534
-0.025161078 0.038134668 0.83502626
-0.024417439 0.039331239 0.83394569
-0.023252454 0.04039884 0.83297813
-0.02159467 0.041212413 0.83223534
-0.019569315 0.041691635 0.83179045
-0.017378991 0.041888803 0.83159786
-0.015104791 0.041907161 0.83156538
-0.012698238 0.041823134 0.83162391
-0.0097230952 0.041663587 0.8317464
-0.010070146 0.041683309 0.83173114
0.0081580263 0.030495042 0.84165728
0.008211405 0.031065246 0.8411445
0.008276294 0.031811316 0.84047359
0.0083392896 0.032697655 0.83967662
0.0083769374 0.033687424 0.8387869
0.00833729 0.034945838 0.83765626
0.0081251794 0.036225945 0.83650738
0.0076215039 0.037494045 0.83537138
0.006676184 0.038682651 0.83430988
0.0051943474 0.03967626 0.83342737
0.00328428 0.040381148 0.83280736
0.001156456 0.040825929 0.83242261
-0.0010889358 0.041103456 0.83218902
-0.0034850382 0.041294824 0.83203393
-0.0064580399 0.041476361 0.83189166
-0.0061110249 0.041456282 0.83190727
0.0075198147 0.027646348 0.84422177
0.0074633881 0.027088258 0.8447237
0.0073847566 0.026358591 0.84537995
0.0072777011 0.025493313 0.84615827
0.0071264859 0.024530714 0.84702438
0.0068494915 0.02331662 0.84811741
0.0064013856 0.022100776 0.84921318
0.0056732362 0.020929124 0.85027117
0.0045325123 0.019883761 0.85121864
0.0029092527 0.019087132 0.85194594
0.00092608092 0.018617891 0.85238159
-0.0012186269 0.018424829 0.85257018
-0.0034454621 0.018406853 0.85260201
-0.0058018952 0.018489128 0.85254461
-0.0087150754 0.018645352 0.85242474
-0.0083752526 0.018626044 0.8524397
-0.026223794 0.029581295 0.84272027
-0.026276061 0.029022966 0.84322238
-0.026339598 0.028292434 0.84387928
-0.026401283 0.027424555 0.84465969
-0.026438145 0.026455399 0.84553087
-0.026399324 0.025223194 0.8466379
-0.026191631 0.023969745 0.84776288
-0.025698446 0.022728059 0.84887522
-0.024772814 0.021564206 0.84991461
-0.023321837 0.020591291 0.85077876
-0.021451551 0.019901082 0.85138583
-0.019368043 0.019465564 0.85176253
-0.017169414 0.019193821 0.8519913
-0.014823215 0.019006435 0.85214317
-0.011912131 0.018828679 0.85228246
-0.012251919 0.018848341 0.85226721
-0.025947379 0.032420374 0.84016693
-0.025890952 0.032978464 0.83966506
-0.02581232 0.033708129 0.83900875
-0.025705265 0.03457341 0.83823043
-0.02555405 0.035536006 0.83736432
-0.025277056 0.036750101 0.83627129
-0.02482895 0.037965946 0.83517551
-0.024100799 0.039137598 0.83411753
-0.022960076 0.040182959 0.83317006
-0.021336816 0.04097959 0.83244276
-0.019353645 0.041448832 0.83200711
-0.017208938 0.041641891 0.83181852
-0.014982102 0.041659869 0.83178675
-0.012625668 0.041577592 0.83184409
-0.0097124884 0.041421369 0.83196402
-0.01005231 0.041440677 0.83194906
0.0077962293 0.030485427 0.84166849
0.0078484984 0.031043755 0.84116632
0.0079120332 0.031774286 0.84050941
0.0079737194 0.032642167 0.83972907
0.0080105811 0.033611324 0.83885783
0.0079717608 0.034843527 0.83775079
0.007764067 0.036096975 0.83662587
0.0072708819 0.037338663 0.83551347
0.0063452492 0.038502514 0.83447409
0.0048942743 0.03947543 0.83361
0.0030239874 0.04016564 0.83300287
0.00094047876 0.040601157 0.83262616
-0.001258149 0.040872902 0.8323974
-0.0036043487 0.041060288 0.83224553
-0.0065154326 0.041238043 0.83210623
-0.0061756447 0.041218381 0.83212155
0.0071631246 0.02769723 0.84417856
0.0071079009 0.027151035 0.84466976
0.0070309467 0.026436921 0.84531206
0.0069261724 0.025590088 0.84607381
0.0067781806 0.024648007 0.84692144
0.0065070908 0.023459792 0.84799111
0.0060685361 0.022269865 0.84906358
0.0053559081 0.021123188 0.85009903
0.0042394996 0.020100107 0.8510263
0.0026508414 0.019320458 0.8517381
0.00070994208 0.018861219 0.85216445
-0.0013890497 0.018672274 0.85234898
-0.0035684181 0.01865468 0.85238016
-0.0058746221 0.018735202 0.85232401
-0.0087257056 0.018888095 0.85220665
-0.0083931265 0.018869199 0.85222131
-0.025861211 0.029590931 0.84270906
-0.025912367 0.029044503 0.84320045
-0.025974547 0.028329544 0.8438434
-0.026034918 0.027480163 0.84460711
-0.026070995 0.026531667 0.84545976
-0.026033001 0.025325727 0.84654319
-0.025829734 0.024098996 0.84764415
-0.025347063 0.022883777 0.84873283
-0.02444116 0.021744732 0.84975004
-0.023021115 0.020792557 0.85059577
-0.021190694 0.020117059 0.85118991
-0.019151596 0.019690825 0.85155863
-0.016999835 0.019424872 0.85178244
-0.014703646 0.019241482 0.8519311
-0.011854613 0.019067517 0.85206741
-0.012187159 0.019086758 0.85205245
-0.025590688 0.032369491 0.8402102
-0.025535464 0.032915685 0.83971894
-0.025458511 0.033629801 0.83907664
-0.025353735 0.034476634 0.83831489
-0.025205744 0.035418715 0.83746725
-0.024934655 0.03660693 0.83639759
-0.024496099 0.037796855 0.83532518
-0.023783471 0.038943533 0.83428967
-0.022667063 0.039966613 0.8333624
-0.021078406 0.040746264 0.8326506
-0.019137505 0.041205503 0.83222425
-0.017038515 0.04139445 0.83203971
-0.014859146 0.041412041 0.8320086
-0.012552942 0.041331518 0.83206469
-0.0097018573 0.041178625 0.83218205
-0.010034437 0.041197523 0.83216739
0.0074336478 0.03047579 0.84167969
0.0074848025 0.031022219 0.84118825
0.0075469841 0.031737179 0.8405453
0.0076073543 0.03258656 0.83978158
0.007643431 0.033535056 0.838929
0.0076054381 0.034740996 0.8378455
0.0074021709 0.035967726 0.83674455
0.006919499 0.037182946 0.83565587
0.0060135964 0.038321991 0.83463866
0.0045935507 0.039274167 0.83379292
0.0027631302 0.039949663 0.83319879
0.00072403287 0.040375896 0.83283007
-0.0014277294 0.040641848 0.83260626
-0.0037239178 0.04082524 0.8324576
-0.0065729502 0.040999208 0.83232129
-0.0062404047 0.040979963 0.83233625
0.0068056276 0.027748225 0.84413522
0.0067516076 0.027213953 0.8446157
0.006676334 0.02651543 0.84524399
0.0065738466 0.025687082 0.84598911
0.0064290864 0.024765566 0.84681827
0.0061639128 0.02360329 0.84786457
0.0057349317 0.022439338 0.84891361
0.0050378605 0.021317692 0.84992647
0.0039458224 0.020316945 0.85083348
0.0023918434 0.019554315 0.85152978
0.00049331336 0.019105101 0.85194677
-0.0015598589 0.01892028 0.85212731
-0.0036916533 0.018903069 0.85215777
-0.005947514 0.018981833 0.85210288
-0.0087363599 0.01913139 0.85198808
-0.0084110415 0.019112905 0.85200238
-0.025497809 0.029600589 0.8426978
-0.025547845 0.02906609 0.84317851
-0.02560867 0.028366737 0.8438074
-0.025667723 0.027535899 0.84455442
-0.025703013 0.026608106 0.84538847
-0.025665848 0.025428491 0.84644824
-0.025467018 0.024228539 0.84752518
-0.024994884 0.023039849 0.84859008
-0.024108756 0.021925667 0.84958512
-0.022719709 0.020994278 0.85041237
-0.020929245 0.020333527 0.85099357
-0.01893466 0.019916596 0.85135418
-0.016829869 0.01965645 0.85157317
-0.014583806 0.019477062 0.8517186
-0.011796966 0.019306894 0.85185188
-0.012122252 0.019325716 0.85183728
-0.025233191 0.032318495 0.84025347
-0.025179172 0.032852769 0.839773
-0.025103897 0.033551291 0.83914471
-0.02500141 0.034379639 0.83839959
-0.024856651 0.035301156 0.83757049
-0.024591476 0.036463432 0.83652413
-0.024162496 0.037627384 0.83547509
-0.023465425 0.038749028 0.83446223
-0.022373386 0.039749775 0.83355522
-0.020819407 0.040512405 0.83285898
-0.018920878 0.040961619 0.83244193
-0.016867705 0.041146442 0.83226138
-0.014735911 0.041163653 0.83223093
-0.01248005 0.041084889 0.83228582
-0.009691203 0.04093533 0.83240062
-0.010016522 0.040953815 0.83238631
0.0070702452 0.030466132 0.8416909
0.0071202819 0.031000633 0.84121025
0.0071811061 0.031699985 0.8405813
0.007240159 0.032530826 0.83983427
0.0072754491 0.033458617 0.83900023
0.0072382838 0.03463823 0.83794045
0.0070394543 0.035838183 0.83686352
0.0065673194 0.037026871 0.83579862
0.0056811925 0.038141053 0.83480358
0.0042921444 0.039072447 0.83397633
0.0025016817 0.039733194 0.83339518
0.00050709635 0.040150125 0.83303452
-0.0015976941 0.040410273 0.83281553
-0.003843758 0.04058966 0.83267015
-0.0066305981 0.040759828 0.83253682
-0.0063053118 0.040741004 0.83255142
0.0064472756 0.027799344 0.84409183
0.0063944664 0.027277024 0.84456158
0.0063208742 0.026594125 0.84517574
0.0062206807 0.025784308 0.84590423
0.0060791569 0.024883406 0.84671479
0.0058199163 0.023747129 0.84773773
0.0054005315 0.022609215 0.84876329
0.0047190539 0.021512661 0.8497535
0.0036514441 0.020534299 0.85064024
0.0021322274 0.019788729 0.85132092
0.00027616692 0.019349564 0.85172862
-0.0017310756 0.019168876 0.85190511
-0.003815182 0.019152053 0.85193491
-0.00602058 0.019229054 0.85188121
-0.0087470403 0.019375267 0.85176903
-0.0084289983 0.019357195 0.85178298
-0.025133537 0.029610271 0.84268653
-0.025182458 0.029087728 0.84315646
-0.025241919 0.028404018 0.84377128
-0.025299652 0.027591767 0.84450161
-0.02533415 0.026684728 0.84531701
-0.025297817 0.025531502 0.84635311
-0.025103437 0.024358392 0.84740597
-0.024641862 0.023196293 0.84844702
-0.023775557 0.022107037 0.84941977
-0.022417583 0.021196479 0.85022849
-0.020667171 0.02055051 0.8507967
-0.018717205 0.020142905 0.85114926
-0.0166595 0.01988858 0.85136336
-0.014463679 0.019713204 0.85150552
-0.01173918 0.019546842 0.85163587
-0.01205719 0.019565245 0.85162157
-0.02487484 0.032267377 0.84029692
-0.02482203 0.0327897 0.83982712
-0.024748437 0.033472598 0.83921295
-0.024648244 0.034282412 0.83848447
-0.02450672 0.035183314 0.8376739
-0.024247481 0.036319591 0.83665097
-0.023828095 0.037457507 0.83562541
-0.023146618 0.038554061 0.8346352
-0.022079008 0.039532423 0.83374846
-0.020559791 0.040277991 0.83306777
-0.018703731 0.040717158 0.83266008
-0.016696488 0.040897846 0.83248359
-0.014612381 0.04091467 0.83245379
-0.012406983 0.040837668 0.83250749
-0.0096805235 0.040691454 0.83261973
-0.0099985655 0.040709525 0.83260572
0.0067059738 0.030456452 0.84170216
0.0067548933 0.030978994 0.84123224
0.006814355 0.031662703 0.84061742
0.0068720877 0.032474957 0.83988708
0.0069065862 0.033381995 0.83907169
0.0068702535 0.034535222 0.83803558
0.006675872 0.035708331 0.83698279
0.0062142992 0.036870427 0.83594167
0.0053479942 0.037959684 0.83496892
0.0039900192 0.038870241 0.83416021
0.0022396082 0.039516211 0.833592
0.00028964222 0.039923817 0.83323944
-0.0017680646 0.040178142 0.83302534
-0.0039638849 0.040353518 0.83288318
-0.0066883834 0.040519878 0.83275282
-0.0063703735 0.040501475 0.83276713
0.0060880226 0.027850591 0.84404826
0.0060364236 0.027340252 0.84450728
0.0059645213 0.026673019 0.84510738
0.0058666249 0.025881777 0.84581912
0.0057283486 0.025001543 0.84661114
0.0054750545 0.023891332 0.84761059
0.0050652907 0.022779519 0.84861261
0.0043994444 0.02170812 0.84958011
0.003356325 0.020752201 0.85044646
0.0018719579 0.020023733 0.85111159
5.8474991e-05 0.019594641 0.85150993
-0.0019027237 0.0194181 0.85168236
-0.0039390218 0.019401662 0.85171145
-0.0060938299 0.019476898 0.851659
-0.0087577468 0.019619755 0.85154939
-0.0084470008 0.019602098 0.85156304
-0.024768351 0.029619975 0.84267527
-0.024816146 0.029109418 0.8431344
-0.024874246 0.028441396 0.84373516
-0.024930652 0.027647775 0.84444875
-0.024964361 0.026761543 0.84524536
-0.024928862 0.025634771 0.84625769
-0.024738939 0.024488572 0.8472864
-0.024287954 0.02335313 0.84830362
-0.023441521 0.022288861 0.84925407
-0.022114698 0.021399191 0.85004419
-0.020404439 0.020768039 0.85059935
-0.018499205 0.020369787 0.85094386
-0.016488699 0.020121293 0.85115302
-0.01434325 0.019949941 0.85129195
-0.011681249 0.019787395 0.85141927
-0.011991965 0.019805375 0.85140532
-0.024515586 0.032216132 0.84034044
-0.024463987 0.03272647 0.83988142
-0.024392085 0.033393703 0.83928132
-0.024294188 0.034184944 0.83856958
-0.024155913 0.035065178 0.83777761
-0.023902617 0.036175393 0.8367781
-0.023492854 0.037287202 0.83577609
-0.022827009 0.038358603 0.83480859
-0.021783888 0.03931452 0.83394223
-0.020299522 0.040042989 0.83327717
-0.018486038 0.040472079 0.83287877
-0.01652484 0.040648621 0.83270633
-0.014488542 0.04066506 0.83267725
-0.012333734 0.040589824 0.8327297
-0.0096698171 0.040446967 0.83283931
-0.0099805631 0.040464625 0.83282566
0.0063407868 0.030446745 0.84171343
0.0063885828 0.030957302 0.84125429
0.0064466819 0.031625327 0.8406536
0.0065030893 0.032418948 0.83994001
0.0065367976 0.033305179 0.83914334
0.0065012979 0.034431949 0.83813101
0.0063113756 0.03557815 0.83710229
0.0058603897 0.036713593 0.83608514
0.0050139572 0.037777863 0.83513469
0.0036871333 0.03866753 0.83434451
0.0019768765 0.039298683 0.83378935
7.1640374e-05 0.039696936 0.83344483
-0.001938864 0.039945427 0.83323568
-0.0040843138 0.04011678 0.8330968
-0.006746314 0.040279325 0.83296943
-0.0064355996 0.040261347 0.83298337
0.0057278173 0.027901974 0.84400463
0.0056774328 0.027403647 0.8444528
0.0056072231 0.026752122 0.84503877
0.0055116303 0.025979506 0.84573376
0.0053766095 0.025119992 0.84650713
0.0051292782 0.024035914 0.8474831
0.0047291592 0.022950275 0.84846151
0.0040789885 0.021904096 0.84940624
0.0030604242 0.02097068 0.85025221
0.0016109992 0.020259362 0.85090166
-0.00015979528 0.019840371 0.85129064
-0.0020748267 0.019667985 0.85145903
-0.0040631904 0.019651933 0.85148746
-0.0061672735 0.019725397 0.8514362
-0.0087684821 0.019864891 0.85132915
-0.0084650507 0.01984765 0.8513425
-0.024402196 0.029629707 0.84266394
-0.024448866 0.029131168 0.84311229
-0.024505597 0.02847887 0.84369886
-0.024560675 0.027703932 0.84439564
-0.024593592 0.026838562 0.84517354
-0.024558928 0.025738314 0.84616202
-0.024373475 0.024619097 0.84716654
-0.023933107 0.023510383 0.84815979
-0.023106599 0.022471167 0.84908783
-0.021811008 0.021602441 0.84985942
-0.020141011 0.020986145 0.85040152
-0.018280623 0.020597268 0.85073793
-0.016317448 0.020354625 0.85094213
-0.014222502 0.020187305 0.8510778
-0.011623166 0.020028587 0.85120213
-0.011926565 0.020046143 0.85118848
-0.02415538 0.032164749 0.84038407
-0.024104996 0.032663073 0.8399359
-0.024034787 0.033314601 0.83934993
-0.023939194 0.034087215 0.83865494
-0.023804173 0.034946728 0.83788157
-0.023556842 0.036030807 0.8369056
-0.023156723 0.037116446 0.83592719
-0.022506552 0.038162626 0.83498245
-0.021487989 0.039096043 0.83413649
-0.020038564 0.039807361 0.83348703
-0.018267769 0.040226351 0.83309805
-0.016352737 0.040398736 0.83292967
-0.014364373 0.040414788 0.8329013
-0.012260291 0.040341325 0.8329525
-0.0096590817 0.040201832 0.83305955
-0.0099625131 0.040219072 0.8330462
0.0059746308 0.030437015 0.84172475
0.0060213017 0.030935552 0.84127641
0.0060780337 0.03158785 0.84068984
0.0061331121 0.032362789 0.83999306
0.0061660274 0.033228159 0.83921516
0.0061313636 0.034328409 0.83822668
0.0059459116 0.035447624 0.83722216
0.0055055432 0.036556337 0.83622891
0.0046790359 0.037595555 0.83530086
0.0033834451 0.038464282 0.83452928
0.0017134468 0.039080575 0.83398718
-0.00014693938 0.039469454 0.83365083
-0.0021101162 0.039712097 0.83344656
-0.0042050616 0.039879415 0.8333109
-0.0068043983 0.040038135 0.83318657
-0.006500998 0.040020578 0.83320022
0.005366601 0.0279535 0.84396088
0.0053174351 0.027467221 0.8443982
0.0052489224 0.026831446 0.84497005
0.0051556416 0.026077509 0.84564823
0.0050238841 0.025238773 0.84640288
0.0047825323 0.024180904 0.84735525
0.0043920865 0.02312151 0.84830999
0.0037576335 0.022100622 0.8492319
0.0027636932 0.021189772 0.85005742
0.0013493079 0.020495649 0.85069114
-0.00037867663 0.020086788 0.8510707
-0.0022474118 0.019918568 0.85123503
-0.0041877069 0.019902905 0.85126275
-0.0062409234 0.019974595 0.8512128
-0.0087792473 0.020110717 0.85110831
-0.0084831519 0.020093892 0.85112137
-0.024035012 0.029639466 0.84265256
-0.024080556 0.02915298 0.84309006
-0.024135916 0.028516449 0.8436625
-0.024189662 0.027760245 0.84434241
-0.024221782 0.026915796 0.84510154
-0.024187956 0.025842147 0.84606612
-0.024006987 0.024749989 0.84704632
-0.023577264 0.023668077 0.84801555
-0.022770738 0.022653984 0.84892124
-0.021506468 0.021806259 0.84967411
-0.019876843 0.021204865 0.8502031
-0.018061433 0.020825386 0.85053134
-0.016145715 0.020588608 0.85073066
-0.014101415 0.020425336 0.85086304
-0.011564918 0.020270454 0.85098433
-0.011860983 0.020287586 0.85097104
-0.023794165 0.032113221 0.84042782
-0.023744998 0.032599501 0.8399905
-0.023676487 0.033235274 0.83941865
-0.023583205 0.033989213 0.83874047
-0.023451447 0.034827948 0.83798581
-0.023210095 0.035885818 0.83703345
-0.022819649 0.036945213 0.8360787
-0.022185197 0.037966099 0.8351568
-0.021191256 0.038876951 0.83433127
-0.019776871 0.039571073 0.83369756
-0.018048886 0.039979935 0.833318
-0.016180152 0.040148154 0.83315367
-0.014239857 0.040163815 0.83312595
-0.012186641 0.040092126 0.8331759
-0.0096483165 0.039956003 0.83328038
-0.0099444119 0.039972831 0.83326733
0.0056074481 0.030427257 0.84173614
0.0056529911 0.030913742 0.84129864
0.0057083513 0.031550273 0.8407262
0.0057620988 0.032306477 0.84004629
0.0057942173 0.033150926 0.83928716
0.0057603926 0.034224574 0.83832258
0.0055794236 0.035316736 0.83734238
0.0051497007 0.036398645 0.83637315
0.0043431744 0.037412737 0.83546752
0.0030789047 0.038260464 0.83471459
0.0014492795 0.038861856 0.8341856
-0.0003661314 0.039241336 0.83385736
-0.0022818483 0.039478112 0.83365804
-0.0043261484 0.039641384 0.83352572
-0.006862646 0.039796267 0.83340436
-0.0065665799 0.039779138 0.83341765
0.0050043152 0.028005179 0.84391695
0.0049563707 0.027530983 0.84434342
0.0048895613 0.026911005 0.84490108
0.0047985977 0.026175803 0.8455624
0.0046701143 0.025357908 0.84629834
0.0044347593 0.024326323 0.84722698
0.004054015 0.023293253 0.84815806
0.0034353263 0.022297731 0.84905702
0.0024660826 0.021409513 0.84986204
0.0010868423 0.020732637 0.85048002
-0.00059820618 0.020333935 0.85085016
-0.0024205088 0.020169897 0.85101038
-0.0043125916 0.020154621 0.85103744
-0.0063147913 0.020224528 0.85098869
-0.0087900441 0.02035727 0.85088682
-0.0085013062 0.020340864 0.85089952
-0.023666741 0.029649252 0.84264117
-0.023711152 0.029174855 0.84306782
-0.023765137 0.028554142 0.84362602
-0.02381755 0.027816726 0.84428906
-0.023848871 0.02699326 0.84502929
-0.023815885 0.025946289 0.84596992
-0.023639413 0.024881266 0.8469258
-0.023220368 0.023826238 0.84787095
-0.022433881 0.022837343 0.84875405
-0.021201028 0.022010682 0.84948826
-0.019611893 0.02142423 0.85000414
-0.017841591 0.021054182 0.85032421
-0.015973475 0.020823287 0.85051858
-0.01397997 0.02066407 0.85064763
-0.011506498 0.020513037 0.85076594
-0.011795207 0.020529743 0.85075295
-0.023431879 0.032061543 0.84047174
-0.023383934 0.032535739 0.84004527
-0.023317125 0.033155717 0.83948761
-0.023226161 0.033890922 0.8388263
-0.023097677 0.034708813 0.83809042
-0.022862323 0.035740398 0.83716172
-0.022481579 0.036773469 0.83623064
-0.021862891 0.03776899 0.83533168
-0.020893646 0.038657207 0.83452666
-0.019514406 0.039334085 0.83390868
-0.017829357 0.039732788 0.83353853
-0.016007055 0.039896827 0.83337831
-0.014114972 0.039912101 0.83335125
-0.012112772 0.039842192 0.83340001
-0.0096375197 0.039709453 0.83350188
-0.0099262577 0.039725859 0.83348918
0.005239178 0.030417468 0.84174752
0.005283589 0.030891867 0.84132087
0.0053375745 0.031512581 0.84076267
0.0053899861 0.032249995 0.84009963
0.0054213069 0.033073463 0.8393594
0.0053883218 0.034120433 0.83841878
0.0052118497 0.035185456 0.83746296
0.0047928039 0.036240485 0.83651781
0.0040063178 0.037229378 0.83563465
0.002773463 0.038056038 0.83490044
0.00118433 0.038642492 0.83438456
-0.00058597344 0.03901254 0.83406448
-0.0024540892 0.039243434 0.83387011
-0.0044475938 0.039402653 0.83374107
-0.0069210655 0.039553683 0.83362275
-0.0066323564 0.039536979 0.83363575
0.0046408898 0.02805702 0.84387296
0.0045941714 0.027594946 0.84428853
0.0045290692 0.026990816 0.84483188
0.0044404301 0.026274404 0.84547633
0.0043152319 0.025477415 0.84619343
0.0040858923 0.024472199 0.84709835
0.00371488 0.023465535 0.84800559
0.0031120053 0.02249546 0.8488816
0.0021675371 0.021629944 0.84966606
0.00082355068 0.020970371 0.85026824
-0.0008184269 0.02058186 0.85062891
-0.0025941499 0.020422013 0.85078508
-0.0044378703 0.020407129 0.85081142
-0.0063888915 0.02047525 0.85076392
-0.0088008754 0.020604597 0.85066462
-0.0085195173 0.02058861 0.85067701
-0.023297314 0.02965907 0.84262979
-0.023340588 0.029196799 0.84304547
-0.023393195 0.028591951 0.84358943
-0.023444265 0.027873386 0.84423554
-0.023474786 0.027070967 0.84495682
-0.023442645 0.026050758 0.84587342
-0.023270683 0.025012957 0.8468048
-0.022862349 0.023984898 0.84772581
-0.022095967 0.023021277 0.84858638
-0.020894624 0.022215748 0.84930182
-0.019346111 0.021644285 0.84980446
-0.017621057 0.021283695 0.85011643
-0.015800692 0.021058703 0.8503058
-0.013858142 0.020903558 0.85043156
-0.011447894 0.020756384 0.85054684
-0.011729225 0.020772664 0.8505342
-0.023068454 0.032009702 0.84051573
-0.023021735 0.032471776 0.84010017
-0.022956632 0.033075906 0.83955681
-0.022867994 0.033792317 0.83891237
-0.022742795 0.034589306 0.83819532
-0.022513457 0.035594523 0.83729035
-0.022142444 0.036601186 0.8363831
-0.021539569 0.037571263 0.83550709
-0.020595102 0.038436778 0.83472264
-0.019251114 0.039096352 0.83412045
-0.017609136 0.039484862 0.83375978
-0.015833413 0.039644707 0.83360362
-0.013989693 0.039659593 0.83357728
-0.012038672 0.039591473 0.83362478
-0.0096266884 0.039462123 0.83372408
-0.0099080466 0.039478112 0.83371168
0.0048697493 0.03040765 0.84175891
0.0049130255 0.030869924 0.84134322
0.0049656308 0.031474769 0.84079927
0.0050167022 0.032193337 0.84015322
0.0050472235 0.032995753 0.83943188
0.0050150813 0.034015965 0.83851528
0.0048431195 0.035053764 0.8375839
0.0044347849 0.036081824 0.83666289
0.0036684028 0.037045445 0.83580232
0.00246706 0.037850972 0.83508688
0.00091854623 0.038422436 0.83458424
-0.00080650672 0.038783025 0.83427233
-0.0026268724 0.039008018 0.8340829
-0.0045694211 0.039163165 0.83395714
-0.006979669 0.039310336 0.83384186
-0.0066983397 0.03929406 0.8338545
0.0042762514 0.028109036 0.84382874
0.0042307614 0.027659122 0.84423339
0.0041673728 0.027070891 0.84476244
0.0040810672 0.026373334 0.84538996
0.0039591636 0.025597323 0.84608817
0.0037358601 0.024618562 0.84696931
0.0033746129 0.023638392 0.84785265
0.0027876052 0.022693848 0.84870559
0.0018679939 0.021851113 0.84946942
0.00055937894 0.021208897 0.85005575
-0.0010393834 0.020830613 0.85040694
-0.002768371 0.020674974 0.85055894
-0.0045635668 0.02066048 0.85058463
-0.0064632399 0.020726809 0.85053837
-0.008811743 0.020852752 0.85044169
-0.0085377898 0.020837186 0.85045379
-0.022926651 0.029668922 0.84261829
-0.022968788 0.029218817 0.84302312
-0.023020009 0.028629888 0.84355271
-0.023069736 0.027930234 0.84418178
-0.023099454 0.027148934 0.8448841
-0.023068158 0.026155574 0.84577656
-0.022900723 0.025145089 0.8466835
-0.022503134 0.024144085 0.84758025
-0.021756923 0.023205828 0.84841818
-0.020587197 0.022421498 0.84911478
-0.019079439 0.021865077 0.84960419
-0.017399788 0.021513978 0.84990788
-0.015627332 0.021294907 0.85009229
-0.013735908 0.021143842 0.85021478
-0.011389095 0.021000544 0.85032701
-0.011663021 0.021016395 0.85031474
-0.022703815 0.031957686 0.84055996
-0.022658326 0.0324076 0.8401553
-0.022594936 0.032995831 0.83962625
-0.022508631 0.033693388 0.83899879
-0.022386728 0.0344694 0.83830053
-0.022163425 0.03544816 0.83741939
-0.021802176 0.036428329 0.83653605
-0.021215169 0.037372872 0.83568311
-0.020295558 0.038215607 0.83491927
-0.018986942 0.038857825 0.83433294
-0.01738818 0.03923611 0.83398175
-0.015659193 0.039391749 0.83382976
-0.013863998 0.03940624 0.83380407
-0.011964324 0.039339911 0.83385032
-0.0096158208 0.03921397 0.833947
-0.009889774 0.039229538 0.8339349
0.0044990871 0.030397801 0.84177041
0.0045412239 0.030847905 0.84136564
0.0045924443 0.031436834 0.84083599
0.0046421727 0.032136489 0.84020692
0.0046718903 0.032917786 0.8395046
0.0046405937 0.033911146 0.83861214
0.0044731582 0.034921631 0.83770519
0.004075571 0.035922635 0.83680844
0.0033293585 0.036860894 0.83597052
0.0021596332 0.037645224 0.83527392
0.0006518747 0.038201645 0.83478451
-0.0010277764 0.038552746 0.83448082
-0.0028002323 0.038771816 0.83429641
-0.0046916553 0.03892288 0.83417398
-0.0070384685 0.039066177 0.83406168
-0.0067645432 0.039050326 0.83407402
0.0039103166 0.028161235 0.84378445
0.0038660606 0.027723527 0.84417808
0.0038043915 0.027151253 0.84469283
0.0037204272 0.026472619 0.84530324
0.0036018305 0.025717655 0.84598255
0.0033845846 0.024765445 0.84683979
0.003033136 0.023811864 0.84769917
0.002462052 0.022892943 0.84852898
0.0015673856 0.022073068 0.84927207
0.00029426976 0.021448273 0.84984249
-0.0012611243 0.021080248 0.85018414
-0.0029432115 0.020928832 0.85033208
-0.0046897097 0.020914733 0.850357
-0.0065378519 0.020979261 0.85031205
-0.0088226488 0.021101788 0.850218
-0.0085561266 0.021086643 0.85022974
-0.022554671 0.029678807 0.84260678
-0.022595664 0.029240912 0.84300059
-0.022645496 0.028667958 0.84351587
-0.022693876 0.027987283 0.84412789
-0.022722786 0.027227178 0.84481114
-0.022692339 0.026260765 0.8456794
-0.022529446 0.025277689 0.84656173
-0.022142643 0.02430384 0.84743416
-0.021416673 0.023391033 0.84824932
-0.020278679 0.02262798 0.84892702
-0.01881182 0.022086652 0.8494032
-0.017177731 0.021745076 0.84969866
-0.015453355 0.021531949 0.84987807
-0.01361324 0.021384982 0.84999716
-0.011330087 0.021245571 0.85010642
-0.011596582 0.021260992 0.85009444
-0.02233788 0.031905487 0.84060425
-0.022293624 0.032343194 0.84021062
-0.022231955 0.032915469 0.83969593
-0.022147991 0.033594102 0.83908546
-0.022029394 0.034349065 0.83840615
-0.021812148 0.035301276 0.83754891
-0.021460699 0.036254857 0.83668953
-0.020889616 0.037173782 0.83585972
-0.01999495 0.037993655 0.83511662
-0.018721834 0.038618449 0.83454621
-0.017166439 0.038986474 0.83420455
-0.015484353 0.039137889 0.83405662
-0.013737854 0.039151989 0.8340317
-0.011889712 0.039087459 0.8340767
-0.009604915 0.038964935 0.8341707
-0.0098714372 0.038980078 0.83415896
0.0041271076 0.030387914 0.84178191
0.0041681011 0.030825811 0.84138811
0.0042179329 0.031398762 0.84087282
0.0042663119 0.03207944 0.8402608
0.0042952234 0.032839544 0.83957756
0.0042647761 0.033805955 0.83870929
0.0041018822 0.034789033 0.83782697
0.00371508 0.035762884 0.83695453
0.0029891089 0.036675688 0.83613938
0.0018511149 0.037438743 0.83546168
0.00038425616 0.037980068 0.83498549
-0.0012498328 0.038321644 0.83469003
-0.0029742082 0.038534772 0.83451062
-0.004814324 0.038681738 0.83439153
-0.0070974766 0.03882115 0.83428228
-0.0068309819 0.038805731 0.83429426
0.0035429932 0.028213633 0.84373993
0.0034999768 0.027788175 0.84412259
0.0034400334 0.027231919 0.84462285
0.0033584191 0.026572278 0.84521621
0.0032431416 0.025838446 0.84587651
0.0030319754 0.024912886 0.84670973
0.0026903641 0.023985993 0.84754509
0.002135264 0.023092791 0.84835172
0.0012656377 0.022295864 0.84907395
2.8154258e-05 0.021688556 0.84962845
-0.0014837071 0.021330832 0.84996057
-0.0031187148 0.021183653 0.85010427
-0.0048163314 0.021169949 0.85012853
-0.006612747 0.021232672 0.85008484
-0.0088335956 0.021351768 0.84999341
-0.0085745333 0.021337049 0.85000485
-0.02218128 0.029688731 0.84259528
-0.022221128 0.029263092 0.84297806
-0.022269564 0.028706174 0.84347886
-0.022316588 0.02804455 0.84407377
-0.022344692 0.027305719 0.84473789
-0.022315096 0.026366353 0.84558189
-0.022156762 0.025410794 0.84643948
-0.021780785 0.024464201 0.84728748
-0.021075133 0.023576941 0.84807986
-0.01996899 0.022835245 0.84873861
-0.018543186 0.022309067 0.84920144
-0.016954832 0.021977052 0.84948862
-0.015278719 0.021769889 0.84966302
-0.013490106 0.021627037 0.84977883
-0.011270855 0.021491528 0.84988499
-0.011529891 0.021506516 0.8498733
-0.021970557 0.031853087 0.84064877
-0.021927541 0.032278545 0.84026611
-0.021867597 0.032834802 0.83976585
-0.021785982 0.033494443 0.83917248
-0.021670705 0.034228276 0.83851218
-0.021459538 0.035153836 0.83767897
-0.021117928 0.036080729 0.83684361
-0.020562828 0.036973931 0.83603704
-0.019693201 0.037770856 0.83531475
-0.018455718 0.038378164 0.83476025
-0.016943857 0.038735889 0.83442819
-0.015308849 0.038883068 0.83428442
-0.013611232 0.038896773 0.83426017
-0.011814817 0.03883405 0.83430386
-0.0095939683 0.038714953 0.83439529
-0.0098530306 0.038729671 0.8343839
0.0037537168 0.030377991 0.84179342
0.0037935639 0.03080363 0.84141064
0.0038420002 0.031360548 0.84090984
0.0038890252 0.032022171 0.84031492
0.0039171274 0.032761004 0.83965081
0.0038875318 0.033700369 0.83880681
0.0037291979 0.034655929 0.83794922
0.0033532213 0.035602521 0.83710122
0.0026475692 0.036489781 0.83630884
0.0015414257 0.037231475 0.83565009
0.00011562173 0.037757654 0.83518726
-0.0014727312 0.03808967 0.83490008
-0.003148844 0.038296834 0.83472568
-0.0049374579 0.038439684 0.83460993
-0.0071567087 0.038575195 0.83450371
-0.0068976725 0.038560204 0.83451539
0.0031741811 0.028266244 0.84369522
0.003132408 0.027853087 0.8440668
0.0030741978 0.02731291 0.84455264
0.0029949425 0.026672341 0.84512889
0.0028829982 0.025959725 0.84577006
0.0026779373 0.025060926 0.84657919
0.0023462023 0.02416083 0.84739041
0.0018071505 0.02329345 0.84817368
0.00096266629 0.022519562 0.84887505
-0.0002390405 0.021929814 0.84941351
-0.0017071923 0.021582432 0.84973603
-0.0032949299 0.021439508 0.84987563
-0.0049434667 0.021426199 0.84989917
-0.0066879457 0.021487109 0.84985667
-0.008844587 0.021602763 0.84976792
-0.0085930154 0.021588467 0.84977901
-0.021806376 0.029698694 0.84258366
-0.021845071 0.02928536 0.84295541
-0.021892106 0.028744545 0.84344172
-0.021937773 0.02810205 0.84401941
-0.021965062 0.027384577 0.84466439
-0.021936322 0.026472371 0.84548396
-0.021782566 0.025544437 0.84631675
-0.021417459 0.02462521 0.84714025
-0.020732209 0.023763604 0.84790969
-0.019658044 0.023043351 0.84854943
-0.018273462 0.022532385 0.84899884
-0.016731031 0.022209968 0.84927773
-0.015103376 0.022008795 0.84944707
-0.013366473 0.021870073 0.84955955
-0.011211383 0.021738481 0.8496626
-0.01146293 0.021753035 0.84965134
-0.021601744 0.031800479 0.84069347
-0.021559972 0.032213636 0.8403219
-0.021501761 0.03275381 0.83983606
-0.021422505 0.033394381 0.83925986
-0.021310562 0.034106996 0.83861864
-0.021105502 0.035005797 0.8378095
-0.020773767 0.03590589 0.83699828
-0.020234715 0.036773272 0.83621502
-0.019390229 0.03754716 0.83551365
-0.018188523 0.038136907 0.83497518
-0.016720371 0.03848429 0.83465272
-0.015132634 0.038627215 0.83451307
-0.013484097 0.038640521 0.83448952
-0.011739618 0.038579613 0.83453202
-0.0095829768 0.038463958 0.83462077
-0.0098345485 0.038478255 0.83460969
0.0033788125 0.030368026 0.84180504
0.0034175073 0.03078136 0.84143329
0.0034645433 0.031322177 0.84094697
0.0035102083 0.031964675 0.84036928
0.0035374984 0.032682143 0.8397243
0.0035087585 0.033594351 0.8389048
0.003355002 0.034522284 0.83807194
0.0029898956 0.03544151 0.83724844
0.0023046446 0.036303118 0.83647901
0.0012304806 0.037023369 0.83583927
-0.00015410184 0.037534337 0.83538985
-0.0016965334 0.037856754 0.83511096
-0.0033241881 0.038057927 0.83494163
-0.0050610914 0.038196649 0.83482915
-0.0072161807 0.038328242 0.8347261
-0.0069646342 0.038313687 0.83473742
0.0028037643 0.028319083 0.84365034
0.0027632406 0.027918279 0.84401083
0.0027067701 0.027394256 0.84448212
0.0026298861 0.02677284 0.8450411
0.0025212883 0.026081532 0.84566313
0.002322359 0.025209608 0.84644806
0.0020005431 0.024336427 0.84723502
0.0014776101 0.023494983 0.84799486
0.00065837731 0.022744237 0.84867531
-0.00050739688 0.022172121 0.84919763
-0.0019316489 0.021835126 0.84951049
-0.0034719112 0.021696476 0.84964591
-0.0050711548 0.021683564 0.8496688
-0.0067634713 0.021742653 0.84962761
-0.0088556269 0.02185485 0.84954149
-0.0086115766 0.021840982 0.84955221
-0.02142984 0.029708702 0.84257203
-0.021467378 0.029307727 0.84293264
-0.021513008 0.028783081 0.84340441
-0.021557309 0.028159797 0.84396487
-0.021583783 0.027463781 0.84459054
-0.021555901 0.026578849 0.84538555
-0.021406742 0.025678663 0.84619349
-0.021052552 0.024786921 0.84699237
-0.020387793 0.023951078 0.8477388
-0.019345747 0.023252362 0.84835941
-0.018002566 0.022756675 0.84879541
-0.016506255 0.0224439 0.84906596
-0.014927269 0.022248741 0.84923023
-0.013242302 0.022114167 0.84933931
-0.011151652 0.021986509 0.84943932
-0.011395677 0.022000629 0.84942836
-0.021231327 0.031747639 0.84073836
-0.021190805 0.032148443 0.84037787
-0.021134334 0.032672465 0.83990657
-0.021057449 0.033293881 0.8393476
-0.020948851 0.03398519 0.83872557
-0.020749923 0.034857113 0.83794063
-0.020428106 0.035730295 0.83715367
-0.019905174 0.036571737 0.83639383
-0.019085942 0.037322484 0.83571339
-0.017920166 0.037894599 0.83519107
-0.016495915 0.038231596 0.83487821
-0.014955653 0.038370244 0.83474278
-0.013356409 0.038383156 0.8347199
-0.011664093 0.038324069 0.83476114
-0.0095719369 0.038211875 0.83484721
-0.0098159872 0.03822574 0.83483648
0.0030022769 0.03035802 0.84181666
0.003039815 0.030758996 0.84145606
0.0030854438 0.031283639 0.84098428
0.0031297447 0.031906925 0.84042382
0.0031562182 0.03260294 0.83979815
0.0031283377 0.033487871 0.83900315
0.0029791784 0.034388062 0.8381952
0.0026249895 0.035279799 0.83739632
0.0019602284 0.036115643 0.83664989
0.00091818353 0.036814362 0.83602929
-0.00042499788 0.037310045 0.83559334
-0.0019213089 0.037622821 0.83532274
-0.0035002946 0.037817981 0.83515847
-0.0051852618 0.037952553 0.83504939
-0.007275912 0.038080212 0.83494937
-0.0070318864 0.038066093 0.83496034
0.0024316155 0.028372169 0.84360528
0.002392346 0.027983777 0.84395456
0.0023376246 0.027475981 0.84441131
0.0022631211 0.02687381 0.84495294
0.0021578856 0.02620391 0.84555572
0.0019651176 0.025358986 0.84631634
0.0016532678 0.024512844 0.84707892
0.0011465277 0.023697458 0.84781528
0.00035266433 0.022969959 0.84847462
-0.00077700947 0.022415562 0.84898078
-0.0021571561 0.022089003 0.84928393
-0.0036497209 0.021954644 0.84941518
-0.0051994398 0.021942135 0.8494373
-0.0068393508 0.021999393 0.84939742
-0.008866718 0.022108113 0.84931397
-0.0086302254 0.022094676 0.84932435
-0.021051545 0.029718755 0.84256035
-0.02108792 0.029330198 0.84290975
-0.021132136 0.0288218 0.84336698
-0.021175064 0.028217817 0.84391004
-0.021200716 0.027543353 0.84451634
-0.021173701 0.026685826 0.84528673
-0.021029161 0.025813514 0.84606963
-0.020685939 0.024949389 0.84684378
-0.020041764 0.024139429 0.84756714
-0.019031988 0.02346235 0.84816849
-0.017730402 0.022982012 0.84859097
-0.016280428 0.022678923 0.84885317
-0.014750339 0.022489808 0.84901232
-0.01311755 0.022359401 0.84911805
-0.011091641 0.022235697 0.84921497
-0.01132811 0.02224938 0.8492043
-0.02085918 0.031694554 0.84078342
-0.02081991 0.032082945 0.84043413
-0.020765189 0.032590739 0.83997738
-0.020690685 0.03319291 0.83943576
-0.020585449 0.033862811 0.83883297
-0.020392681 0.034707736 0.83807236
-0.020080831 0.035553876 0.83730978
-0.019574091 0.036369264 0.83657342
-0.018780228 0.037096761 0.83591408
-0.017650554 0.037651159 0.83540791
-0.016270408 0.037977718 0.83510476
-0.014777843 0.038112078 0.83497351
-0.013228124 0.038124587 0.8349514
-0.011588213 0.03806733 0.83499128
-0.0095608458 0.037958607 0.83507472
-0.0097973384 0.037972044 0.83506435
0.0026239806 0.030347966 0.84182835
0.0026603558 0.030736525 0.84147894
0.0027045717 0.031244922 0.84102178
0.0027475005 0.031848904 0.84047866
0.0027731534 0.032523368 0.83987236
0.0027461373 0.033380896 0.83910197
0.0026015975 0.034253206 0.83831906
0.002258376 0.035117332 0.83754492
0.0016142009 0.035927292 0.83682162
0.0006044248 0.036604371 0.8362202
-0.00069716183 0.03708471 0.83579773
-0.0021471363 0.037387799 0.83553559
-0.0036772252 0.037576914 0.83537638
-0.0053100139 0.037707321 0.83527064
-0.0073359222 0.037831023 0.83517373
-0.0070994538 0.03781734 0.8351844
0.0020575882 0.028425524 0.84355998
0.00201958 0.028049607 0.84389806
0.0019666161 0.02755812 0.84434009
0.001894505 0.026975289 0.84486437
0.0017926504 0.026326904 0.84544778
0.0016060731 0.025509117 0.84618396
0.0013042389 0.024690153 0.84692204
0.00081377471 0.023900954 0.84763473
4.5408986e-05 0.023196822 0.84827292
-0.001047982 0.022660229 0.84876281
-0.0023838009 0.022344159 0.84905624
-0.0038284273 0.022214118 0.84918326
-0.0053283726 0.022202009 0.84920472
-0.0069156126 0.022257429 0.84916604
-0.008877865 0.022362657 0.84908527
-0.0086489683 0.02234965 0.84909534
-0.020671338 0.02972886 0.84254861
-0.020706546 0.029352782 0.84288681
-0.020749342 0.028860712 0.84332931
-0.020790892 0.028276129 0.8438549
-0.020815721 0.027623327 0.84444177
-0.020789571 0.026793342 0.84518743
-0.020649673 0.025949048 0.84594518
-0.020317476 0.025112676 0.84669447
-0.019693991 0.024328731 0.84739453
-0.018716646 0.023673397 0.84797662
-0.017456865 0.023208488 0.84838551
-0.016053461 0.022915134 0.84863925
-0.014572515 0.022732092 0.84879333
-0.012992169 0.022605874 0.84889567
-0.011031329 0.022486143 0.84898949
-0.011260202 0.022499386 0.84897918
-0.020485152 0.031641196 0.84082872
-0.020447144 0.032017116 0.84049064
-0.02039418 0.032508601 0.84004861
-0.02032207 0.033091433 0.83952433
-0.020220215 0.033739816 0.83894092
-0.020033637 0.034557603 0.83820474
-0.019731803 0.035376567 0.83746666
-0.019241339 0.036165766 0.83675396
-0.018472973 0.036869898 0.83611578
-0.017379582 0.037406493 0.83562589
-0.016043764 0.037722562 0.83533245
-0.014599136 0.037852604 0.83520544
-0.013099191 0.037864711 0.83518404
-0.011511951 0.037809294 0.83522266
-0.0095496988 0.037704065 0.83530343
-0.0097785955 0.03771707 0.83529335
0.0022437749 0.030337863 0.84184015
0.0022789817 0.03071394 0.84150189
0.0023217779 0.03120601 0.84105939
0.0023633272 0.031790592 0.84053379
0.0023881572 0.032443393 0.83994699
0.0023620082 0.03327338 0.83920127
0.0022221103 0.034117673 0.83844352
0.0018899126 0.034954045 0.83769429
0.0012664275 0.035737991 0.83699417
0.00028908334 0.036393326 0.83641213
-0.00097069883 0.036858235 0.83600318
-0.0023741028 0.03715159 0.83574945
-0.0038550482 0.037334628 0.83559537
-0.0054353955 0.037460849 0.83549303
-0.0073962351 0.03758058 0.83539921
-0.0071673617 0.037567336 0.83540952
0.0016815173 0.02847917 0.84351438
0.001644777 0.028115794 0.8438412
0.0015935809 0.027640706 0.8442685
0.0015238757 0.027077321 0.84477526
0.0014254194 0.026450571 0.84533918
0.0012450676 0.02566007 0.84605086
0.00095330458 0.024868429 0.84676433
0.00047920391 0.024105564 0.84745324
-0.00026352471 0.023424923 0.84807009
-0.0013204347 0.022906234 0.84854364
-0.0026116841 0.02260071 0.8488273
-0.0040081106 0.022475008 0.84895009
-0.0054580099 0.022463303 0.84897077
-0.0069922912 0.022516873 0.84893346
-0.0088890726 0.022618592 0.84885538
-0.0086678127 0.022606019 0.84886509
-0.020289056 0.02973902 0.84253675
-0.020323088 0.02937549 0.84286368
-0.020364456 0.028899837 0.8432914
-0.02040462 0.028334759 0.84379953
-0.02042862 0.027703738 0.84436673
-0.020403344 0.026901446 0.84508759
-0.020268114 0.026085321 0.84582001
-0.019947 0.025276855 0.84654433
-0.019344319 0.024519067 0.84722102
-0.018399583 0.023885598 0.84778368
-0.017181834 0.023436202 0.84817898
-0.015825253 0.023152633 0.84842426
-0.014393721 0.0229757 0.84857315
-0.012866102 0.022853693 0.84867209
-0.010970686 0.022737956 0.84876275
-0.011191923 0.022750758 0.8487528
-0.020109082 0.031587552 0.84087431
-0.020072341 0.031950928 0.8405475
-0.020021144 0.032426015 0.8401202
-0.01995144 0.032989401 0.83961344
-0.019852983 0.033616152 0.83904952
-0.019672632 0.034406655 0.83833784
-0.019380867 0.035198294 0.83762437
-0.018906768 0.035961159 0.83693552
-0.018164039 0.036641799 0.83631861
-0.017107129 0.037160486 0.83584505
-0.01581588 0.037466012 0.83556139
-0.014419453 0.037591714 0.83543861
-0.012969553 0.037603419 0.83541793
-0.011435272 0.03754985 0.83545524
-0.0095384913 0.037448131 0.83553332
-0.0097597511 0.037460703 0.83552361
0.0018614921 0.030327702 0.84185195
0.0018955239 0.030691233 0.84152502
0.0019368924 0.031166883 0.8410973
0.0019770556 0.031731963 0.84058917
0.0020010567 0.032362983 0.84002197
0.0019757806 0.033165276 0.83930117
0.0018405509 0.033981401 0.83856869
0.0015194365 0.034789868 0.83784443
0.00091675436 0.035547655 0.83716768
-2.7980732e-05 0.036181122 0.83660501
-0.0012457303 0.036630519 0.83620977
-0.0026023099 0.036914088 0.83596444
-0.0040338435 0.03709102 0.83581555
-0.0055614617 0.037213027 0.83571661
-0.0074568782 0.037328765 0.83562595
-0.0072356407 0.037315965 0.8356359
0.0013032135 0.028533133 0.84346855
0.0012677492 0.028182376 0.84378403
0.0012183301 0.027723784 0.8441965
0.0011510451 0.02717996 0.84468567
0.0010560076 0.026574971 0.84522998
0.00088191777 0.025811918 0.84591693
0.00060028484 0.025047766 0.84660566
0.00014264607 0.024311388 0.84727061
-0.0005742936 0.023654381 0.84786606
-0.001594506 0.023153702 0.84832317
-0.0028409208 0.022858785 0.84859699
-0.0041888608 0.022737447 0.84871548
-0.0055884174 0.022726148 0.84873551
-0.0070694252 0.022777859 0.84869945
-0.0089003472 0.022876045 0.84862411
-0.0086867698 0.02286391 0.84863347
-0.019904504 0.029749239 0.84252489
-0.019937353 0.029398331 0.84284043
-0.019977285 0.028939195 0.84325331
-0.020016054 0.028393736 0.8437438
-0.020039221 0.027784627 0.84429133
-0.020014822 0.027010191 0.84498709
-0.019884288 0.026222404 0.84569412
-0.019574324 0.02544201 0.84639329
-0.018992567 0.024710532 0.84704649
-0.018080635 0.024099059 0.84758961
