# .PCD v0.7 - Point Cloud Data file format
VERSION 0.7
FIELDS x y z rgba
SIZE 4 4 4 4
TYPE F F F U
COUNT 1 1 1 1
WIDTH 990
HEIGHT 1
VIEWPOINT 0 0 0 1 0 0 0
POINTS 990
DATA ascii
0.026104743 -0.021011135 0.73100001 4284618067
0.027453052 -0.021068621 0.73300004 4285210461
0.028729938 -0.021068621 0.73300004 4284564560
-0.047883231 -0.019791735 0.73300004 4292319921
-0.046606343 -0.019791735 0.73300004 4289556615
-0.045205776 -0.019737732 0.73100001 4289683326
-0.043932371 -0.019737732 0.73100001 4286459469
-0.042600613 -0.019710733 0.73000002 4287238962
-0.041215725 -0.019656731 0.72800004 4286317860
-0.03978293 -0.019575726 0.72500002 4286906392
-0.038519979 -0.019575726 0.72500002 4287037722
-0.037257027 -0.019575726 0.72500002 4286775315
-0.035994079 -0.019575726 0.72500002 4286513168
-0.034683224 -0.019548725 0.72400004 4286578711
-0.033329692 -0.019494725 0.72200006 4286578711
-0.032071967 -0.019494725 0.72200006 4287299601
-0.030814242 -0.019494725 0.72200006 4287234064
-0.029556518 -0.019494725 0.72200006 4287102976
-0.028298793 -0.019494725 0.72200006 4286906368
-0.02704107 -0.019494725 0.72200006 4286513152
-0.025854766 -0.019548725 0.72400004 4286513152
-0.02459356 -0.019548725 0.72400004 4286447616
-0.023332352 -0.019548725 0.72400004 4286447616
-0.022071144 -0.019548725 0.72400004 4286644224
-0.020838678 -0.019575726 0.72500002 4286709760
-0.019575726 -0.019575726 0.72500002 4287037440
-0.018312778 -0.019575726 0.72500002 4287234048
-0.017026309 -0.019548725 0.72400004 4287758336
-0.015765101 -0.019548725 0.72400004 4287561728
-0.014503893 -0.019548725 0.72400004 4287430656
-0.013260976 -0.019575726 0.72500002 4287496192
-0.011998027 -0.019575726 0.72500002 4286382086
-0.010735076 -0.019575726 0.72500002 4286251011
-0.0094721252 -0.019575726 0.72500002 4285726720
-0.0082091754 -0.019575726 0.72500002 4285661184
-0.0069653881 -0.01962973 0.72700006 4285530119
-0.0056989538 -0.01962973 0.72700006 4285464582
-0.0044325194 -0.01962973 0.72700006 4285464576
-0.0031660853 -0.01962973 0.72700006 4285530112
-0.0018944253 -0.019575726 0.72500002 4285595657
-0.00063147506 -0.019575726 0.72500002 4285661194
0.0006332171 -0.01962973 0.72700006 4285792265
0.0018996514 -0.01962973 0.72700006 4285792265
0.0031660853 -0.01962973 0.72700006 4285595648
0.0044325194 -0.01962973 0.72700006 4285595648
0.0056989538 -0.01962973 0.72700006 4285857798
0.0069462257 -0.019575726 0.72500002 4285988871
0.0082091754 -0.019575726 0.72500002 4286119946
0.0094721252 -0.019575726 0.72500002 4286316556
0.010735076 -0.019575726 0.72500002 4286316552
0.012031124 -0.01962973 0.72700006 4286382090
0.013297559 -0.01962973 0.72700006 4286447627
0.014563993 -0.01962973 0.72700006 4286578701
0.015830427 -0.01962973 0.72700006 4286578703
0.017120378 -0.019656731 0.72800004 4286775313
0.018439071 -0.019710733 0.73000002 4286644257
0.019737732 -0.019737732 0.73100001 4286906917
0.021068621 -0.019791735 0.73300004 4284812841
0.022345508 -0.019791735 0.73300004 4284418083
0.023719076 -0.019872738 0.73600006 4283046983
0.02489928 -0.019791735 0.73300004 4283046983
0.026176166 -0.019791735 0.73300004 4281803834
-0.046606343 -0.018514849 0.73300004 4289293699
-0.045329459 -0.018514849 0.73300004 4289682795
-0.043932371 -0.018464329 0.73100001 4287577419
-0.04265897 -0.018464329 0.73100001 4287305552
-0.041328952 -0.018439071 0.73000002 4286186815
-0.039892677 -0.018363295 0.72700006 4286775320
-0.038626242 -0.018363295 0.72700006 4287235871
-0.037359808 -0.018363295 0.72700006 4286843927
-0.03614302 -0.018388554 0.72800004 4286383376
-0.034731127 -0.018312778 0.72500002 4286644245
-0.033422016 -0.018287517 0.72400004 4286447634
-0.032160807 -0.018287517 0.72400004 4286709776
-0.030814242 -0.018237 0.72200006 4286513164
-0.029556518 -0.018237 0.72200006 4286644233
-0.028298793 -0.018237 0.72200006 4286709770
-0.02704107 -0.018237 0.72200006 4286382092
-0.025854766 -0.018287517 0.72400004 4286382092
-0.02459356 -0.018287517 0.72400004 4286382090
-0.023332352 -0.018287517 0.72400004 4286251017
-0.022071144 -0.018287517 0.72400004 4286251008
-0.020838678 -0.018312778 0.72500002 4286251008
-0.019575726 -0.018312778 0.72500002 4286251008
-0.018312778 -0.018312778 0.72500002 4286316544
-0.017026309 -0.018287517 0.72400004 4286513152
-0.015765101 -0.018287517 0.72400004 4286644224
-0.014503893 -0.018287517 0.72400004 4286316544
-0.013260976 -0.018312778 0.72500002 4286316544
-0.011998027 -0.018312778 0.72500002 4286054400
-0.010735076 -0.018312778 0.72500002 4286054400
-0.0094721252 -0.018312778 0.72500002 4285726720
-0.0082091754 -0.018312778 0.72500002 4285726720
-0.0069653881 -0.018363295 0.72700006 4285661196
-0.0056989538 -0.018363295 0.72700006 4285595659
-0.0044325194 -0.018363295 0.72700006 4285726720
-0.0031660853 -0.018363295 0.72700006 4285792257
-0.0018996514 -0.018363295 0.72700006 4285988876
-0.0006332171 -0.018363295 0.72700006 4285988876
0.0006332171 -0.018363295 0.72700006 4285857804
0.0018996514 -0.018363295 0.72700006 4285988877
0.0031660853 -0.018363295 0.72700006 4285988879
0.0044325194 -0.018363295 0.72700006 4285988879
0.0056989538 -0.018363295 0.72700006 4286119948
0.0069653881 -0.018363295 0.72700006 4286316558
0.0082318224 -0.018363295 0.72700006 4286316558
0.0094982563 -0.018363295 0.72700006 4286447633
0.010764691 -0.018363295 0.72700006 4286251016
0.012031124 -0.018363295 0.72700006 4286251016
0.013297559 -0.018363295 0.72700006 4286316561
0.014563993 -0.018363295 0.72700006 4286447634
0.015852202 -0.018388554 0.72800004 4286513173
0.032179967 -0.019045288 0.75400001 4285879875
0.033582281 -0.019095806 0.75600004 4286866770
0.034806907 -0.019045288 0.75400001 4290415006
0.036120374 -0.019045288 0.75400001 4294966271
-0.042775687 -0.017237963 0.73300004 4287573574
-0.037411198 -0.017120378 0.72800004 4286646812
-0.03614302 -0.017120378 0.72800004 4286383639
-0.033468179 -0.017049827 0.72500002 4286316567
-0.032205228 -0.017049827 0.72500002 4286316556
-0.030899599 -0.017026309 0.72400004 4286251019
-0.029638389 -0.017026309 0.72400004 4286185478
-0.028298793 -0.016979277 0.72200006 4286119941
-0.02704107 -0.016979277 0.72200006 4286054410
-0.025854766 -0.017026309 0.72400004 4285988873
-0.02459356 -0.017026309 0.72400004 4285988870
-0.023332352 -0.017026309 0.72400004 4286054407
-0.022071144 -0.017026309 0.72400004 4285726723
-0.020838678 -0.017049827 0.72500002 4285399040
-0.019575726 -0.017049827 0.72500002 4285464576
-0.018312778 -0.017049827 0.72500002 4285530112
-0.017049827 -0.017049827 0.72500002 4285464576
-0.015786877 -0.017049827 0.72500002 4285399040
-0.014523927 -0.017049827 0.72500002 4285464576
-0.013260976 -0.017049827 0.72500002 4285464576
-0.012031124 -0.017096862 0.72700006 4285726720
-0.010764691 -0.017096862 0.72700006 4285792257
-0.0094982563 -0.017096862 0.72700006 4285857798
-0.0082318224 -0.017096862 0.72700006 4285792261
-0.0069653881 -0.017096862 0.72700006 4285923328
-0.0057067927 -0.017120378 0.72800004 4285923328
-0.0044325194 -0.017096862 0.72700006 4286054400
-0.0031660853 -0.017096862 0.72700006 4286054400
-0.0018996514 -0.017096862 0.72700006 4286119936
-0.0006332171 -0.017096862 0.72700006 4286119936
0.00063408806 -0.017120378 0.72800004 4286054400
0.0019022641 -0.017120378 0.72800004 4285988864
0.0031704404 -0.017120378 0.72800004 4285857792
0.0044386163 -0.017120378 0.72800004 4285923328
0.0057067927 -0.017120378 0.72800004 4286119936
0.0069749686 -0.017120378 0.72800004 4286185472
0.0082431454 -0.017120378 0.72800004 4286251012
0.0095113218 -0.017120378 0.72800004 4286382086
0.010779497 -0.017120378 0.72800004 4286054400
0.012080772 -0.017167412 0.73000002 4285988864
0.021212338 -0.017355548 0.73800004 4283831856
0.022528417 -0.017379064 0.73900002 4283766063
0.023815755 -0.017379064 0.73900002 4282658398
0.032179967 -0.017731819 0.75400001 4286536776
0.033582281 -0.017778853 0.75600004 4287260242
0.034806907 -0.017731819 0.75400001 4290808733
0.036120374 -0.017731819 0.75400001 4294965759
-0.030942278 -0.015786877 0.72500002 4286251019
-0.029638389 -0.015765101 0.72400004 4286251018
-0.028377183 -0.015765101 0.72400004 4286251018
-0.027115975 -0.015765101 0.72400004 4286251010
-0.025854766 -0.015765101 0.72400004 4286119936
-0.02459356 -0.015765101 0.72400004 4286119940
-0.023332352 -0.015765101 0.72400004 4286119940
-0.022101626 -0.015786877 0.72500002 4286054402
-0.020838678 -0.015786877 0.72500002 4285857792
-0.019575726 -0.015786877 0.72500002 4285857792
-0.018312778 -0.015786877 0.72500002 4285988864
-0.017049827 -0.015786877 0.72500002 4285988864
-0.015786877 -0.015786877 0.72500002 4285857792
-0.014523927 -0.015786877 0.72500002 4285661184
-0.013297559 -0.015830427 0.72700006 4285661184
-0.012031124 -0.015830427 0.72700006 4285792265
-0.010764691 -0.015830427 0.72700006 4285857802
-0.0095113218 -0.015852202 0.72800004 4285792280
-0.0082431454 -0.015852202 0.72800004 4285530132
-0.0069749686 -0.015852202 0.72800004 4285464576
-0.0057224706 -0.01589575 0.73000002 4285726720
-0.0044386163 -0.015852202 0.72800004 4286054420
-0.0031704404 -0.015852202 0.72800004 4287107365
-0.0019022641 -0.015852202 0.72800004 4286983680
-0.00063583005 -0.01589575 0.73000002 4287115520
0.00063583005 -0.01589575 0.73000002 4286918656
0.0019074902 -0.01589575 0.73000002 4286589696
0.0031835053 -0.015917527 0.73100001 4286784768
0.0044569075 -0.015917527 0.73100001 4286784768
0.0057303095 -0.015917527 0.73100001 4286054924
0.014844455 -0.016135277 0.74100006 4286185490
0.016178826 -0.016178826 0.74300003 4286316564
0.018666402 -0.016091727 0.73900002 4285989159
0.019953741 -0.016091727 0.73900002 4286252330
0.021298565 -0.016135277 0.74100006 4283833907
0.022589387 -0.016135277 0.74100006 4285741904
0.02388021 -0.016135277 0.74100006 4284108397
0.025171032 -0.016135277 0.74100006 4283713639
0.030784627 -0.016374802 0.75200003 4285092451
0.032265328 -0.016461903 0.75600004 4286142533
0.033626702 -0.016483678 0.75700003 4288445032
0.034945395 -0.016483678 0.75700003 4291074974
0.036264088 -0.016483678 0.75700003 4294966783
-0.039210681 -0.014784356 0.73800004 4286586147
-0.037925087 -0.014784356 0.73800004 4286321442
-0.036540199 -0.01474429 0.73600006 4285860891
-0.035258085 -0.01474429 0.73600006 4286254102
-0.029638389 -0.014503893 0.72400004 4286316564
-0.028377183 -0.014503893 0.72400004 4286185490
-0.027115975 -0.014503893 0.72400004 4286054408
-0.025854766 -0.014503893 0.72400004 4285923333
-0.024627527 -0.014523927 0.72500002 4286119941
-0.023364577 -0.014523927 0.72500002 4286251016
-0.022101626 -0.014523927 0.72500002 4286382096
-0.020838678 -0.014523927 0.72500002 4286054411
-0.019575726 -0.014523927 0.72500002 4285988864
-0.018312778 -0.014523927 0.72500002 4286119938
-0.017049827 -0.014523927 0.72500002 4286054401
-0.015786877 -0.014523927 0.72500002 4286054401
-0.014523927 -0.014523927 0.72500002 4285988875
-0.013297559 -0.014563993 0.72700006 4285726727
-0.012047674 -0.014584026 0.72800004 4285726720
-0.010779497 -0.014584026 0.72800004 4285792256
-0.009537451 -0.014624092 0.73000002 4285792256
-0.0082657905 -0.014624092 0.73000002 4286185472
-0.006994131 -0.014624092 0.73000002 4285990656
-0.0057303095 -0.014644124 0.73100001 4286188032
-0.0044569075 -0.014644124 0.73100001 4286852134
-0.0031835053 -0.014644124 0.73100001 4287246891
-0.0019153293 -0.014684191 0.73300004 4286529026
-0.0006384431 -0.014684191 0.73300004 4287384335
0.0006384431 -0.014684191 0.73300004 4287057180
0.0019153293 -0.014684191 0.73300004 4286728215
0.0032009254 -0.014724256 0.73500001 4287119872
0.0044812951 -0.014724256 0.73500001 4286922496
0.0083563756 -0.014784356 0.73800004 4286722560
0.009655036 -0.014804387 0.73900002 4284419840
0.010942374 -0.014804387 0.73900002 4285857792
0.012229712 -0.014804387 0.73900002 4285857792
0.013553632 -0.014844455 0.74100006 4286054400
0.014844455 -0.014844455 0.74100006 4286316544
0.016178826 -0.01488452 0.74300003 4286513172
0.017473133 -0.01488452 0.74300003 4286840857
0.018767439 -0.01488452 0.74300003 4285793563
0.020061744 -0.01488452 0.74300003 4285925405
0.021356052 -0.01488452 0.74300003 4283505705
0.022650357 -0.01488452 0.74300003 4285216580
0.023944663 -0.01488452 0.74300003 4283517539
0.02523897 -0.01488452 0.74300003 4282662487
0.029474642 -0.015064818 0.75200003 4283512624
0.0308665 -0.015104883 0.75400001 4285420621
0.032265328 -0.01514495 0.75600004 4285878589
0.033626702 -0.015164983 0.75700003 4288576102
0.034945395 -0.015164983 0.75700003 4292060598
0.036264088 -0.015164983 0.75700003 4294966271
-0.039370079 -0.013553632 0.74100006 4285540151
-0.037976474 -0.01351705 0.73900002 4284883000
-0.036639489 -0.01349876 0.73800004 4284685620
-0.035353892 -0.01349876 0.73800004 4284750621
-0.033975974 -0.013462178 0.73600006 4284684828
-0.027228335 -0.013297559 0.72700006 4285464585
-0.025961902 -0.013297559 0.72700006 4285661196
-0.024695467 -0.013297559 0.72700006 4285857800
-0.023429032 -0.013297559 0.72700006 4285923337
-0.022162598 -0.013297559 0.72700006 4285988883
-0.020896163 -0.013297559 0.72700006 4285857809
-0.01962973 -0.013297559 0.72700006 4285857798
-0.018363295 -0.013297559 0.72700006 4285857798
-0.017096862 -0.013297559 0.72700006 4285792259
-0.015830427 -0.013297559 0.72700006 4285792259
-0.014563993 -0.013297559 0.72700006 4285530132
-0.01331585 -0.01331585 0.72800004 4285136910
-0.012047674 -0.01331585 0.72800004 4285595648
-0.01080911 -0.01335243 0.73000002 4288091941
-0.0095505156 -0.013370722 0.73100001 4288040704
-0.0082771135 -0.013370722 0.73100001 4288764416
-0.0070037115 -0.013370722 0.73100001 4288239390
-0.0057459874 -0.013407304 0.73300004 4288107803
-0.0044812951 -0.013443886 0.73500001 4286793007
-0.0032009254 -0.013443886 0.73500001 4286398249
-0.001920555 -0.013443886 0.73500001 4286661137
-0.0006410561 -0.013462178 0.73600006 4287450909
0.0006410561 -0.013462178 0.73600006 4287646748
0.0019231683 -0.013462178 0.73600006 4289883967
0.0032052805 -0.013462178 0.73600006 4289295412
0.0044995868 -0.01349876 0.73800004 4289163826
0.0057851826 -0.01349876 0.73800004 4289164339
0.0070707784 -0.01349876 0.73800004 4289295925
0.0083676977 -0.01351705 0.73900002 4288900152
0.009655036 -0.01351705 0.73900002 4288768566
0.010971989 -0.013553632 0.74100006 4288766720
0.012262811 -0.013553632 0.74100006 4287450880
0.013553632 -0.013553632 0.74100006 4286719239
0.01488452 -0.013590215 0.74300003 4284284928
0.016200602 -0.013608505 0.74400002 4285988875
0.017473133 -0.013590215 0.74300003 4286644245
0.018767439 -0.013590215 0.74300003 4286317081
0.020088745 -0.013608505 0.74400002 4286711582
0.021384794 -0.013608505 0.74400002 4284880172
0.022680841 -0.013608505 0.74400002 4285209136
0.023976889 -0.013608505 0.74400002 4284099143
0.025272937 -0.013608505 0.74400002 4284099143
0.029474642 -0.013754833 0.75200003 4284497468
0.0308665 -0.013791416 0.75400001 4286471514
0.032265328 -0.013827998 0.75600004 4286339142
0.033715542 -0.013882871 0.75900006 4288312933
-0.039476339 -0.012295908 0.74300003 4284493858
-0.038079254 -0.012262811 0.74100006 4283314475
-0.036689136 -0.012229712 0.73900002 4283051559
-0.035353892 -0.012213163 0.73800004 4283247385
-0.033975974 -0.012180066 0.73600006 4282918676
-0.032693859 -0.012180066 0.73600006 4283571712
-0.031369068 -0.012163516 0.73500001 4283571712
-0.022162598 -0.012031124 0.72700006 4285595662
-0.020896163 -0.012031124 0.72700006 4285726735
-0.01962973 -0.012031124 0.72700006 4285857800
-0.018363295 -0.012031124 0.72700006 4285530115
-0.017096862 -0.012031124 0.72700006 4285464576
-0.015852202 -0.012047674 0.72800004 4285333504
-0.014584026 -0.012047674 0.72800004 4285136896
-0.01331585 -0.012047674 0.72800004 4285988864
-0.012080772 -0.012080772 0.73000002 4286586624
-0.010823918 -0.01209732 0.73100001 4288494619
-0.0095766466 -0.012130419 0.73300004 4288435749
-0.0082997596 -0.012130419 0.73300004 4288633384
-0.007022874 -0.012130419 0.73300004 4287848007
-0.0057616658 -0.012163516 0.73500001 4287255870
-0.0044812951 -0.012163516 0.73500001 4286201647
-0.0032052805 -0.012180066 0.73600006 4286004267
-0.0019231683 -0.012180066 0.73600006 4286065947
-0.0006410561 -0.012180066 0.73600006 4285802775
0.00064279808 -0.012213163 0.73800004 4287249920
0.0019283943 -0.012213163 0.73800004 4290145049
0.0032139902 -0.012213163 0.73800004 4289166150
0.0045056837 -0.012229712 0.73900002 4288837441
0.0057930215 -0.012229712 0.73900002 4288837671
0.0070803599 -0.012229712 0.73900002 4288903464
0.0083903437 -0.012262811 0.74100006 4288639528
0.0097072963 -0.012295908 0.74300003 4288771114
0.011001602 -0.012295908 0.74300003 4289294910
0.012295908 -0.012295908 0.74300003 4288900152
0.013590215 -0.012295908 0.74300003 4287779370
0.014904552 -0.012312457 0.74400002 4285476615
0.016200602 -0.012312457 0.74400002 4285857804
0.017496651 -0.012312457 0.74400002 4286185489
0.018792698 -0.012312457 0.74400002 4286578704
0.020088745 -0.012312457 0.74400002 4286906901
0.021384794 -0.012312457 0.74400002 4286319646
0.022741813 -0.012345555 0.74600005 4286780197
0.024041345 -0.012345555 0.74600005 4285406518
0.025340877 -0.012345555 0.74600005 4285603640
0.026818965 -0.0124283 0.75100005 4284361537
0.028164661 -0.01244485 0.75200003 4283900986
0.029553032 -0.012477947 0.75400001 4285677365
0.030948374 -0.012511045 0.75600004 4287190604
0.032308009 -0.012527594 0.75700003 4286994254
0.033715542 -0.012560693 0.75900006 4288441700
-0.040825516 -0.011016409 0.74400002 4285290053
-0.039476339 -0.011001602 0.74300003 4285224259
-0.038079254 -0.010971989 0.74100006 4284832050
-0.036689136 -0.010942374 0.73900002 4283976997
-0.035401799 -0.010942374 0.73900002 4284041001
-0.034068298 -0.010927567 0.73800004 4283975208
-0.032693859 -0.010897954 0.73600006 4284302376
-0.031411748 -0.010897954 0.73600006 4284433962
-0.030129636 -0.010897954 0.73600006 4284564767
-0.028808327 -0.010883146 0.73500001 4284170265
-0.027527958 -0.010883146 0.73500001 4284100382
-0.0262833 -0.010897954 0.73600006 4282455556
-0.025001187 -0.010897954 0.73600006 4284221952
-0.023783529 -0.010927567 0.73800004 4284419328
-0.022497933 -0.010927567 0.73800004 4285464581
-0.021212338 -0.010927567 0.73800004 4285530118
-0.01992674 -0.010927567 0.73800004 4285595660
-0.018641144 -0.010927567 0.73800004 4285136901
-0.017355548 -0.010927567 0.73800004 4285333522
-0.016069952 -0.010927567 0.73800004 4286580005
-0.010853532 -0.010853532 0.73300004 4289492282
-0.0096027758 -0.010883146 0.73500001 4287912251
-0.0083224056 -0.010883146 0.73500001 4284030464
-0.0070420355 -0.010883146 0.73500001 4284548099
-0.0057695047 -0.010897954 0.73600006 4283695104
-0.0044873925 -0.010897954 0.73600006 4283957248
-0.0032139902 -0.010927567 0.73800004 4284416000
-0.0019283943 -0.010927567 0.73800004 4283957532
-0.00064279808 -0.010927567 0.73800004 4282646536
0.00064366905 -0.010942374 0.73900002 4283629568
0.0019310071 -0.010942374 0.73900002 4288823611
0.0032183453 -0.010942374 0.73900002 4288440364
0.0045056837 -0.010942374 0.73900002 4289032758
0.0058086999 -0.010971989 0.74100006 4288573458
0.0071186838 -0.011001602 0.74300003 4288704788
0.0084129898 -0.011001602 0.74300003 4288705573
0.0097072963 -0.011001602 0.74300003 4289166124
0.011016409 -0.011016409 0.74400002 4289428277
0.012312457 -0.011016409 0.74400002 4289823034
0.013608505 -0.011016409 0.74400002 4289559081
0.014904552 -0.011016409 0.74400002 4289032737
0.016200602 -0.011016409 0.74400002 4288237632
0.017496651 -0.011016409 0.74400002 4284290308
0.018792698 -0.011016409 0.74400002 4286054416
0.020142749 -0.011046024 0.74600005 4286447637
0.021442281 -0.011046024 0.74600005 4286514462
0.022772297 -0.01106083 0.74700004 4287303722
0.024073573 -0.01106083 0.74700004 4286848038
0.025442783 -0.011090443 0.74900001 4287505968
0.026854673 -0.011134865 0.75200003 4286264373
0.028239565 -0.011164479 0.75400001 4286593338
0.029553032 -0.011164479 0.75400001 4286135604
0.030948374 -0.011194094 0.75600004 4286990913
0.032308009 -0.0112089 0.75700003 4287448900
-0.039529469 -0.0097203609 0.74400002 4285358158
-0.038182031 -0.0097072963 0.74300003 4284637001
-0.036887724 -0.0097072963 0.74300003 4283715899
-0.03559342 -0.0097072963 0.74300003 4284173114
-0.034068298 -0.0096419714 0.73800004 4284239163
-0.0327827 -0.0096419714 0.73800004 4283583284
-0.031497106 -0.0096419714 0.73800004 4284175164
-0.030211508 -0.0096419714 0.73800004 4284176450
-0.028925914 -0.0096419714 0.73800004 4283321141
-0.027640317 -0.0096419714 0.73800004 4283056947
-0.026354721 -0.0096419714 0.73800004 4282135845
-0.025103094 -0.009655036 0.73900002 4282982171
-0.023783529 -0.0096419714 0.73800004 4282521620
-0.022497933 -0.0096419714 0.73800004 4285269004
-0.02124108 -0.009655036 0.73900002 4284678147
-0.019953741 -0.009655036 0.73900002 4285267968
-0.018666402 -0.009655036 0.73900002 4285202432
-0.017379064 -0.009655036 0.73900002 4285595648
-0.016069952 -0.0096419714 0.73800004 4288226579
-0.014784356 -0.0096419714 0.73800004 4288305425
-0.01349876 -0.0096419714 0.73800004 4289949994
-0.012213163 -0.0096419714 0.73800004 4288706632
-0.010897954 -0.0096158413 0.73600006 4288246081
-0.0096158413 -0.0096158413 0.73600006 4287321899
-0.0083337296 -0.0096158413 0.73600006 4282453248
-0.0070707784 -0.0096419714 0.73800004 4283891712
-0.0057851826 -0.0096419714 0.73800004 4284153856
-0.0045056837 -0.009655036 0.73900002 4283564032
-0.0032183453 -0.009655036 0.73900002 4285864209
-0.0019310071 -0.009655036 0.73900002 4284429128
-0.00064366905 -0.009655036 0.73900002 4281468187
0.00064541108 -0.0096811661 0.74100006 4283236352
0.0019362331 -0.0096811661 0.74100006 4285337613
0.0032270555 -0.0096811661 0.74100006 4288173312
0.0045178775 -0.0096811661 0.74100006 4290015509
0.0058086999 -0.0096811661 0.74100006 4288705038
0.0071186838 -0.0097072963 0.74300003 4288705038
0.0084129898 -0.0097072963 0.74300003 4288640026
0.0097203609 -0.0097203609 0.74400002 4288903455
0.011016409 -0.0097203609 0.74400002 4288903968
0.012312457 -0.0097203609 0.74400002 4289232932
0.013608505 -0.0097203609 0.74400002 4289559376
0.014904552 -0.0097203609 0.74400002 4289822549
0.016244153 -0.009746491 0.74600005 4288832851
0.017543685 -0.009746491 0.74600005 4285872166
0.018843215 -0.009746491 0.74600005 4285923328
0.02016975 -0.0097595565 0.74700004 4286316800
0.021471024 -0.0097595565 0.74700004 4286973212
0.022894237 -0.0098118158 0.75100005 4287894314
0.024202481 -0.0098118158 0.75100005 4287895082
0.02554469 -0.0098248813 0.75200003 4288684341
0.026926095 -0.0098510114 0.75400001 4287179063
0.028239565 -0.0098510114 0.75400001 4287442236
0.029631423 -0.0098771406 0.75600004 4286592563
0.030989313 -0.0098902062 0.75700003 4287053114
-0.039688859 -0.0084582819 0.74700004 4285488710
-0.038336199 -0.0084469598 0.74600005 4284767815
-0.036937371 -0.0084243128 0.74400002 4283715384
-0.03559342 -0.0084129898 0.74300003 4283387727
-0.034114458 -0.0083676977 0.73900002 4283387727
-0.032827124 -0.0083676977 0.73900002 4283519045
-0.031539787 -0.0083676977 0.73900002 4283650887
-0.030252445 -0.0083676977 0.73900002 4283781944
-0.028965108 -0.0083676977 0.73900002 4283452979
-0.027640317 -0.0083563756 0.73800004 4283846704
-0.026354721 -0.0083563756 0.73800004 4283714861
-0.025103094 -0.0083676977 0.73900002 4283639596
-0.023815755 -0.0083676977 0.73900002 4282389530
-0.022528417 -0.0083676977 0.73900002 4284743707
-0.02124108 -0.0083676977 0.73900002 4284219410
-0.019953741 -0.0083676977 0.73900002 4285595648
-0.018666402 -0.0083676977 0.73900002 4289279272
-0.017379064 -0.0083676977 0.73900002 4288636160
-0.016091727 -0.0083676977 0.73900002 4289951748
-0.014804387 -0.0083676977 0.73900002 4288837191
-0.01351705 -0.0083676977 0.73900002 4288705349
-0.012213163 -0.0083563756 0.73800004 4288574011
-0.010927567 -0.0083563756 0.73800004 4286337305
-0.0096419714 -0.0083563756 0.73800004 4286530048
-0.0083563756 -0.0083563756 0.73800004 4282714112
-0.0070803599 -0.0083676977 0.73900002 4284481576
-0.0057930215 -0.0083676977 0.73900002 4285072434
-0.0045056837 -0.0083676977 0.73900002 4284749826
-0.0032183453 -0.0083676977 0.73900002 4288434234
-0.0019362331 -0.0083903437 0.74100006 4287191649
-0.00064541108 -0.0083903437 0.74100006 4285941582
0.00064541108 -0.0083903437 0.74100006 4283960101
0.0019414593 -0.0084129898 0.74300003 4282253322
0.0032357653 -0.0084129898 0.74300003 4285212672
0.0045300713 -0.0084129898 0.74300003 4289818172
0.0058243778 -0.0084129898 0.74300003 4288901376
0.0071282643 -0.0084243128 0.74400002 4288769792
0.0084243128 -0.0084243128 0.74400002 4288901376
0.0097203609 -0.0084243128 0.74400002 4288967170
0.011016409 -0.0084243128 0.74400002 4288770833
0.012312457 -0.0084243128 0.74400002 4289691935
0.013608505 -0.0084243128 0.74400002 4289822297
0.014944619 -0.0084469598 0.74600005 4289888346
0.016244153 -0.0084469598 0.74600005 4289887268
0.017543685 -0.0084469598 0.74600005 4287781891
0.018868476 -0.0084582819 0.74700004 4287045905
0.02016975 -0.0084582819 0.74700004 4285466624
0.021528509 -0.0084809279 0.74900001 4286971935
0.022894237 -0.0085035739 0.75100005 4287958574
0.024234707 -0.008514897 0.75200003 4287761695
0.025680566 -0.008560189 0.75600004 4288156452
0.02699752 -0.008560189 0.75600004 4287701299
0.028351925 -0.0085715121 0.75700003 4288096056
0.02974901 -0.0085941581 0.75900006 4287703345
-0.039795119 -0.0071761697 0.74900001 4285686096
-0.038387585 -0.0071570072 0.74700004 4284834128
-0.037036669 -0.0071474267 0.74600005 4283781440
-0.035641324 -0.0071282643 0.74400002 4282798657
-0.034299113 -0.0071186838 0.74300003 4282732864
-0.033004805 -0.0071186838 0.74300003 4283061576
-0.031625144 -0.0070995223 0.74100006 4283127369
-0.030334322 -0.0070995223 0.74100006 4283649604
-0.029043498 -0.0070995223 0.74100006 4283912777
-0.027752677 -0.0070995223 0.74100006 4284568126
-0.026461855 -0.0070995223 0.74100006 4283778610
-0.025171032 -0.0070995223 0.74100006 4283246372
-0.023815755 -0.0070803599 0.73900002 4281798926
-0.022528417 -0.0070803599 0.73900002 4284350467
-0.021298565 -0.0070995223 0.74100006 4284547078
-0.019953741 -0.0070803599 0.73900002 4285927680
-0.018666402 -0.0070803599 0.73900002 4290533170
-0.0174261 -0.0070995223 0.74100006 4288507969
-0.016135277 -0.0070995223 0.74100006 4288771142
-0.014804387 -0.0070803599 0.73900002 4288377651
-0.01351705 -0.0070803599 0.73900002 4288443445
-0.012229712 -0.0070803599 0.73900002 4288706855
-0.010942374 -0.0070803599 0.73900002 4287062029
-0.009655036 -0.0070803599 0.73900002 4286265088
-0.0083676977 -0.0070803599 0.73900002 4283369984
-0.0070995223 -0.0070995223 0.74100006 4284416020
-0.0058086999 -0.0070995223 0.74100006 4284088335
-0.0045178775 -0.0070995223 0.74100006 4284948480
-0.0032270555 -0.0070995223 0.74100006 4288303918
-0.0019414593 -0.0071186838 0.74300003 4287649638
-0.00064715307 -0.0071186838 0.74300003 4286596950
0.00064715307 -0.0071186838 0.74300003 4285084201
0.0019440722 -0.0071282643 0.74400002 4281794560
0.0032401201 -0.0071282643 0.74400002 4284293632
0.0045361686 -0.0071282643 0.74400002 4289491260
0.0058322162 -0.0071282643 0.74400002 4289098769
0.0071282643 -0.0071282643 0.74400002 4288835596
0.0084243128 -0.0071282643 0.74400002 4288901632
0.009746491 -0.0071474267 0.74600005 4288901632
0.011046024 -0.0071474267 0.74600005 4288835331
0.012345555 -0.0071474267 0.74600005 4289690640
0.013645088 -0.0071474267 0.74600005 4289559626
0.014964653 -0.0071570072 0.74700004 4289691213
0.016265927 -0.0071570072 0.74700004 4290215242
0.017567201 -0.0071570072 0.74700004 4288965175
0.018969512 -0.0071953321 0.75100005 4287905296
0.020277753 -0.0071953321 0.75100005 4284484096
0.02161474 -0.0072049126 0.75200003 4286906397
0.022924723 -0.0072049126 0.75200003 4288089390
0.024363615 -0.0072432365 0.75600004 4287762978
0.025680566 -0.0072432365 0.75600004 4287894820
0.027033228 -0.007252818 0.75700003 4288421678
0.02842683 -0.0072719804 0.75900006 4288553264
-0.039901387 -0.0058870898 0.75100005 4286536272
-0.038490366 -0.0058714114 0.74900001 4285555541
-0.037086312 -0.005855734 0.74700004 4284568646
-0.035737135 -0.0058478951 0.74600005 4283981372
-0.034345273 -0.0058322162 0.74400002 4284441923
-0.033049226 -0.0058322162 0.74400002 4284113235
-0.031710502 -0.0058243778 0.74300003 4283586891
-0.030416194 -0.0058243778 0.74300003 4283716681
-0.029043498 -0.0058086999 0.74100006 4283584838
-0.027752677 -0.0058086999 0.74100006 4283647524
-0.026461855 -0.0058086999 0.74100006 4281805320
-0.02523897 -0.0058243778 0.74300003 4284094720
-0.02388021 -0.0058086999 0.74100006 4283502336
-0.022589387 -0.0058086999 0.74100006 4284874756
-0.021356052 -0.0058243778 0.74300003 4288229943
-0.020007744 -0.0058086999 0.74100006 4287976202
-0.018716922 -0.0058086999 0.74100006 4289818406
-0.0174261 -0.0058086999 0.74100006 4288836687
-0.016135277 -0.0058086999 0.74100006 4289033810
-0.014844455 -0.0058086999 0.74100006 4288508958
-0.013553632 -0.0058086999 0.74100006 4288114456
-0.012262811 -0.0058086999 0.74100006 4288573440
-0.010971989 -0.0058086999 0.74100006 4288573440
-0.0096811661 -0.0058086999 0.74100006 4286926123
-0.0083903437 -0.0058086999 0.74100006 4282649344
-0.0071186838 -0.0058243778 0.74300003 4283629568
-0.0058243778 -0.0058243778 0.74300003 4283236352
-0.0045300713 -0.0058243778 0.74300003 4284354048
-0.0032401201 -0.0058322162 0.74400002 4288236089
-0.0019440722 -0.0058322162 0.74400002 4287255104
-0.00064802408 -0.0058322162 0.74400002 4285873451
0.00064976607 -0.0058478951 0.74600005 4284164151
0.0019492983 -0.0058478951 0.74600005 4282059032
0.0032488303 -0.0058478951 0.74600005 4283836416
0.0045483625 -0.0058478951 0.74600005 4288836937
0.0058478951 -0.0058478951 0.74600005 4289033489
0.0071474267 -0.0058478951 0.74600005 4288572938
0.0084469598 -0.0058478951 0.74600005 4288966656
0.0097595565 -0.005855734 0.74700004 4289032448
0.01106083 -0.005855734 0.74700004 4288900876
0.012395202 -0.0058714114 0.74900001 4289624343
0.01369996 -0.0058714114 0.74900001 4289428013
0.015004719 -0.0058714114 0.74900001 4289756978
0.016353028 -0.0058870898 0.75100005 4290019132
0.017661268 -0.0058870898 0.75100005 4288769066
0.018969512 -0.0058870898 0.75100005 4288169472
0.020304754 -0.0058949287 0.75200003 4284550912
0.02161474 -0.0058949287 0.75200003 4287037478
0.022985691 -0.0059106066 0.75400001 4287958324
0.024363615 -0.0059262845 0.75600004 4287958054
0.025714535 -0.0059341234 0.75700003 4288221482
0.027033228 -0.0059341234 0.75700003 4288355628
0.02842683 -0.0059498018 0.75900006 4288224042
-0.042857558 -0.0046154293 0.75700003 4287509046
-0.039954517 -0.0045849448 0.75200003 4287055422
-0.038593143 -0.0045788479 0.75100005 4285094486
-0.037185606 -0.0045666532 0.74900001 4284633935
-0.035785038 -0.0045544594 0.74700004 4284243025
-0.034437601 -0.0045483625 0.74600005 4284243025
-0.033049226 -0.0045361686 0.74400002 4283981393
-0.031753179 -0.0045361686 0.74400002 4283323719
-0.030416194 -0.0045300713 0.74300003 4283191883
-0.029121889 -0.0045300713 0.74300003 4282402367
-0.027827581 -0.0045300713 0.74300003 4281608992
-0.026533276 -0.0045300713 0.74300003 4281082392
-0.025272937 -0.0045361686 0.74400002 4284156420
-0.023944663 -0.0045300713 0.74300003 4283761920
-0.022650357 -0.0045300713 0.74300003 4285464576
-0.021356052 -0.0045300713 0.74300003 4291054917
-0.020061744 -0.0045300713 0.74300003 4287981603
-0.018767439 -0.0045300713 0.74300003 4288836656
-0.017473133 -0.0045300713 0.74300003 4288508249
-0.016135277 -0.0045178775 0.74100006 4288245078
-0.014844455 -0.0045178775 0.74100006 4288507913
-0.013590215 -0.0045300713 0.74300003 4288376327
-0.012295908 -0.0045300713 0.74300003 4288703488
-0.011001602 -0.0045300713 0.74300003 4288769536
-0.0097072963 -0.0045300713 0.74300003 4287980065
-0.0084129898 -0.0045300713 0.74300003 4286269448
-0.0071186838 -0.0045300713 0.74300003 4284163358
-0.0058322162 -0.0045361686 0.74400002 4281532416
-0.0045361686 -0.0045361686 0.74400002 4283760640
-0.0032488303 -0.0045483625 0.74600005 4288496697
-0.0019492983 -0.0045483625 0.74600005 4287322707
-0.00065063708 -0.0045544594 0.74700004 4285019953
0.00065063708 -0.0045544594 0.74700004 4283506207
0.0019571371 -0.0045666532 0.74900001 4282322190
0.0032706053 -0.0045788479 0.75100005 4283968546
0.0045666532 -0.0045666532 0.74900001 4288771435
0.0058714114 -0.0045666532 0.74900001 4289165091
0.0071761697 -0.0045666532 0.74900001 4288441368
0.0084809279 -0.0045666532 0.74900001 4289032960
0.0098118158 -0.0045788479 0.75100005 4289032960
0.011120059 -0.0045788479 0.75100005 4288835584
0.0124283 -0.0045788479 0.75100005 4289493768
0.013736542 -0.0045788479 0.75100005 4289035306
0.015044784 -0.0045788479 0.75100005 4289561650
0.016374802 -0.0045849448 0.75200003 4290085455
0.017684786 -0.0045849448 0.75200003 4288506423
0.018994769 -0.0045849448 0.75200003 4288497920
0.020358756 -0.0045971381 0.75400001 4284813824
0.021672223 -0.0045971381 0.75400001 4287365926
0.023046663 -0.0046093324 0.75600004 4288089392
0.024395842 -0.0046154293 0.75700003 4287959330
0.025714535 -0.0046154293 0.75700003 4288353832
0.027104653 -0.0046276241 0.75900006 4288288820
0.028501738 -0.0046398174 0.76100004 4288683578
0.030023374 -0.0046703028 0.76600003 4288814900
0.031357747 -0.0046703028 0.76600003 4289012280
-0.044292971 -0.0033054454 0.75900006 4288561734
-0.042970791 -0.0033054454 0.75900006 4287048495
-0.041538864 -0.0032967352 0.75700003 4286786602
-0.040060777 -0.0032836702 0.75400001 4285931549
-0.037284903 -0.0032706053 0.75100005 4284296495
-0.035880849 -0.0032618954 0.74900001 4283448627
-0.034483764 -0.0032531854 0.74700004 4283251249
-0.03313807 -0.0032488303 0.74600005 4282987533
-0.031753179 -0.0032401201 0.74400002 4282592775
-0.030457132 -0.0032401201 0.74400002 4283180588
-0.029121889 -0.0032357653 0.74300003 4282851879
-0.027827581 -0.0032357653 0.74300003 4283700259
-0.026533276 -0.0032357653 0.74300003 4283437087
-0.025272937 -0.0032401201 0.74400002 4284744206
-0.023976889 -0.0032401201 0.74400002 4284022788
-0.022680841 -0.0032401201 0.74400002 4285071397
-0.021384794 -0.0032401201 0.74400002 4290926461
-0.020088745 -0.0032401201 0.74400002 4288705562
-0.018792698 -0.0032401201 0.74400002 4289494822
-0.017496651 -0.0032401201 0.74400002 4288771939
-0.016200602 -0.0032401201 0.74400002 4287916630
-0.014904552 -0.0032401201 0.74400002 4288244480
-0.013608505 -0.0032401201 0.74400002 4288441600
-0.012312457 -0.0032401201 0.74400002 4288441600
-0.011016409 -0.0032401201 0.74400002 4288639232
-0.0097203609 -0.0032401201 0.74400002 4288442624
-0.0084243128 -0.0032401201 0.74400002 4288968968
-0.0071282643 -0.0032401201 0.74400002 4286537276
-0.0058478951 -0.0032488303 0.74600005 4280484352
-0.0045544594 -0.0032531854 0.74700004 4281794560
-0.0032531854 -0.0032531854 0.74700004 4283240710
-0.0019571371 -0.0032618954 0.74900001 4285079329
-0.00065237907 -0.0032618954 0.74900001 4285276965
0.0006541211 -0.0032706053 0.75100005 4284751915
0.0019623633 -0.0032706053 0.75100005 4287515221
0.0032706053 -0.0032706053 0.75100005 4287522667
0.0045788479 -0.0032706053 0.75100005 4288838527
0.0058870898 -0.0032706053 0.75100005 4288902953
0.0071953321 -0.0032706053 0.75100005 4288310815
0.0085035739 -0.0032706053 0.75100005 4288900864
0.0098118158 -0.0032706053 0.75100005 4289032448
0.011134865 -0.0032749604 0.75200003 4289031944
0.01244485 -0.0032749604 0.75200003 4289558289
0.013754833 -0.0032749604 0.75200003 4289362733
0.015104883 -0.0032836702 0.75400001 4290152506
0.016418351 -0.0032836702 0.75400001 4290150998
0.017731819 -0.0032836702 0.75400001 4288177208
0.019045288 -0.0032836702 0.75400001 4288366336
0.020412758 -0.0032923804 0.75600004 4284616192
0.021729711 -0.0032923804 0.75600004 4287168551
0.023077147 -0.0032967352 0.75700003 4287890994
0.024460297 -0.0033054454 0.75900006 4287956257
0.025782473 -0.0033054454 0.75900006 4288680237
0.027104653 -0.0033054454 0.75900006 4288288820
0.028614094 -0.0033272204 0.76400006 4289012543
0.030023374 -0.0033359304 0.76600003 4288684595
0.031357747 -0.0033359304 0.76600003 4288816181
-0.044409681 -0.0019884931 0.76100004 4288690755
-0.042970791 -0.0019832673 0.75900006 4287506738
-0.041648615 -0.0019832673 0.75900006 4287441958
-0.040220171 -0.0019780411 0.75700003 4286652442
-0.038850091 -0.0019754283 0.75600004 4285210918
-0.03597666 -0.0019623633 0.75100005 4283902251
-0.034576092 -0.0019571371 0.74900001 4283441700
-0.033182491 -0.0019519113 0.74700004 4283507211
-0.031838536 -0.0019492983 0.74600005 4282915331
-0.030539008 -0.0019492983 0.74600005 4284355361
-0.029161081 -0.0019440722 0.74400002 4284355361
-0.027865034 -0.0019440722 0.74400002 4285401359
-0.026568986 -0.0019440722 0.74400002 4285138188
-0.025340877 -0.0019492983 0.74600005 4285464577
-0.024041345 -0.0019492983 0.74600005 4285464577
-0.022741813 -0.0019492983 0.74600005 4286395648
-0.021442281 -0.0019492983 0.74600005 4290211635
-0.020142749 -0.0019492983 0.74600005 4288575014
-0.018843215 -0.0019492983 0.74600005 4288969772
-0.017496651 -0.0019440722 0.74400002 4288575326
-0.016200602 -0.0019440722 0.74400002 4287851602
-0.014904552 -0.0019440722 0.74400002 4288376064
-0.013645088 -0.0019492983 0.74600005 4288573440
-0.012345555 -0.0019492983 0.74600005 4288442112
-0.011046024 -0.0019492983 0.74600005 4288573440
-0.009746491 -0.0019492983 0.74600005 4288508958
-0.0084469598 -0.0019492983 0.74600005 4289561902
-0.0071474267 -0.0019492983 0.74600005 4287131264
-0.005855734 -0.0019519113 0.74700004 4281670701
-0.0045544594 -0.0019519113 0.74700004 4279959552
-0.0032618954 -0.0019571371 0.74900001 4280221696
-0.0019623633 -0.0019623633 0.75100005 4284153856
-0.0006541211 -0.0019623633 0.75100005 4286258965
0.0006541211 -0.0019623633 0.75100005 4285734170
0.0019623633 -0.0019623633 0.75100005 4288958027
0.0032749604 -0.0019649761 0.75200003 4288705151
0.0045849448 -0.0019649761 0.75200003 4288968580
0.0058949287 -0.0019649761 0.75200003 4288903255
0.0072049126 -0.0019649761 0.75200003 4288442704
0.008514897 -0.0019649761 0.75200003 4288967168
0.0098248813 -0.0019649761 0.75200003 4289296384
0.011164479 -0.0019702022 0.75400001 4289099019
0.012477947 -0.0019702022 0.75400001 4289559570
0.013791416 -0.0019702022 0.75400001 4289494572
0.01514495 -0.0019754283 0.75600004 4290284087
0.016461903 -0.0019754283 0.75600004 4290150478
0.017778853 -0.0019754283 0.75600004 4287058463
0.019095806 -0.0019754283 0.75600004 4288626688
0.020439759 -0.0019780411 0.75700003 4285468672
0.021758454 -0.0019780411 0.75700003 4287430683
0.023138119 -0.0019832673 0.75900006 4287891234
0.02452475 -0.0019884931 0.76100004 4287889951
0.025850412 -0.0019884931 0.76100004 4288811053
0.027211783 -0.0019911062 0.76200002 4288287537
0.028614094 -0.0019963323 0.76400006 4289142846
0.030023374 -0.0020015582 0.76600003 4288684595
0.031480554 -0.0020093974 0.76900005 4288750388
-0.044468038 -0.00066370209 0.76200002 4288690503
-0.043084022 -0.00066283107 0.76100004 4287440693
-0.041648615 -0.00066108909 0.75900006 4287571748
-0.040326435 -0.00066108909 0.75900006 4286781975
-0.038901478 -0.00065934705 0.75700003 4286128942
-0.03743384 -0.00065673405 0.75400001 4285931563
-0.036024563 -0.00065499207 0.75200003 4285340975
-0.034668416 -0.0006541211 0.75100005 4285209132
-0.033271331 -0.00065237907 0.74900001 4285013273
-0.031881217 -0.00065063708 0.74700004 4284618771
-0.030579941 -0.00065063708 0.74700004 4285074725
-0.029239476 -0.00064976607 0.74600005 4284877090
-0.027939942 -0.00064976607 0.74600005 4285661206
-0.02667612 -0.00065063708 0.74700004 4285530132
-0.025374847 -0.00065063708 0.74700004 4285726720
-0.024073573 -0.00065063708 0.74700004 4287634459
-0.022833267 -0.00065237907 0.74900001 4286660608
-0.021528509 -0.00065237907 0.74900001 4290279209
-0.02022375 -0.00065237907 0.74900001 4288903466
-0.018918993 -0.00065237907 0.74900001 4288771880
-0.017567201 -0.00065063708 0.74700004 4288771405
-0.016265927 -0.00065063708 0.74700004 4288179268
-0.015004719 -0.00065237907 0.74900001 4288441856
-0.01369996 -0.00065237907 0.74900001 4288705280
-0.012395202 -0.00065237907 0.74900001 4288508417
-0.011090443 -0.00065237907 0.74900001 4288442624
-0.0097856857 -0.00065237907 0.74900001 4288246052
-0.0085035739 -0.0006541211 0.75100005 4289890876
-0.0071953321 -0.0006541211 0.75100005 4288776845
-0.0058870898 -0.0006541211 0.75100005 4285157974
-0.0045788479 -0.0006541211 0.75100005 4280222805
-0.0032706053 -0.0006541211 0.75100005 4278976579
-0.0019649761 -0.00065499207 0.75200003 4283172899
-0.00065499207 -0.00065499207 0.75200003 4286199121
0.00065499207 -0.00065499207 0.75200003 4286066506
0.0019649761 -0.00065499207 0.75200003 4288040552
0.0032749604 -0.00065499207 0.75200003 4288311164
0.0045971381 -0.00065673405 0.75400001 4288245371
0.0059106066 -0.00065673405 0.75400001 4288772723
0.0072240741 -0.00065673405 0.75400001 4288312172
0.008560189 -0.00065847608 0.75600004 4288901376
0.0098771406 -0.00065847608 0.75600004 4289493514
0.011194094 -0.00065847608 0.75600004 4289296664
0.012511045 -0.00065847608 0.75600004 4290020386
0.013827998 -0.00065847608 0.75600004 4289954871
0.015164983 -0.00065934705 0.75700003 4290415422
0.016483678 -0.00065934705 0.75700003 4290412873
0.017802371 -0.00065934705 0.75700003 4287057430
0.019121066 -0.00065934705 0.75700003 4287505664
0.020493761 -0.00066108909 0.75900006 4285729280
0.021815941 -0.00066108909 0.75900006 4287430691
0.023199089 -0.00066283107 0.76100004 4288087597
0.024556976 -0.00066370209 0.76200002 4287956007
0.025884381 -0.00066370209 0.76200002 4288679987
0.027283208 -0.00066544407 0.76400006 4288353593
0.028688999 -0.00066718605 0.76600003 4289274695
0.031562429 -0.00067154109 0.77100003 4288619824
-0.044468038 0.00066370209 0.76200002 4288691005
-0.043140635 0.00066370209 0.76200002 4287835953
-0.041758355 0.00066283107 0.76100004 4287769903
-0.040432695 0.00066283107 0.76100004 4286717215
-0.039004255 0.00066108909 0.75900006 4286716202
-0.037533138 0.00065847608 0.75600004 4286781995
-0.036120374 0.00065673405 0.75400001 4286582563
-0.03471458 0.00065499207 0.75200003 4286253854
-0.033360176 0.0006541211 0.75100005 4286383387
-0.031966574 0.00065237907 0.74900001 4286252058
-0.030661814 0.00065237907 0.74900001 4286120477
-0.029435448 0.0006541211 0.75100005 4285792280
-0.028127208 0.0006541211 0.75100005 4286054416
-0.026818965 0.0006541211 0.75100005 4285988878
-0.02554469 0.00065499207 0.75200003 4285726732
-0.024234707 0.00065499207 0.75200003 4286712859
-0.022894237 0.0006541211 0.75100005 4287120896
-0.021585995 0.0006541211 0.75100005 4289884190
-0.020277753 0.0006541211 0.75100005 4288704790
-0.018969512 0.0006541211 0.75100005 4289034011
-0.017614234 0.00065237907 0.74900001 4288771157
-0.016309476 0.00065237907 0.74900001 4288310606
-0.015044784 0.0006541211 0.75100005 4288441600
-0.013736542 0.0006541211 0.75100005 4288639232
-0.0124283 0.0006541211 0.75100005 4288442624
-0.011120059 0.0006541211 0.75100005 4288574464
-0.0098118158 0.0006541211 0.75100005 4288180801
-0.0085035739 0.0006541211 0.75100005 4289233490
-0.0071953321 0.0006541211 0.75100005 4288578449
-0.0058870898 0.0006541211 0.75100005 4285551970
-0.0045788479 0.0006541211 0.75100005 4283777608
-0.0032749604 0.00065499207 0.75200003 4282395955
-0.0019649761 0.00065499207 0.75200003 4284168519
-0.00065499207 0.00065499207 0.75200003 4285155414
0.00065499207 0.00065499207 0.75200003 4286991692
0.0019649761 0.00065499207 0.75200003 4287781208
0.0032836702 0.00065673405 0.75400001 4288117130
0.0045971381 0.00065673405 0.75400001 4287129978
0.0059106066 0.00065673405 0.75400001 4287127639
0.0072432365 0.00065847608 0.75600004 4287127639
0.008560189 0.00065847608 0.75600004 4288310302
0.0098902062 0.00065934705 0.75700003 4289823284
0.0112089 0.00065934705 0.75700003 4289429573
0.012527594 0.00065934705 0.75700003 4289298244
0.013846288 0.00065934705 0.75700003 4289888326
0.015164983 0.00065934705 0.75700003 4290348877
0.016483678 0.00065934705 0.75700003 4290412373
0.017802371 0.00065934705 0.75700003 4285543435
0.019171584 0.00066108909 0.75900006 4286709760
0.020493761 0.00066108909 0.75900006 4287104000
0.021873426 0.00066283107 0.76100004 4287366689
0.023290543 0.00066544407 0.76400006 4287695397
0.024621431 0.00066544407 0.76400006 4288088357
0.026020257 0.00066718605 0.76600003 4289009459
0.027390338 0.00066805707 0.76700002 4288487221
0.028726451 0.00066805707 0.76700002 4288750136
0.030219346 0.00067154109 0.77100003 4288882229
0.031644303 0.00067328312 0.77300006 4288750386
-0.043253865 0.0019963323 0.76400006 4287704612
-0.041813228 0.0019911062 0.76200002 4287769653
-0.040432695 0.0019884931 0.76100004 4286782758
-0.039004255 0.0019832673 0.75900006 4286780975
-0.037682079 0.0019832673 0.75900006 4286583597
-0.036264088 0.0019780411 0.75700003 4286450464
-0.034899231 0.0019754283 0.75600004 4286253084
-0.033493433 0.0019702022 0.75400001 4286317081
-0.032179967 0.0019702022 0.75400001 4286054421
-0.030784627 0.0019649761 0.75200003 4286054426
-0.029474642 0.0019649761 0.75200003 4285923352
-0.028127208 0.0019623633 0.75100005 4286119953
-0.026818965 0.0019623633 0.75100005 4286054416
-0.02554469 0.0019649761 0.75200003 4285923350
-0.024234707 0.0019649761 0.75200003 4286842660
-0.022924723 0.0019649761 0.75200003 4286986752
-0.021585995 0.0019623633 0.75100005 4289947162
-0.020277753 0.0019623633 0.75100005 4288705544
-0.018969512 0.0019623633 0.75100005 4289034509
-0.017661268 0.0019623633 0.75100005 4288902755
-0.016353028 0.0019623633 0.75100005 4288179289
-0.015064818 0.0019649761 0.75200003 4288571392
-0.013754833 0.0019649761 0.75200003 4288966144
-0.01244485 0.0019649761 0.75200003 4288573952
-0.011134865 0.0019649761 0.75200003 4288311040
-0.0098248813 0.0019649761 0.75200003 4287588933
-0.008514897 0.0019649761 0.75200003 4287917897
-0.0072049126 0.0019649761 0.75200003 4287460706
-0.0058949287 0.0019649761 0.75200003 4286670933
-0.0045849448 0.0019649761 0.75200003 4286276459
-0.0032749604 0.0019649761 0.75200003 4286737010
-0.0019649761 0.0019649761 0.75200003 4287327364
-0.00065499207 0.0019649761 0.75200003 4286998399
0.00065673405 0.0019702022 0.75400001 4287191649
0.0019702022 0.0019702022 0.75400001 4287586407
0.0032923804 0.0019754283 0.75600004 4287194761
0.0046093324 0.0019754283 0.75600004 4286602623
0.0059262845 0.0019754283 0.75600004 4285287486
0.0072432365 0.0019754283 0.75600004 4284497970
0.0085715121 0.0019780411 0.75700003 4286663745
0.0098902062 0.0019780411 0.75700003 4288374362
0.011238514 0.0019832673 0.75900006 4286663745
0.012560693 0.0019832673 0.75900006 4285150505
0.013882871 0.0019832673 0.75900006 4286268707
0.015205049 0.0019832673 0.75900006 4288110911
0.016527228 0.0019832673 0.75900006 4288763392
0.017849406 0.0019832673 0.75900006 4284618752
0.019171584 0.0019832673 0.75900006 4286906398
0.020574765 0.0019911062 0.76200002 4287498023
0.021902168 0.0019911062 0.76200002 4287496990
0.023290543 0.0019963323 0.76400006 4287562783
0.024685884 0.0020015582 0.76600003 4287956007
0.026054224 0.0020041713 0.76700002 4289074489
0.027461763 0.0020093974 0.76900005 4288421172
0.028801359 0.0020093974 0.76900005 4288684343
0.030219346 0.0020146233 0.77100003 4288751924
0.031644303 0.0020198494 0.77300006 4289146682
-0.043253865 0.0033272204 0.76400006 4287509298
-0.041922979 0.0033272204 0.76400006 4287703345
-0.040485825 0.0033185103 0.76200002 4286716450
-0.039158419 0.0033185103 0.76200002 4286846505
-0.037781373 0.0033141554 0.76100004 4286648869
-0.036264088 0.0032967352 0.75700003 4286713122
-0.034945395 0.0032967352 0.75700003 4286581280
-0.033582281 0.0032923804 0.75600004 4286383387
-0.032265328 0.0032923804 0.75600004 4285988885
-0.0308665 0.0032836702 0.75400001 4286185490
-0.029553032 0.0032836702 0.75400001 4286185490
-0.028239565 0.0032836702 0.75400001 4286119945
-0.026926095 0.0032836702 0.75400001 4286119945
-0.025612628 0.0032836702 0.75400001 4285988883
-0.02429916 0.0032836702 0.75400001 4285530124
-0.022985691 0.0032836702 0.75400001 4287181568
-0.02161474 0.0032749604 0.75200003 4290273828
-0.020304754 0.0032749604 0.75200003 4289098784
-0.018994769 0.0032749604 0.75200003 4289559079
