# .PCD v0.7 - Point Cloud Data file format
VERSION 0.7
FIELDS x y z rgba
SIZE 4 4 4 4
TYPE F F F U
COUNT 1 1 1 1
WIDTH 1071
HEIGHT 1
VIEWPOINT 0 0 0 1 0 0 0
POINTS 1071
DATA ascii
0.19413407 -0.11500686 0.86659276 4278190080
0.19553752 -0.11556298 0.86708778 4278190080
0.20085393 -0.11548306 0.86869252 4278190080
0.20226046 -0.11604041 0.86918867 4278190080
0.20366699 -0.11659776 0.86968476 4278190080
0.20507351 -0.1171551 0.87018085 4278190080
0.20929305 -0.11882715 0.87166917 4278190080
0.2137823 -0.12279267 0.87352306 4278190080
0.21347578 -0.1259512 0.8738206 4278190080
0.21487461 -0.12650551 0.87431401 4278190080
0.21627344 -0.1270598 0.87480736 4278190080
0.2165231 -0.12934536 0.87516588 4278190080
0.21791886 -0.12989843 0.87565815 4278190080
0.21815926 -0.13218038 0.8760134 4278190080
0.21955191 -0.13273223 0.8765046 4278190080
0.22094458 -0.13328409 0.87699586 4278190080
0.22059043 -0.13642368 0.8772766 4278190080
0.22219577 -0.13924649 0.87811327 4278190080
0.22240695 -0.1415168 0.8784582 4278190080
0.22378886 -0.14206439 0.87894565 4278190080
0.21945439 -0.1534667 0.87903941 4278190080
0.21963172 -0.15572359 0.87937242 4278190080
0.14323011 -0.16180931 0.85845613 4278190080
0.14453968 -0.16232824 0.85891801 4278190080
0.14479056 -0.1646136 0.85927325 4278190080
0.14503528 -0.16689654 0.85962635 4278190080
0.14527382 -0.16917709 0.85997725 4278190080
0.14550622 -0.17145513 0.86032593 4278190080
0.14680348 -0.17196919 0.86078352 4278190080
0.14810075 -0.17248324 0.8612411 4278190080
0.149398 -0.17299728 0.86169869 4278190080
0.15069526 -0.17351134 0.86215621 4278190080
0.18914144 -0.11660857 0.86691403 4278190080
0.19217451 -0.11453146 0.86758369 4278190080
0.19357795 -0.11508759 0.86807877 4278190080
0.19498138 -0.11564372 0.86857378 4278190080
0.19748354 -0.11444927 0.86918956 4278190080
0.2002966 -0.11556397 0.8701818 4278190080
0.20170312 -0.11612131 0.87067789 4278190080
0.20477618 -0.11406006 0.87136167 4278190080
0.21462961 -0.12342954 0.87550408 4278190080
0.21571915 -0.12714027 0.87628847 4278190080
0.21597002 -0.12942564 0.87664372 4278190080
0.21736577 -0.12997873 0.87713605 4278190080
0.21876153 -0.1305318 0.87762833 4278190080
0.21900006 -0.13281235 0.87797922 4278190080
0.22039272 -0.1333642 0.87847042 4278190080
0.2217854 -0.13391607 0.87896168 4278190080
0.22142844 -0.13705355 0.87923586 4278190080
0.22164696 -0.13932617 0.87957972 4278190080
0.22303194 -0.13987498 0.88006824 4278190080
0.21891411 -0.15354514 0.88048309 4278190080
0.21909265 -0.15580185 0.88081282 4278190080
0.21867104 -0.15891378 0.88106424 4278190080
0.22002678 -0.15945099 0.88154244 4278190080
0.1424499 -0.15959574 0.85948747 4278190080
0.14271119 -0.16188465 0.85984272 4278190080
0.14402075 -0.16240357 0.86030465 4278190080
0.14427285 -0.16468877 0.86065662 4278190080
0.14451879 -0.16697152 0.86100644 4278190080
0.14475855 -0.16925189 0.86135405 4278190080
0.14605889 -0.16976716 0.86181271 4278190080
0.14628942 -0.17204382 0.86215711 4278190080
0.14758669 -0.17255786 0.86261463 4278190080
0.14727001 -0.17571038 0.86289757 4278190080
0.19302182 -0.11516833 0.86956477 4278190080
0.19442526 -0.11572445 0.87005979 4278190080
0.19692619 -0.11453018 0.87067884 4278190080
0.19998361 -0.11246371 0.87136263 4278190080
0.20139474 -0.11302288 0.87186038 4278190080
0.20280588 -0.11358206 0.87235808 4278190080
0.20421702 -0.11414123 0.87285584 4278190080
0.21547692 -0.1240664 0.8774851 4278190080
0.21516484 -0.12722073 0.87776959 4278190080
0.21541694 -0.12950593 0.87812155 4278190080
0.2168127 -0.13005902 0.87861389 4278190080
0.21820845 -0.13061211 0.87910616 4278190080
0.21844819 -0.13289246 0.87945384 4278190080
0.21984087 -0.13344432 0.87994504 4278190080
0.22123353 -0.13399619 0.88043624 4278190080
0.22087841 -0.1371334 0.8807056 4278190080
0.22109815 -0.13940585 0.88104618 4278190080
0.22248313 -0.13995466 0.8815347 4278190080
0.14350183 -0.16247891 0.86169124 4278190080
0.14375512 -0.16476391 0.86203998 4278190080
0.1440023 -0.1670465 0.86238652 4278190080
0.14530571 -0.16756299 0.86284626 4278190080
0.14554361 -0.16984196 0.86318952 4278190080
0.14684395 -0.17035723 0.86364818 4278190080
0.14707264 -0.17263249 0.86398822 4278190080
0.14675778 -0.17578474 0.86426622 4278190080
0.19636884 -0.11461109 0.87216806 4278190080
0.19942443 -0.11254488 0.8728568 4278190080
0.20083556 -0.11310405 0.87335449 4278190080
0.2022467 -0.11366323 0.87385225 4278190080
0.20365784 -0.11422241 0.87434995 4278190080
0.20506898 -0.11478159 0.87484771 4278190080
0.21492079 -0.12414713 0.87897104 4278190080
0.21486385 -0.12958622 0.87959939 4278190080
0.21625961 -0.13013931 0.88009173 4278190080
0.21765536 -0.13069239 0.88058406 4278190080
0.21789633 -0.13297257 0.8809284 4278190080
0.219289 -0.13352443 0.8814196 4278190080
0.22068168 -0.1340763 0.88191086 4278190080
0.22032838 -0.13721325 0.88217527 4278190080
0.22054935 -0.13948551 0.88251263 4278190080
0.1429829 -0.16255425 0.86307782 4278190080
0.14429247 -0.16307318 0.86353976 4278190080
0.14454392 -0.1653568 0.86388415 4278190080
0.14478922 -0.16763797 0.86422634 4278190080
0.14502832 -0.16991676 0.86456639 4278190080
0.14632867 -0.17043203 0.86502504 4278190080
0.14655858 -0.17270711 0.86536181 4278190080
0.14624555 -0.17585911 0.86563492 4278190080
0.1475382 -0.17637132 0.86609083 4278190080
0.20027637 -0.11318523 0.87484866 4278190080
0.20168753 -0.11374441 0.87534636 4278190080
0.20309865 -0.11430359 0.87584412 4278190080
0.20450979 -0.11486277 0.87634182 4278190080
0.20592093 -0.11542194 0.87683958 4278190080
0.21128325 -0.12082285 0.87911451 4278190080
0.21268976 -0.12138019 0.8796106 4278190080
0.21436466 -0.12422787 0.88045704 4278190080
0.2157681 -0.12478399 0.88095206 4278190080
0.21431078 -0.12966652 0.88107729 4278190080
0.21570653 -0.13021959 0.88156956 4278190080
0.21710229 -0.13077268 0.8820619 4278190080
0.21849802 -0.13132575 0.88255417 4278190080
0.21873714 -0.13360456 0.88289422 4278190080
0.22012982 -0.13415641 0.88338542 4278190080
0.21977834 -0.1372931 0.883645 4278190080
0.2005367 -0.19737254 0.8847844 4278190080
0.14351474 -0.16086258 0.86458308 4278190080
0.14377354 -0.16314851 0.86492634 4278190080
0.1440262 -0.16543195 0.86526746 4278190080
0.14427273 -0.16771294 0.86560643 4278190080
0.14557613 -0.16822945 0.86606616 4278190080
0.14581341 -0.17050683 0.86640185 4278190080
0.14604452 -0.17278174 0.8667354 4278190080
0.14734179 -0.1732958 0.86719292 4278190080
0.14702597 -0.17644569 0.86745954 4278190080
0.20505984 -0.11320017 0.87797523 4278190080
0.20647407 -0.11376057 0.87847406 4278190080
0.20818403 -0.11662148 0.8793292 4278190080
0.21213241 -0.1214611 0.88109988 4278190080
0.21375769 -0.12974681 0.88255513 4278190080
0.21515346 -0.1302999 0.8830474 4278190080
0.2165492 -0.13085297 0.88353974 4278190080
0.21794495 -0.13140605 0.88403201 4278190080
0.21818528 -0.13368466 0.88436884 4278190080
0.20002446 -0.1974469 0.8861531 4278190080
0.1448213 -0.15511392 0.86587232 4278190080
0.14430724 -0.16145824 0.86643595 4278190080
0.14456418 -0.16374278 0.86677486 4278190080
0.144815 -0.16602482 0.86711168 4278190080
0.1461215 -0.16654253 0.86757249 4278190080
0.14636306 -0.16882092 0.86790597 4278190080
0.14659847 -0.17109692 0.86823732 4278190080
0.14682773 -0.17337042 0.86856651 4278190080
0.14812499 -0.17388447 0.86902404 4278190080
0.14780641 -0.17703228 0.86928415 4278190080
0.1944432 -0.19769526 0.8859821 4278190080
0.19573277 -0.19820625 0.88643694 4278190080
0.19702235 -0.19871727 0.88689184 4278190080
0.19951224 -0.19752125 0.88752174 4278190080
0.14509974 -0.1620539 0.86828882 4278190080
0.14535482 -0.16433704 0.86862338 4278190080
0.14560379 -0.16661769 0.86895585 4278190080
0.14691028 -0.1671354 0.86941665 4278190080
0.14714999 -0.16941239 0.86974579 4278190080
0.14631368 -0.17344505 0.86994004 4278190080
0.14761095 -0.17395909 0.87039763 4278190080
0.14890823 -0.17447315 0.87085521 4278190080
0.19016929 -0.1984604 0.88626492 4278190080
0.19264263 -0.19725843 0.88689268 4278190080
0.19393221 -0.19776943 0.88734752 4278190080
0.19522177 -0.19828044 0.88780236 4278190080
0.19651134 -0.19879144 0.88825727 4278190080
0.19900002 -0.19759561 0.88889045 4278190080
0.14457959 -0.16212942 0.86967868 4278190080
0.14483589 -0.16441238 0.87001002 4278190080
0.14614546 -0.16493131 0.87047189 4278190080
0.14639257 -0.16721056 0.87079996 4278190080
0.14663351 -0.16948737 0.87112588 4278190080
0.14686826 -0.1717618 0.87144965 4278190080
0.14709689 -0.17403372 0.87177122 4278190080
0.14839417 -0.17454778 0.8722288 4278190080
0.1480746 -0.17769322 0.87247747 4278190080
0.15363778 -0.18426041 0.87492156 4278190080
0.15492426 -0.1847702 0.87537533 4278190080
0.15510827 -0.18702444 0.87568116 4278190080
0.15639168 -0.18753302 0.87613386 4278190080
0.16024193 -0.18905872 0.87749189 4278190080
0.18462677 -0.19872147 0.8860929 4278190080
0.18708654 -0.19751485 0.88671952 4278190080
0.18837301 -0.19802463 0.8871733 4278190080
0.18965951 -0.19853441 0.88762707 4278190080
0.19213162 -0.19733261 0.8882581 4278190080
0.19342119 -0.19784361 0.88871294 4278190080
0.1959025 -0.19664553 0.88934726 4278190080
0.19719513 -0.19715774 0.88980317 4278190080
0.20028466 -0.19510993 0.89053154 4278190080
0.14537209 -0.16272508 0.87153149 4278190080
0.14562653 -0.16500664 0.87185848 4278190080
0.14587486 -0.16728571 0.87218332 4278190080
0.14718135 -0.16780342 0.87264413 4278190080
0.14635299 -0.1718366 0.87282646 4278190080
0.14658283 -0.17410834 0.87314481 4278190080
0.14788011 -0.1746224 0.87360233 4278190080
0.14917736 -0.17513646 0.87405992 4278190080
0.15184151 -0.18382464 0.87582994 4278190080
0.153128 -0.18433443 0.87628371 4278190080
0.15441449 -0.18484421 0.87673748 4278190080
0.15570098 -0.18535399 0.87719125 4278190080
0.15588312 -0.18760684 0.87749273 4278190080
0.15716654 -0.18811542 0.87794542 4278190080
0.15844995 -0.18862398 0.87839812 4278190080
0.15973337 -0.18913256 0.87885082 4278190080
0.16101678 -0.18964112 0.87930351 4278190080
0.16230018 -0.19014968 0.87975615 4278190080
0.16358359 -0.19065824 0.88020885 4278190080
0.16615044 -0.19167538 0.88111424 4278190080
0.17526411 -0.19746751 0.88456601 4278190080
0.18026797 -0.1972696 0.88609374 4278190080
0.18155138 -0.19777817 0.88654643 4278190080
0.18283479 -0.19828673 0.88699913 4278190080
0.18411821 -0.1987953 0.88745177 4278190080
0.18657675 -0.19758885 0.88808173 4278190080
0.18786323 -0.19809863 0.8885355 4278190080
0.18914972 -0.19860841 0.88898927 4278190080
0.19162062 -0.1974068 0.88962352 4278190080
0.19409762 -0.19620766 0.89025998 4278190080
0.1971761 -0.19415645 0.89098996 4278190080
0.19847335 -0.19467051 0.89144748 4278190080
0.19977061 -0.19518456 0.89190507 4278190080
0.14485194 -0.1628006 0.87292141 4278190080
0.1451076 -0.16508198 0.87324512 4278190080
0.14535715 -0.16736087 0.87356669 4278190080
0.14666364 -0.16787858 0.87402749 4278190080
0.14583771 -0.1719114 0.87420326 4278190080
0.14713804 -0.17242667 0.87466192 4278190080
0.14736606 -0.17469703 0.87497592 4278190080
0.14866331 -0.17521109 0.8754335 4278190080
0.1483428 -0.17835416 0.87567079 4278190080
0.15133171 -0.18389864 0.87719214 4278190080
0.15261821 -0.18440843 0.87764591 4278190080
0.15390469 -0.18491821 0.87809968 4278190080
0.1551912 -0.18542801 0.87855345 4278190080
0.15647767 -0.18593779 0.87900722 4278190080
0.15665798 -0.18818924 0.87930435 4278190080
0.15794139 -0.18869781 0.87975699 4278190080
0.15922481 -0.18920638 0.88020968 4278190080
0.16050822 -0.18971494 0.88066238 4278190080
0.16179162 -0.1902235 0.88111508 4278190080
0.16307503 -0.19073208 0.88156772 4278190080
0.16435845 -0.19124064 0.88202041 4278190080
0.16564187 -0.1917492 0.88247311 4278190080
0.16692527 -0.19225776 0.88292581 4278190080
0.16963543 -0.19551177 0.88411528 4278190080
0.17091577 -0.19601913 0.88456684 4278190080
0.17219611 -0.19652647 0.88501847 4278190080
0.17347643 -0.19703381 0.88547009 4278190080
0.17475677 -0.19754116 0.88592166 4278190080
0.1760371 -0.1980485 0.88637328 4278190080
0.17847599 -0.19683486 0.88699996 4278190080
0.17975941 -0.19734342 0.8874526 4278190080
0.18104282 -0.197852 0.8879053 4278190080
0.18349397 -0.19664328 0.88853633 4278190080
0.18478046 -0.19715306 0.8889901 4278190080
0.1872409 -0.19594796 0.88962442 4278190080
0.18853047 -0.19645897 0.89007926 4278190080
0.18982004 -0.19696997 0.8905341 4278190080
0.19406749 -0.19320297 0.89144838 4278190080
0.19536476 -0.19371703 0.89190596 4278190080
0.19666204 -0.19423109 0.89236355 4278190080
0.19915166 -0.19303761 0.89300811 4278190080
0.14648566 -0.13975638 0.87254244 4278190080
0.14628084 -0.14294432 0.87281501 4278190080
0.14658546 -0.14524437 0.87315232 4278190080
0.14458866 -0.1651573 0.8746317 4278190080
0.14589825 -0.16567625 0.87509364 4278190080
0.14614592 -0.16795374 0.87541085 4278190080
0.14638744 -0.17022881 0.87572592 4278190080
0.14662278 -0.17250147 0.87603879 4278190080
0.14792311 -0.17301674 0.87649745 4278190080
0.14814925 -0.17528571 0.87680703 4278190080
0.14944652 -0.17579976 0.87726462 4278190080
0.15210843 -0.18448244 0.87900805 4278190080
0.15339491 -0.18499222 0.87946182 4278190080
0.15468141 -0.18550201 0.8799156 4278190080
0.15596789 -0.18601179 0.88036937 4278190080
0.1561494 -0.18826307 0.88066322 4278190080
0.15743282 -0.18877164 0.88111591 4278190080
0.15871623 -0.18928021 0.88156861 4278190080
0.15999964 -0.18978877 0.88202131 4278190080
0.16128306 -0.19029734 0.88247395 4278190080
0.16256647 -0.1908059 0.88292664 4278190080
0.16384988 -0.19131447 0.88337934 4278190080
0.1651333 -0.19182304 0.88383204 4278190080
0.1664167 -0.1923316 0.88428468 4278190080
0.16770013 -0.19284016 0.88473737 4278190080
0.16898352 -0.19334872 0.88519007 4278190080
0.17026694 -0.1938573 0.88564277 4278190080
0.17155036 -0.19436586 0.88609546 4278190080
0.17283377 -0.19487442 0.8865481 4278190080
0.17411718 -0.195383 0.8870008 4278190080
0.17540058 -0.19589156 0.8874535 4278190080
0.17796741 -0.1969087 0.88835883 4278190080
0.18041122 -0.19569771 0.88899094 4278190080
0.1816977 -0.19620749 0.88944471 4278190080
0.18298419 -0.19671728 0.88989848 4278190080
0.18427068 -0.19722708 0.89035225 4278190080
0.1879026 -0.19430749 0.8911736 4278190080
0.18919523 -0.1948197 0.89162952 4278190080
0.19225617 -0.19276354 0.89236438 4278190080
0.19473536 -0.19156659 0.89300895 4278190080
0.19603571 -0.19208187 0.89346761 4278190080
0.19733605 -0.19259714 0.89392626 4278190080
0.147091 -0.14355326 0.87470913 4278190080
0.14843288 -0.14408499 0.87518245 4278190080
0.14512429 -0.16347176 0.87616408 4278190080
0.14537932 -0.16575158 0.87648022 4278190080
0.14562821 -0.16802891 0.87679422 4278190080
0.14587095 -0.17030378 0.87710601 4278190080
0.14717436 -0.17082027 0.87756574 4278190080
0.14847778 -0.17133677 0.87802547 4278190080
0.14870819 -0.17360683 0.87833291 4278190080
0.14893247 -0.17587438 0.87863821 4278190080
0.15022974 -0.17638844 0.87909573 4278190080
0.151527 -0.1769025 0.87955332 4278190080
0.15282425 -0.17741655 0.8800109 4278190080
0.15397969 -0.18332119 0.88098389 4278190080
0.15417162 -0.18557602 0.88127774 4278190080
0.15545811 -0.18608581 0.88173151 4278190080
0.15674458 -0.18659557 0.88218528 4278190080
0.15803111 -0.18710537 0.88263905 4278190080
0.15820767 -0.18935403 0.88292754 4278190080
0.15949108 -0.18986259 0.88338017 4278190080
0.1607745 -0.19037117 0.88383287 4278190080
0.16205789 -0.19087973 0.88428557 4278190080
0.16334131 -0.19138829 0.88473827 4278190080
0.16462474 -0.19189687 0.8851909 4278190080
0.16590814 -0.19240543 0.8856436 4278190080
0.16719155 -0.19291399 0.8860963 4278190080
0.16847496 -0.19342256 0.886549 4278190080
0.16975838 -0.19393112 0.88700169 4278190080
0.17104179 -0.19443969 0.88745433 4278190080
0.17232519 -0.19494826 0.88790703 4278190080
0.17360862 -0.19545682 0.88835973 4278190080
0.17604195 -0.19424236 0.88899183 4278190080
0.17732844 -0.19475214 0.8894456 4278190080
0.17861494 -0.19526194 0.88989937 4278190080
0.17990144 -0.19577172 0.89035314 4278190080
0.18118791 -0.19628151 0.89080691 4278190080
0.1824744 -0.19679129 0.89126068 4278190080
0.1837609 -0.19730107 0.89171445 4278190080
0.18739037 -0.19438185 0.89254224 4278190080
0.192794 -0.18889754 0.89365661 4278190080
0.19291976 -0.19112612 0.89392716 4278190080
0.1942201 -0.19164139 0.89438581 4278190080
0.19552045 -0.19215667 0.89484447 4278190080
0.19800767 -0.19096351 0.89549559 4278190080
0.14541852 -0.13991131 0.87539387 4278190080
0.14521737 -0.14309871 0.8756566 4278190080
0.14655925 -0.14363045 0.87612993 4278190080
0.14790115 -0.14416218 0.87660325 4278190080
0.14697315 -0.16230799 0.87816709 4278190080
0.14722945 -0.16458759 0.87847996 4278190080
0.14641699 -0.16862176 0.87863839 4278190080
0.14665787 -0.17089525 0.87894583 4278190080
0.14796129 -0.17141174 0.87940556 4278190080
0.14926471 -0.17192824 0.87986529 4278190080
0.14949326 -0.1741969 0.88016838 4278190080
0.14971568 -0.17646307 0.88046932 4278190080
0.15101294 -0.17697713 0.88092691 4278190080
0.15339427 -0.17574272 0.88154435 4278190080
0.15469462 -0.176258 0.88200301 4278190080
0.1562348 -0.18666959 0.88354743 4278190080
0.15752132 -0.18717939 0.8840012 4278190080
0.1588078 -0.18768917 0.88445497 4278190080
0.16009429 -0.18819894 0.88490874 4278190080
0.16138077 -0.18870872 0.88536251 4278190080
0.16266727 -0.18921852 0.88581628 4278190080
0.16283275 -0.19146213 0.88609713 4278190080
0.16411617 -0.19197069 0.88654983 4278190080
0.16539958 -0.19247925 0.88700253 4278190080
0.16668299 -0.19298783 0.88745517 4278190080
0.1679664 -0.19349639 0.88790786 4278190080
0.1703862 -0.19227722 0.8885389 4278190080
0.1716727 -0.19278702 0.88899267 4278190080
0.17295919 -0.19329681 0.88944644 4278190080
0.17424569 -0.19380659 0.88990021 4278190080
0.17553216 -0.19431637 0.89035398 4278190080
0.17681865 -0.19482616 0.89080775 4278190080
0.18041492 -0.19189508 0.89163125 4278190080
0.18170756 -0.19240731 0.89208716 4278190080
0.18300019 -0.19291952 0.89254314 4278190080
0.18603903 -0.19085658 0.89328122 4278190080
0.18733628 -0.19137064 0.89373881 4278190080
0.18980381 -0.19017038 0.89438665 4278190080
0.19345082 -0.18725942 0.89522803 4278190080
0.19475733 -0.18777713 0.89568889 4278190080
0.19606382 -0.18829484 0.89614969 4278190080
0.19737032 -0.18881257 0.89661056 4278190080
0.14488496 -0.13998877 0.87681955 4278190080
0.14468563 -0.1431759 0.87707746 4278190080
0.14602752 -0.14370763 0.87755078 4278190080
0.1473694 -0.14423938 0.8780241 4278190080
0.14663172 -0.14830187 0.87820148 4278190080
0.14750697 -0.16062437 0.87971359 4278190080
0.1477675 -0.16290505 0.88002425 4278190080
0.14802194 -0.16518325 0.88033283 4278190080
0.14720577 -0.16921464 0.88048249 4278190080
0.14851226 -0.16973235 0.88094336 4278190080
0.14874822 -0.17200322 0.88124537 4278190080
0.14897799 -0.1742717 0.88154519 4278190080
0.15027833 -0.17478697 0.88200384 4278190080
0.15157866 -0.17530225 0.8824625 4278190080
0.152879 -0.17581752 0.88292116 4278190080
0.15417935 -0.1763328 0.88337982 4278190080
0.15547968 -0.17684807 0.88383847 4278190080
0.15957972 -0.18065013 0.88550347 4278190080
0.16087699 -0.18116418 0.885961 4278190080
0.16217425 -0.18167824 0.88641858 4278190080
0.16347152 -0.1821923 0.88687617 4278190080
0.16309829 -0.18531051 0.88707268 4278190080
0.16439094 -0.18582274 0.88752866 4278190080
0.16568358 -0.18633497 0.88798457 4278190080
0.16697623 -0.1868472 0.88844049 4278190080
0.16826887 -0.18735942 0.88889647 4278190080
0.16956152 -0.18787163 0.88935238 4278190080
0.17085418 -0.18838386 0.88980836 4278190080
0.17214681 -0.18889609 0.89026427 4278190080
0.17343946 -0.18940832 0.89072019 4278190080
0.1747321 -0.18992053 0.89117616 4278190080
0.17602475 -0.19043277 0.89163208 4278190080
0.1773174 -0.19094498 0.89208806 4278190080
0.17861004 -0.19145721 0.89254397 4278190080
0.17990269 -0.19196944 0.89299989 4278190080
0.18293044 -0.1899031 0.8937397 4278190080
0.18422771 -0.19041716 0.89419723 4278190080
0.18552497 -0.1909312 0.89465481 4278190080
0.18798819 -0.18972991 0.8953048 4278190080
0.18928854 -0.19024518 0.89576346 4278190080
0.19293311 -0.18733458 0.89661139 4278190080
0.19423962 -0.18785229 0.8970722 4278190080
0.19554611 -0.18837 0.89753306 4278190080
0.19685261 -0.18888772 0.89799386 4278190080
0.14415389 -0.14325309 0.87849826 4278190080
0.14549579 -0.14378484 0.87897158 4278190080
0.14683767 -0.14431657 0.8794449 4278190080
0.14610243 -0.14837871 0.87961578 4278190080
0.14724614 -0.16298074 0.88141739 4278190080
0.14856187 -0.16350211 0.88188148 4278190080
0.14668806 -0.1692898 0.88186586 4278190080
0.14799455 -0.16980751 0.88232666 4278190080
0.14823173 -0.17207819 0.88262546 4278190080
0.14953513 -0.1725947 0.88308519 4278190080
0.14976305 -0.17486177 0.88338071 4278190080
0.15106338 -0.17537706 0.88383937 4278190080
0.15344541 -0.17414418 0.88446444 4278190080
0.15474881 -0.17466067 0.88492417 4278190080
0.16036293 -0.1812388 0.88733459 4278190080
0.16166019 -0.18175286 0.88779217 4278190080
0.16295746 -0.18226692 0.8882497 4278190080
0.16425471 -0.18278097 0.88870728 4278190080
0.16555198 -0.18329503 0.88916487 4278190080
0.16684924 -0.18380907 0.88962245 4278190080
0.16814649 -0.18432313 0.89007998 4278190080
0.16944376 -0.18483718 0.89053756 4278190080
0.17074102 -0.18535124 0.89099514 4278190080
0.17203829 -0.1858653 0.89145267 4278190080
0.17163458 -0.18897045 0.89163297 4278190080
0.17292723 -0.18948267 0.89208889 4278190080
0.17722735 -0.18792151 0.89328295 4278190080
0.17852461 -0.18843557 0.89374053 4278190080
0.17982188 -0.18894961 0.89419812 4278190080
0.18111913 -0.18946368 0.89465564 4278190080
0.1835719 -0.1882589 0.89530569 4278190080
0.18487222 -0.18877415 0.89576435 4278190080
0.18617257 -0.18928944 0.89622301 4278190080
0.18863767 -0.18808949 0.89687741 4278190080
0.19110891 -0.18689202 0.89753389 4278190080
0.19358629 -0.185697 0.89819264 4278190080
0.19489586 -0.18621594 0.89865452 4278190080
0.19620545 -0.18673487 0.89911646 4278190080
0.14630593 -0.14439376 0.88086569 4278190080
0.1477806 -0.16129869 0.88297153 4278190080
0.14909939 -0.16182129 0.88343668 4278190080
0.14723229 -0.16760971 0.88341236 4278190080
0.14854187 -0.16812864 0.8838743 4278190080
0.14878334 -0.17040038 0.88417083 4278190080
0.15008985 -0.17091809 0.88463169 4278190080
0.15032206 -0.17318617 0.88492501 4278190080
0.15162548 -0.17370266 0.8853848 4278190080
0.1529289 -0.17421916 0.88584453 4278190080
0.15423232 -0.17473565 0.88630426 4278190080
0.16225117 -0.18008932 0.8893441 4278190080
0.16355151 -0.18060459 0.88980269 4278190080
0.16374066 -0.18285559 0.89008087 4278190080
0.16503793 -0.18336965 0.89053839 4278190080
0.1663352 -0.1838837 0.89099598 4278190080
0.16763245 -0.18439776 0.89145356 4278190080
0.16892971 -0.1849118 0.89191109 4278190080
0.17022698 -0.18542586 0.89236867 4278190080
0.17152424 -0.18593992 0.89282626 4278190080
0.17282149 -0.18645397 0.89328384 4278190080
0.17411876 -0.18696803 0.89374137 4278190080
0.17541602 -0.18748207 0.89419895 4278190080
0.17671329 -0.18799613 0.89465654 4278190080
0.18045594 -0.18730314 0.89576524 4278190080
0.18913864 -0.18421555 0.89819348 4278190080
0.19044821 -0.18473446 0.89865541 4278190080
0.19292443 -0.18353958 0.89931738 4278190080
0.19423707 -0.18405972 0.89978039 4278190080
0.19554973 -0.18457988 0.9002434 4278190080
0.19686237 -0.18510003 0.90070641 4278190080
0.14607999 -0.14676751 0.8826021 4278190080
0.14831258 -0.15961705 0.88453209 4278190080
0.14857681 -0.16189715 0.88483304 4278190080
0.14883484 -0.16417485 0.88513178 4278190080
0.15015058 -0.16469623 0.88559586 4278190080
0.14933251 -0.1687229 0.88572282 4278190080
0.15064208 -0.16924183 0.88618469 4278190080
0.15087861 -0.17151096 0.88647586 4278190080
0.15218511 -0.17202868 0.88693666 4278190080
0.1534916 -0.17254639 0.88739753 4278190080
0.15479809 -0.1730641 0.88785833 4278190080
0.15610459 -0.17358181 0.88831919 4278190080
0.16173591 -0.18016411 0.8907209 4278190080
0.16303624 -0.1806794 0.89117956 4278190080
0.16433659 -0.18119466 0.89163822 4278190080
0.16563693 -0.18170995 0.89209688 4278190080
0.16693726 -0.18222521 0.89255548 4278190080
0.1682376 -0.18274048 0.89301413 4278190080
0.16953795 -0.18325576 0.89347279 4278190080
0.17083828 -0.18377103 0.89393145 4278190080
0.17213863 -0.18428631 0.89439011 4278190080
0.1747393 -0.18531685 0.89530742 4278190080
0.17603965 -0.18583213 0.89576608 4278190080
0.18600057 -0.18325302 0.89865631 4278190080
0.18731013 -0.18377194 0.89911819 4278190080
0.1886197 -0.18429087 0.89958012 4278190080
0.19109163 -0.18309493 0.90024424 4278190080
0.19240427 -0.18361509 0.90070724 4278190080
0.19488536 -0.18242286 0.90137464 4278190080
0.19620109 -0.18294422 0.90183872 4278190080
0.19751683 -0.1834656 0.9023028 4278190080
0.14554946 -0.14684454 0.88401967 4278190080
0.14911066 -0.16021691 0.88639802 4278190080
0.14937302 -0.1624956 0.88669461 4278190080
0.15069184 -0.1630182 0.88715976 4278190080
0.15094495 -0.16529329 0.88745308 4278190080
0.15012315 -0.16931717 0.88757133 4278190080
0.15143272 -0.1698361 0.88803321 4278190080
0.1527423 -0.17035504 0.88849515 4278190080
0.15405187 -0.17087397 0.88895702 4278190080
0.15536144 -0.1713929 0.88941896 4278190080
0.16493011 -0.17953405 0.89320207 4278190080
0.16884035 -0.18108352 0.89458126 4278190080
0.16902266 -0.18333057 0.89484966 4278190080
0.17032301 -0.18384583 0.89530832 4278190080
0.17275061 -0.182633 0.89596051 4278190080
0.17405403 -0.18314949 0.89642024 4278190080
0.17535745 -0.18366599 0.89687997 4278190080
0.17666085 -0.18418248 0.8973397 4278190080
0.18548164 -0.18332835 0.90004289 4278190080
0.18794616 -0.18213014 0.90070814 4278190080
0.18925881 -0.1826503 0.90117115 4278190080
0.19173254 -0.18145581 0.90183961 4278190080
0.19304827 -0.18197717 0.9023037 4278190080
0.19553125 -0.18078628 0.90297544 4278190080
0.19685006 -0.18130888 0.90344065 4278190080
0.14858685 -0.16029295 0.88779765 4278190080
0.14885043 -0.16257147 0.88809097 4278190080
0.15016924 -0.16309406 0.88855612 4278190080
0.15042357 -0.16536897 0.88884622 4278190080
0.1517393 -0.16589035 0.8893103 4278190080
0.15198442 -0.16816156 0.88959712 4278190080
0.15329708 -0.16868171 0.89006007 4278190080
0.15460974 -0.16920185 0.89052308 4278190080
0.15592237 -0.16972201 0.89098608 4278190080
0.15723504 -0.17024216 0.89144909 4278190080
0.15854768 -0.17076232 0.8919121 4278190080
0.1644136 -0.17960903 0.89458215 4278190080
0.16832386 -0.1811585 0.8959614 4278190080
0.16962726 -0.18167499 0.89642113 4278190080
0.187426 -0.18220565 0.902098 4278190080
0.18989542 -0.18101011 0.90276867 4278190080
0.19121116 -0.18153149 0.90323275 4278190080
0.19368987 -0.18033957 0.90390664 4278190080
0.19500867 -0.18086216 0.90437186 4278190080
0.19749656 -0.17967394 0.90504903 4278190080
0.14582722 -0.14752908 0.88732702 4278190080
0.14964405 -0.1577353 0.88945997 4278190080
0.14938493 -0.1608928 0.88966352 4278190080
0.1507068 -0.16141661 0.8901298 4278190080
0.15096547 -0.16369252 0.8904177 4278190080
0.15228426 -0.1642151 0.89088285 4278190080
0.15253367 -0.16648741 0.89116746 4278190080
0.15384939 -0.16700877 0.89163154 4278190080
0.15516512 -0.16753015 0.89209563 4278190080
0.15648085 -0.16805153 0.89255971 4278190080
0.15671489 -0.17031768 0.89283895 4278190080
0.15802753 -0.17083782 0.89330196 4278190080
0.16369693 -0.17743127 0.89569497 4278190080
0.16500342 -0.17794898 0.89615577 4278190080
0.18428056 -0.18124086 0.90256184 4278190080
0.19184847 -0.17989284 0.90483785 4278190080
0.19316728 -0.18041544 0.90530306 4278190080
0.19565086 -0.17922617 0.90598238 4278190080
0.19697276 -0.17974998 0.90644866 4278190080
0.14633101 -0.14584319 0.88891643 4278190080
0.15017119 -0.15605603 0.89104283 4278190080
0.15044492 -0.15833727 0.89133239 4278190080
0.15018298 -0.16149265 0.89152944 4278190080
0.15150487 -0.16201647 0.89199567 4278190080
0.15176168 -0.16429098 0.89227927 4278190080
0.15308048 -0.16481356 0.89274442 4278190080
0.15332802 -0.16708447 0.89302468 4278190080
0.15464374 -0.16760585 0.89348876 4278190080
0.15595947 -0.16812721 0.89395285 4278190080
0.15619473 -0.17039318 0.89422882 4278190080
0.15750737 -0.17091334 0.89469182 4278190080
0.15882003 -0.17143348 0.89515477 4278190080
0.16690038 -0.17680822 0.89819789 4278190080
0.17213868 -0.17888395 0.90004551 4278190080
0.18868826 -0.17892352 0.9053039 4278190080
0.19000706 -0.17944612 0.90576911 4278190080
0.19132587 -0.1799687 0.90623426 4278190080
0.19380517 -0.1787784 0.90691578 4278190080
0.14734894 -0.14327626 0.89059991 4278190080
0.14714116 -0.14645213 0.89081055 4278190080
0.1474438 -0.14874414 0.89110661 4278190080
0.14964433 -0.15613252 0.89245063 4278190080
0.14991929 -0.15841356 0.89273691 4278190080
0.15124577 -0.1589392 0.89320475 4278190080
0.15098107 -0.16209251 0.8933953 4278190080
0.15230295 -0.16261631 0.89386159 4278190080
0.15255789 -0.16488943 0.89414078 4278190080
0.15387671 -0.16541202 0.89460593 4278190080
0.1551955 -0.16593461 0.89507109 4278190080
0.1565143 -0.16645721 0.8955363 4278190080
0.15675384 -0.16872427 0.89581007 4278190080
0.15806957 -0.16924565 0.89627415 4278190080
0.15938529 -0.16976701 0.89673823 4278190080
0.16223784 -0.17306946 0.89793366 4278190080
0.1740517 -0.17775083 0.90210062 4278190080
0.17536435 -0.17827097 0.90256363 4278190080
0.17667699 -0.17879112 0.90302658 4278190080
0.17798965 -0.17931128 0.90348959 4278190080
0.17930229 -0.17983143 0.9039526 4278190080
0.18306841 -0.1791517 0.9050917 4278190080
0.18552805 -0.17795421 0.90576994 4278190080
0.18684687 -0.1784768 0.90623516 4278190080
0.18931571 -0.17728302 0.90691668 4278190080
0.19063759 -0.17780682 0.90738291 4278190080
0.19195949 -0.17833064 0.90784919 4278190080
0.19502032 -0.17628533 0.90864486 4278190080
0.14681537 -0.14335372 0.89202559 4278190080
0.14816189 -0.14388728 0.89250058 4278190080
0.14795132 -0.14706106 0.89270473 4278190080
0.14929321 -0.1475928 0.89317799 4278190080
0.15016784 -0.15445372 0.89404327 4278190080
0.15044706 -0.15673587 0.8943274 4278190080
0.15177663 -0.15726273 0.89479631 4278190080
0.15204664 -0.15954114 0.89507717 4278190080
0.15177913 -0.16269235 0.89526123 4278190080
0.15310101 -0.16321617 0.89572746 4278190080
0.15442291 -0.16373998 0.89619374 4278190080
0.15574479 -0.16426378 0.89665997 4278190080
0.15706669 -0.16478761 0.89712626 4278190080
0.15731053 -0.16705565 0.89739782 4278190080
0.15862934 -0.16757825 0.89786297 4278190080
0.15886392 -0.16984271 0.89813131 4278190080
0.16017964 -0.17036407 0.89859539 4278190080
0.16434298 -0.17418526 0.90024948 4278190080
0.16565563 -0.17470542 0.90071249 4278190080
0.16959359 -0.17626587 0.90210152 4278190080
0.17090623 -0.17678602 0.90256447 4278190080
0.17221889 -0.17730618 0.90302747 4278190080
0.17353155 -0.17782633 0.90349048 4278190080
0.17484419 -0.17834648 0.90395349 4278190080
0.17615683 -0.17886662 0.90441644 4278190080
0.17859986 -0.17766328 0.9050926 4278190080
0.17991558 -0.17818464 0.90555662 4278190080
0.18123132 -0.17870602 0.9060207 4278190080
0.18368666 -0.17750748 0.90670115 4278190080
0.18500547 -0.17803007 0.90716636 4278190080
0.18747002 -0.17683525 0.90785003 4278190080
0.1887919 -0.17735906 0.90831631 4278190080
0.19184168 -0.17531036 0.90911359 4278190080
0.19316818 -0.175836 0.90958148 4278190080
0.15579368 -0.1124676 0.8938958 4278190080
0.14866205 -0.1422036 0.89410901 4278190080
0.14897482 -0.14449832 0.89440119 4278190080
0.15032133 -0.14503188 0.89487612 4278190080
0.15010336 -0.14820172 0.8950721 4278190080
0.15097243 -0.15505847 0.89592439 4278190080
0.15124977 -0.15733922 0.89620411 4278190080
0.15257935 -0.15786608 0.89667308 4278190080
0.1528475 -0.16014309 0.89694959 4278190080
0.154174 -0.16066873 0.89741743 4278190080
0.1538991 -0.16381602 0.89759338 4278190080
0.15522099 -0.16433983 0.89805961 4278190080
0.15654288 -0.16486365 0.89852589 4278190080
0.15786475 -0.16538745 0.89899212 4278190080
0.15810674 -0.16765411 0.89925939 4278190080
0.15942554 -0.16817671 0.89972454 4278190080
0.16074435 -0.16869929 0.9001897 4278190080
0.16206317 -0.16922189 0.90065491 4278190080
0.16360545 -0.17200387 0.90138078 4278190080
0.16492119 -0.17252524 0.90184486 4278190080
0.1673384 -0.17131226 0.90251553 4278190080
0.1686572 -0.17183484 0.90298074 4278190080
0.169976 -0.17235743 0.9034459 4278190080
0.17018409 -0.17461073 0.90370119 4278190080
0.17149985 -0.17513211 0.90416527 4278190080
0.17281556 -0.17565347 0.90462935 4278190080
0.1741313 -0.17617485 0.90509343 4278190080
0.17544702 -0.17669621 0.90555751 4278190080
0.17676276 -0.17721759 0.9060216 4278190080
0.17920764 -0.17601557 0.90670204 4278190080
0.18052645 -0.17653817 0.90716726 4278190080
0.18184528 -0.17706075 0.90763241 4278190080
0.18430243 -0.17586367 0.90831715 4278190080
0.18562432 -0.17638747 0.90878344 4278190080
0.18694621 -0.17691129 0.90924966 4278190080
0.18998954 -0.17486101 0.91005027 4278190080
0.19131604 -0.17538665 0.91051811 4278190080
0.19264254 -0.17591231 0.91098601 4278190080
0.15154804 -0.13929647 0.89638805 4278190080
0.15186512 -0.14159223 0.89667815 4278190080
0.1498687 -0.15056674 0.89677596 4278190080
0.15044434 -0.15513514 0.89733541 4278190080
0.15177698 -0.15566321 0.89780545 4278190080
0.15205249 -0.15794256 0.89808089 4278190080
0.15338206 -0.15846941 0.89854985 4278190080
0.15364836 -0.16074504 0.89882201 4278190080
0.15497486 -0.16127068 0.89928985 4278190080
0.15630136 -0.16179633 0.89975774 4278190080
0.15762787 -0.16232197 0.90022564 4278190080
0.15734093 -0.16546349 0.90039176 4278190080
0.15866281 -0.1659873 0.90085799 4278190080
0.15998471 -0.16651112 0.90132427 4278190080
0.16130659 -0.16703492 0.9017905 4278190080
0.16262849 -0.16755874 0.90225679 4278190080
0.16395037 -0.16808255 0.90272301 4278190080
0.16417818 -0.17034294 0.90298158 4278190080
0.16549699 -0.17086552 0.90344673 4278190080
0.1668158 -0.17138812 0.90391195 4278190080
0.16813461 -0.1719107 0.9043771 4278190080
0.16945341 -0.1724333 0.90484226 4278190080
0.17077222 -0.17295589 0.90530741 4278190080
0.17209104 -0.17347848 0.90577257 4278190080
0.17340982 -0.17400107 0.90623778 4278190080
0.17472865 -0.17452367 0.90670294 4278190080
0.17604746 -0.17504625 0.90716809 4278190080
0.17849109 -0.17384447 0.90785182 4278190080
0.17981298 -0.17436828 0.90831804 4278190080
0.18113486 -0.17489208 0.90878433 4278190080
0.18245675 -0.1754159 0.90925056 4278190080
0.18548439 -0.17336041 0.91005111 4278190080
0.1868109 -0.17388605 0.910519 4278190080
0.1881374 -0.17441168 0.9109869 4278190080
0.1894639 -0.17493732 0.9114548 4278190080
0.15101081 -0.13937446 0.89782357 4278190080
0.15236655 -0.1399117 0.89830178 4278190080
0.15268177 -0.14220606 0.89858747 4278190080
0.15258157 -0.15626796 0.89968657 4278190080
0.1528552 -0.1585459 0.8999576 4278190080
0.1541848 -0.15907276 0.90042663 4278190080
0.15551437 -0.15959962 0.90089554 4278190080
0.15684395 -0.16012648 0.90136451 4278190080
0.15817352 -0.16065334 0.90183347 4278190080
0.15842873 -0.16292392 0.90209806 4278190080
0.15975523 -0.16344956 0.9025659 4278190080
0.16108172 -0.16397519 0.90303379 4278190080
0.16078278 -0.16711096 0.90319014 4278190080
0.16210468 -0.16763479 0.90365642 4278190080
0.16342656 -0.16815859 0.90412265 4278190080
0.16474843 -0.1686824 0.90458888 4278190080
0.16607033 -0.16920622 0.90505517 4278190080
0.16739221 -0.16973002 0.90552139 4278190080
0.16871409 -0.17025383 0.90598768 4278190080
0.17003597 -0.17077765 0.90645391 4278190080
0.17135786 -0.17130145 0.90692019 4278190080
0.17267975 -0.17182527 0.90738642 4278190080
0.17400162 -0.17234907 0.90785265 4278190080
0.1753235 -0.17287289 0.90831894 4278190080
0.17965275 -0.17133415 0.90958411 4278190080
0.18856329 -0.17052609 0.91237801 4278190080
0.18989594 -0.17105417 0.91284806 4278190080
0.15514603 -0.11094054 0.89851534 4278190080
0.15318508 -0.14052692 0.90021545 4278190080
0.15245602 -0.14457566 0.90029997 4278190080
0.15205349 -0.15634462 0.9010976 4278190080
0.15338616 -0.1568727 0.9015677 4278190080
0.1547188 -0.15740077 0.90203774 4278190080
0.15605146 -0.15792885 0.90250778 4278190080
0.15738411 -0.15845694 0.90297782 4278190080
0.15871678 -0.15898502 0.90344787 4278190080
0.16004944 -0.1595131 0.90391797 4278190080
0.16030581 -0.16178355 0.90417922 4278190080
0.16055608 -0.1640515 0.90443832 4278190080
0.16188258 -0.16457714 0.90490621 4278190080
0.16320908 -0.16510278 0.90537411 4278190080
0.16453558 -0.16562842 0.90584195 4278190080
0.1658621 -0.16615406 0.90630984 4278190080
0.1671886 -0.16667971 0.90677774 4278190080
0.1685151 -0.16720535 0.90724564 4278190080
0.1698416 -0.16773099 0.90771347 4278190080
0.17116809 -0.16825663 0.90818137 4278190080
0.17249459 -0.16878226 0.90864927 4278190080
0.17382109 -0.1693079 0.90911716 4278190080
0.17514759 -0.16983354 0.909585 4278190080
0.17647409 -0.17035918 0.9100529 4278190080
0.18290865 -0.17074016 0.91215163 4278190080
0.18423823 -0.17126702 0.9126206 4278190080
0.18556783 -0.17179388 0.91308957 4278190080
0.15400358 -0.14114213 0.90212911 4278190080
0.15327081 -0.14518808 0.90220499 4278190080
0.15200208 -0.15010571 0.90217537 4278190080
0.15525036 -0.1557292 0.90365535 4278190080
0.15552337 -0.15800551 0.9039188 4278190080
0.15685603 -0.15853359 0.9043889 4278190080
0.15925755 -0.15731709 0.90506881 4278190080
0.16059329 -0.15784639 0.90553993 4278190080
0.16085401 -0.16011783 0.90579903 4278190080
0.16218665 -0.1606459 0.90626907 4278190080
0.16243811 -0.16291374 0.90652496 4278190080
0.1637677 -0.1634406 0.90699393 4278190080
0.16509728 -0.16396746 0.90746289 4278190080
0.16642685 -0.16449432 0.90793186 4278190080
0.16666296 -0.166756 0.90818226 4278190080
0.16798946 -0.16728166 0.90865016 4278190080
0.16931596 -0.1678073 0.90911806 4278190080
0.17064245 -0.16833292 0.90958589 4278190080
0.17307475 -0.16712862 0.91027665 4278190080
0.17440432 -0.16765548 0.91074562 4278190080
0.17573391 -0.16818234 0.91121459 4278190080
0.17839307 -0.16923606 0.91215253 4278190080
0.18084385 -0.16803902 0.91284984 4278190080
0.18484183 -0.16962326 0.91425997 4278190080
0.18730797 -0.16843237 0.91496271 4278190080
0.15346634 -0.14122011 0.90356463 4278190080
0.15377907 -0.1435115 0.9038384 4278190080
0.15303952 -0.14755344 0.90390444 4278190080
0.15472107 -0.15580603 0.90506965 4278190080
0.15605678 -0.15633532 0.90554082 4278190080
0.15739252 -0.15686463 0.90601194 4278190080
0.15872826 -0.15739393 0.90648311 4278190080
0.160064 -0.15792324 0.90695423 4278190080
0.16139972 -0.15845253 0.90742534 4278190080
0.16273546 -0.15898183 0.90789652 4278190080
0.16191125 -0.16299023 0.9079327 4278190080
0.16324084 -0.16351709 0.90840167 4278190080
0.16457042 -0.16404395 0.90887064 4278190080
0.16589999 -0.16457081 0.90933961 4278190080
0.16722958 -0.16509767 0.90980858 4278190080
0.16855915 -0.16562453 0.91027755 4278190080
0.16988873 -0.16615139 0.91074651 4278190080
0.17121831 -0.16667825 0.91121548 4278190080
0.17365249 -0.16547528 0.91191059 4278190080
0.17498514 -0.16600336 0.91238064 4278190080
0.17631781 -0.16653144 0.91285074 4278190080
0.17765047 -0.16705953 0.91332078 4278190080
0.17898312 -0.16758761 0.91379082 4278190080
0.18143573 -0.16639201 0.91449243 4278190080
0.18410721 -0.16745061 0.91543472 4278190080
0.18544294 -0.16797991 0.91590583 4278190080
0.15324308 -0.14358932 0.90527058 4278190080
0.15250595 -0.1476309 0.90533012 4278190080
0.15228049 -0.15079184 0.90549028 4278190080
0.15552747 -0.15641217 0.90695512 4278190080
0.15686323 -0.15694147 0.90742624 4278190080
0.15926541 -0.15572649 0.90811378 4278190080
0.16060422 -0.156257 0.90858603 4278190080
0.16087042 -0.15852937 0.90883964 4278190080
0.16220617 -0.15905868 0.90931082 4278190080
0.16246316 -0.16132732 0.90956122 4278190080
0.16379583 -0.1618554 0.91003126 4278190080
0.16512847 -0.16238347 0.9105013 4278190080
0.16646114 -0.16291155 0.9109714 4278190080
0.16779378 -0.16343963 0.91144145 4278190080
0.16912645 -0.16396771 0.91191149 4278190080
0.17045911 -0.1644958 0.91238153 4278190080
0.17179176 -0.16502386 0.91285157 4278190080
0.17422777 -0.16382235 0.91355103 4278190080
0.1755635 -0.16435166 0.91402221 4278190080
0.17689922 -0.16488095 0.91449332 4278190080
0.17823496 -0.16541025 0.91496444 4278190080
0.1795707 -0.16593955 0.91543561 4278190080
0.18582773 -0.16408528 0.91732299 4278190080
0.18604164 -0.16633685 0.91755825 4278190080
0.15270707 -0.14366713 0.90670282 4278190080
0.15301603 -0.14595577 0.90696788 4278190080
0.1533189 -0.14824192 0.90723079 4278190080
0.15309064 -0.15140076 0.9073844 4278190080
0.15605725 -0.15474246 0.90858686 4278190080
0.15739608 -0.15527299 0.90905911 4278190080
0.15873489 -0.1558035 0.90953135 4278190080
0.1600737 -0.15633403 0.91000354 4278190080
0.16141252 -0.15686455 0.91047579 4278190080
0.16275132 -0.15739506 0.91094798 4278190080
0.16409014 -0.15792558 0.91142023 4278190080
0.16542894 -0.1584561 0.91189247 4278190080
0.16676776 -0.15898661 0.91236466 4278190080
0.16810657 -0.15951714 0.91283691 4278190080
0.16944538 -0.16004765 0.9133091 4278190080
0.17078419 -0.16057818 0.91378134 4278190080
0.17212301 -0.16110869 0.91425359 4278190080
0.17346181 -0.1616392 0.91472578 4278190080
0.17480063 -0.16216972 0.91519803 4278190080
0.17613944 -0.16270025 0.91567022 4278190080
0.17747825 -0.16323076 0.91614246 4278190080
0.17881708 -0.16376129 0.91661471 4278190080
0.18015589 -0.1642918 0.9170869 4278190080
0.18261221 -0.16309901 0.91779721 4278190080
0.18395412 -0.16363074 0.91827053 4278190080
0.15217106 -0.14374495 0.90813506 4278190080
0.15248124 -0.14603341 0.90839684 4278190080
0.15383084 -0.14656819 0.9088729 4278190080
0.15413183 -0.14885296 0.90913147 4278190080
0.15658458 -0.15307318 0.91022515 4278190080
0.15792647 -0.15360491 0.91069847 4278190080
0.15926835 -0.15413664 0.91117179 4278190080
0.16061024 -0.15466839 0.91164511 4278190080
0.16195212 -0.15520012 0.91211838 4278190080
0.16329403 -0.15573187 0.9125917 4278190080
0.16463593 -0.1562636 0.91306502 4278190080
0.16759689 -0.15418863 0.91388083 4278190080
0.16894339 -0.15472218 0.91435575 4278190080
0.1702899 -0.15525576 0.91483068 4278190080
0.17163642 -0.15578933 0.91530561 4278190080
0.17134535 -0.15892228 0.91543156 4278190080
0.17268725 -0.15945403 0.91590488 4278190080
0.17402914 -0.15998577 0.9163782 4278190080
0.17537102 -0.1605175 0.91685152 4278190080
0.17671293 -0.16104925 0.91732478 4278190080
0.17805481 -0.16158098 0.9177981 4278190080
0.17939669 -0.16211271 0.91827142 4278190080
0.18073858 -0.16264446 0.91874474 4278190080
0.18208048 -0.16317619 0.91921806 4278190080
0.18342237 -0.16370794 0.91969132 4278190080
0.1526732 -0.1420693 0.90978473 4278190080
0.15298772 -0.14435875 0.91004437 4278190080
0.15329605 -0.14664583 0.91030186 4278190080
0.15464564 -0.14718062 0.91077787 4278190080
0.15494476 -0.14946398 0.91103208 4278190080
0.15898427 -0.15106468 0.91245687 4278190080
0.16033079 -0.15159824 0.91293186 4278190080
0.1616773 -0.15213181 0.91340679 4278190080
0.1640927 -0.15092412 0.91411 4278190080
0.1654423 -0.1514589 0.91458607 4278190080
0.16679189 -0.15199371 0.91506207 4278190080
0.16814147 -0.15252848 0.91553807 4278190080
0.16949105 -0.15306327 0.91601413 4278190080
0.17084064 -0.15359806 0.91649014 4278190080
0.17219023 -0.15413284 0.9169662 4278190080
0.17244934 -0.15640035 0.91720629 4278190080
0.17379585 -0.15693392 0.91768122 4278190080
0.17514236 -0.15746748 0.91815615 4278190080
0.17648886 -0.15800105 0.91863108 4278190080
0.17783538 -0.15853462 0.91910601 4278190080
0.17918187 -0.1590682 0.91958094 4278190080
0.1816373 -0.15787636 0.92029834 4278190080
0.18298689 -0.15841113 0.92077434 4278190080
0.18433648 -0.15894593 0.9212504 4278190080
0.15266477 -0.11205812 0.9093765 4278190080
0.15127662 -0.1234111 0.90968448 4278190080
0.1511308 -0.12659962 0.90985054 4278190080
0.15349171 -0.14268452 0.9116984 4278190080
0.15380436 -0.14497258 0.91195369 4278190080
0.15515704 -0.14550859 0.91243082 4278190080
0.15546042 -0.14779304 0.91268283 4278190080
0.15681003 -0.14832783 0.91315889 4278190080
0.1581596 -0.14886262 0.9136349 4278190080
0.15950918 -0.1493974 0.91411096 4278190080
0.16085877 -0.14993219 0.91458696 4278190080
0.16327299 -0.14872462 0.91529346 4278190080
0.16462567 -0.14926063 0.91577059 4278190080
0.16597833 -0.14979663 0.91624767 4278190080
0.16733098 -0.15033264 0.9167248 4278190080
0.16868363 -0.15086864 0.91720188 4278190080
0.17003632 -0.15140465 0.91767901 4278190080
0.17138897 -0.15194066 0.91815615 4278190080
0.17165545 -0.15421048 0.91839516 4278190080
0.17300501 -0.15474527 0.91887116 4278190080
0.17544696 -0.15354867 0.91958743 4278190080
0.17679961 -0.15408468 0.92006457 4278190080
0.17815228 -0.15462069 0.92054164 4278190080
0.17950495 -0.1551567 0.92101878 4278190080
0.1808576 -0.1556927 0.92149585 4278190080
0.18221025 -0.15622871 0.92197299 4278190080
0.18356292 -0.15676472 0.92245013 4278190080
0.18491559 -0.15730073 0.9229272 4278190080
0.15250127 -0.11445696 0.91113675 4278190080
0.15174317 -0.12172895 0.91136402 4278190080
0.15211092 -0.12403818 0.91163504 4278190080
0.15196232 -0.12722462 0.91179466 4278190080
0.15566596 -0.14383696 0.91409028 4278190080
0.1570217 -0.14437418 0.91456848 4278190080
0.15732634 -0.14665841 0.91481727 4278190080
0.15867901 -0.14719442 0.91529435 4278190080
0.16003168 -0.14773043 0.91577148 4278190080
0.16138433 -0.14826643 0.91624862 4278190080
0.1638004 -0.14706032 0.91695946 4278190080
0.16515614 -0.14759754 0.91743767 4278190080
0.16651188 -0.14813477 0.91791582 4278190080
0.16786762 -0.14867198 0.91839403 4278190080
0.16922335 -0.14920922 0.91887224 4278190080
0.17057911 -0.14974645 0.91935045 4278190080
0.17193483 -0.15028366 0.91982859 4278190080
0.17329058 -0.1508209 0.9203068 4278190080
0.17464632 -0.15135813 0.92078501 4278190080
0.17600204 -0.15189534 0.92126322 4278190080
0.1762636 -0.1541625 0.92149681 4278190080
0.17761627 -0.15469851 0.92197388 4278190080
0.17896894 -0.15523452 0.92245102 4278190080
0.18032159 -0.15577051 0.92292809 4278190080
0.18167424 -0.15630652 0.92340523 4278190080
0.18302692 -0.15684253 0.92388231 4278190080
0.18437958 -0.15737854 0.92435944 4278190080
0.15233406 -0.11685307 0.91288835 4278190080
0.15220733 -0.12004711 0.91305012 4278190080
0.15257935 -0.12235744 0.91331899 4278190080
0.15294522 -0.12466527 0.91358566 4278190080
0.15279384 -0.12784961 0.91373873 4278190080
0.15669434 -0.14129099 0.9158715 4278190080
0.15805469 -0.14183006 0.91635138 4278190080
0.15941505 -0.14236911 0.9168312 4278190080
0.16077539 -0.14290817 0.91731101 4278190080
0.16213576 -0.14344722 0.91779083 4278190080
0.16349612 -0.14398628 0.91827065 4278190080
0.16485646 -0.14452533 0.91875046 4278190080
0.16621682 -0.14506438 0.91923028 4278190080
0.16757718 -0.14560345 0.9197101 4278190080
0.16893753 -0.1461425 0.92018992 4278190080
0.17029791 -0.14668156 0.92066973 4278190080
0.17165826 -0.14722061 0.92114961 4278190080
0.1730186 -0.14775966 0.92162943 4278190080
0.17437896 -0.14829873 0.92210925 4278190080
0.17410909 -0.15143611 0.92222053 4278190080
0.17546481 -0.15197334 0.92269868 4278190080
0.17682056 -0.15251057 0.92317688 4278190080
0.1781763 -0.15304779 0.92365509 4278190080
0.17953204 -0.15358502 0.9241333 4278190080
0.18088777 -0.15412223 0.92461145 4278190080
0.18224353 -0.15465946 0.92508966 4278190080
0.18526182 -0.15261117 0.92594779 4278190080
0.15279087 -0.11517063 0.91458476 4278190080
0.1516573 -0.12012696 0.91451979 4278190080
0.15203054 -0.12243711 0.91478544 4278190080
0.15239763 -0.12474476 0.91504884 4278190080
0.15377954 -0.12529236 0.91553628 4278190080
0.15856121 -0.14016044 0.91802657 4278190080
0.158876 -0.14244737 0.91827154 4278190080
0.16023634 -0.14298642 0.91875136 4278190080
0.16159672 -0.14352548 0.91923118 4278190080
0.16401495 -0.14232154 0.91995019 4278190080
0.16537838 -0.14286183 0.92043114 4278190080
0.1667418 -0.1434021 0.92091203 4278190080
0.16703813 -0.14568169 0.92115051 4278190080
0.16839847 -0.14622074 0.92163032 4278190080
0.17083211 -0.14502291 0.92235476 4278190080
0.17219555 -0.1455632 0.92283565 4278190080
0.17355898 -0.14610347 0.92331654 4278190080
0.17492241 -0.14664374 0.92379749 4278190080
0.17628585 -0.14718401 0.92427838 4278190080
0.17656061 -0.14945509 0.92450923 4278190080
