# .PCD v0.7 - Point Cloud Data file format
VERSION 0.7
FIELDS x y z
SIZE 4 4 4
TYPE F F F
COUNT 1 1 1
WIDTH 1420
HEIGHT 1
VIEWPOINT 0 0 0 1 0 0 0
POINTS 1420
DATA ascii
0.14766115 -0.14009731 0.88240856
0.14707795 -0.1432604 0.88523418
0.14701866 -0.14650302 0.88810885
0.14755876 -0.14976119 0.89097267
0.14874201 -0.15296242 0.89375973
0.15057473 -0.15602788 0.89639997
0.15302302 -0.15888228 0.89882803
0.15601866 -0.16146554 0.90099353
0.1594741 -0.16374156 0.90286797
0.16330247 -0.16570176 0.9044475
0.16744617 -0.16736847 0.90575409
0.17208129 -0.1688529 0.90687913
0.16933224 -0.16801104 0.90624601
0.21738939 -0.1573011 0.89479131
0.2158017 -0.15972126 0.89700007
0.21356571 -0.16240837 0.89947176
0.21086621 -0.16489062 0.90178102
0.20770025 -0.16708148 0.90385127
0.20409611 -0.16890398 0.90561318
0.20011568 -0.1702953 0.90700859
0.19584836 -0.17121564 0.90799856
0.19139658 -0.17165411 0.90856928
0.18685707 -0.17162764 0.90873176
0.18230285 -0.17117372 0.90851617
0.17775853 -0.17033835 0.90796238
0.17299683 -0.16911657 0.90707517
0.17578834 -0.16987035 0.90762854
0.22051741 -0.1523551 0.88782591
0.22136958 -0.14970742 0.88544577
0.22195596 -0.14652707 0.88260472
0.22201557 -0.14326677 0.87971443
0.22147252 -0.13999082 0.87683493
0.22028284 -0.13677214 0.87403268
0.2184401 -0.13368995 0.87137806
0.21597846 -0.13081999 0.86893678
0.21296649 -0.12822264 0.86675948
0.20949218 -0.1259342 0.86487472
0.20564295 -0.1239633 0.86328661
0.20147665 -0.1222875 0.86197287
0.19681625 -0.12079498 0.86084175
0.19958028 -0.12164143 0.86147833
0.151261 -0.1324098 0.87299544
0.15285736 -0.12997644 0.87077469
0.15510555 -0.12727466 0.86828947
0.15781976 -0.12477887 0.86596763
0.16100299 -0.12257607 0.86388612
0.16462679 -0.12074362 0.86211461
0.16862893 -0.11934471 0.86071157
0.17291953 -0.11841935 0.85971618
0.1773956 -0.11797849 0.85914236
0.18195987 -0.1180051 0.85897905
0.18653893 -0.1184615 0.85919571
0.19110803 -0.11930142 0.8597526
0.1958957 -0.12052987 0.86064464
0.19308896 -0.11977199 0.86008829
0.14825638 -0.13864484 0.87864131
0.14740421 -0.14129251 0.88102144
0.14681782 -0.14447288 0.8838625
0.14675821 -0.14773318 0.88675278
0.14730126 -0.15100911 0.88963228
0.14849095 -0.15422781 0.89243454
0.15033367 -0.15730999 0.89508915
0.15279531 -0.16017996 0.89753044
0.15580729 -0.1627773 0.89970773
0.1592816 -0.16506574 0.90159243
0.16313083 -0.16703664 0.90318054
0.16729714 -0.16871244 0.90449429
0.17195754 -0.17020497 0.90562546
0.16919349 -0.16935851 0.90498888
0.21751279 -0.15859015 0.89347172
0.21591642 -0.16102351 0.89569253
0.21366823 -0.16372527 0.89817768
0.21095401 -0.16622107 0.90049958
0.20777078 -0.16842388 0.9025811
0.20414698 -0.17025632 0.90435261
0.20014484 -0.17165524 0.90575564
0.19585426 -0.1725806 0.90675104
0.19137819 -0.17302145 0.90732485
0.18681392 -0.17299484 0.90748817
0.18223485 -0.17253844 0.90727144
0.17766574 -0.17169853 0.90671462
0.17287809 -0.17047007 0.90582258
0.17568481 -0.17122796 0.90637892
0.22066596 -0.15369006 0.88638991
0.22152305 -0.1510271 0.88399607
0.22211282 -0.1478284 0.88113862
0.22217277 -0.14454928 0.87823164
0.22162659 -0.14125444 0.87533557
0.22043003 -0.13801719 0.87251711
0.21857668 -0.13491721 0.86984718
0.21610084 -0.1320307 0.86739182
0.21307148 -0.12941836 0.86520195
0.20957713 -0.12711672 0.86330634
0.20570569 -0.12513445 0.86170906
0.20151535 -0.12344898 0.86038774
0.19682805 -0.12194785 0.85925007
0.19960804 -0.12279919 0.85989034
0.15100999 -0.13362968 0.87147391
0.15261556 -0.13118228 0.86924034
0.15487671 -0.12846492 0.86674082
0.1576066 -0.12595473 0.86440557
0.16080819 -0.12373921 0.86231202
0.1644529 -0.1218962 0.86053026
0.16847813 -0.12048922 0.85911918
0.17279348 -0.11955851 0.85811806
0.17729537 -0.11911511 0.85754091
0.18188597 -0.11914188 0.85737664
0.18649146 -0.1196009 0.85759461
0.19108692 -0.12044568 0.85815465
0.1959022 -0.12168121 0.85905182
0.19307928 -0.12091896 0.85849226
0.14798802 -0.13990068 0.87715232
0.14713094 -0.14256364 0.87954617
0.14654118 -0.14576235 0.88240367
0.14648122 -0.14904146 0.88531059
0.1470274 -0.1523363 0.88820672
0.14822395 -0.15557356 0.89102513
0.15007731 -0.15867354 0.89369512
0.15255316 -0.16156006 0.89615047
0.1555825 -0.1641724 0.89834028
0.15907685 -0.16647403 0.90023589
0.16294831 -0.1684563 0.90183318
0.16713864 -0.17014177 0.90315449
0.17182593 -0.1716429 0.90429217
0.16904594 -0.17079157 0.90365195
0.21764401 -0.15996107 0.89206833
0.21603844 -0.16240847 0.89430189
0.21377727 -0.16512583 0.89680147
0.2110474 -0.16763602 0.89913672
0.20784581 -0.16985154 0.90123028
0.2042011 -0.17169455 0.90301198
0.20017587 -0.17310153 0.90442312
0.19586052 -0.17403224 0.90542424
0.19135863 -0.17447564 0.90600133
0.18676803 -0.17444888 0.90616566
0.18216254 -0.17398985 0.90594769
0.17756706 -0.17314507 0.90538764
0.17275178 -0.17190954 0.90449041
0.17557471 -0.17267179 0.90504998
0.22082369 -0.15510733 0.8848654
0.22168599 -0.15242815 0.88245696
0.22227934 -0.14920998 0.87958211
0.22233966 -0.14591089 0.87665743
0.22179015 -0.14259598 0.87374371
0.22058631 -0.13933901 0.87090808
0.21872167 -0.13622016 0.86822188
0.21623075 -0.13331607 0.86575156
0.21318294 -0.13068782 0.8635484
0.20966731 -0.12837216 0.86164123
0.2057723 -0.12637782 0.86003423
0.20155643 -0.12468208 0.85870486
0.1968406 -0.12317181 0.85756028
0.19963752 -0.12402833 0.85820442
0.1507435 -0.13492478 0.86985856
0.15235884 -0.13246247 0.86761141
0.15463378 -0.12972857 0.86509663
0.15738028 -0.12720309 0.86274713
0.16060136 -0.12497409 0.86064088
0.16426827 -0.12311985 0.85884827
0.16831802 -0.1217043 0.85742855
0.17265964 -0.12076792 0.85642135
0.17718895 -0.12032183 0.85584068
0.18180752 -0.12034875 0.8556754
0.18644105 -0.12081057 0.85589468
0.19106451 -0.12166049 0.85645819
0.1959091 -0.12290355 0.85736084
0.193069 -0.12213665 0.85679781
0.14770313 -0.14123398 0.87557155
0.14684083 -0.14391316 0.87797999
0.14624748 -0.14713134 0.88085485
0.14618716 -0.15043043 0.88377953
0.14673667 -0.15374534 0.88669324
0.1479405 -0.1570023 0.88952887
0.14980514 -0.16012116 0.89221507
0.15229607 -0.16302525 0.89468539
0.15534386 -0.1656535 0.89688855
0.15885949 -0.16796915 0.89879572
0.16275452 -0.16996349 0.90040272
0.16697037 -0.17165923 0.90173209
0.17168622 -0.17316951 0.90287668
0.1688893 -0.17231297 0.90223253
0.21778332 -0.16141653 0.89057839
0.21616797 -0.16387884 0.8928256
0.21389304 -0.16661274 0.89534032
0.21114653 -0.16913822 0.89768982
0.20792544 -0.17136723 0.89979613
0.20425855 -0.17322147 0.90158868
0.2002088 -0.17463702 0.9030084
0.19586717 -0.17557339 0.9040156
0.19133785 -0.17601949 0.90459627
0.1867193 -0.17599256 0.90476155
0.18208577 -0.17553075 0.90454227
0.17746231 -0.17468083 0.90397877
0.1726177 -0.17343777 0.90307617
0.17545782 -0.17420466 0.90363914
0.22099081 -0.15660918 0.88324994
0.22185865 -0.15391281 0.88082606
0.2224558 -0.15067399 0.87793273
0.22251651 -0.14735374 0.87498927
0.22196348 -0.14401758 0.8720569
0.22075191 -0.14073971 0.86920309
0.21887532 -0.13760085 0.86649966
0.21636841 -0.13467813 0.86401349
0.21330106 -0.13203302 0.86179614
0.20976289 -0.12970251 0.85987681
0.20584287 -0.12769538 0.8582595
0.20159997 -0.12598877 0.85692161
0.19685389 -0.1244688 0.85576963
0.19966875 -0.12533082 0.85641789
0.15046111 -0.13629717 0.86814684
0.15208682 -0.13381906 0.8658852
0.15437634 -0.13106762 0.86335433
0.15714046 -0.12852594 0.86098981
0.16038221 -0.12628265 0.85886997
0.16407263 -0.12441651 0.85706592
0.16814835 -0.12299187 0.85563707
0.17251782 -0.1220495 0.85462338
0.17707619 -0.12160054 0.85403901
0.18172437 -0.12162764 0.85387266
0.18638763 -0.12209242 0.85409337
0.19104074 -0.12294779 0.85466045
0.19591641 -0.12419882 0.85556889
0.19305809 -0.12342701 0.85500234
0.14740124 -0.14264683 0.87389648
0.1465334 -0.1453432 0.87632036
0.14593625 -0.14858203 0.87921363
0.14587554 -0.15190227 0.88215709
0.14642857 -0.15523843 0.88508946
0.14764012 -0.1585163 0.88794327
0.14951673 -0.16165516 0.8906467
0.15202363 -0.16457787 0.89313287
0.15509099 -0.16722298 0.89535022
0.15862916 -0.16955349 0.89726961
0.16254917 -0.17156063 0.89888686
0.16679206 -0.17326725 0.90022475
0.17153816 -0.17478721 0.90137672
0.1687233 -0.17392518 0.90072846
0.21793093 -0.16295885 0.88899958
0.21630523 -0.16543694 0.89126116
0.21401571 -0.16818838 0.89379203
0.21125159 -0.17073007 0.89615661
0.20800984 -0.17297336 0.89827639
0.20431942 -0.1748395 0.9000805
0.20024368 -0.17626414 0.90150928
0.19587421 -0.1772065 0.90252298
0.19131586 -0.17765547 0.90310735
0.18666767 -0.17762837 0.9032737
0.18200441 -0.17716359 0.90305299
0.17735131 -0.17630821 0.90248591
0.17247562 -0.17505719 0.90157747
0.17533395 -0.17582899 0.90214407
0.22116753 -0.15819745 0.88154143
0.22204122 -0.1554829 0.87910122
0.22264241 -0.15222225 0.87618846
0.22270352 -0.14887963 0.87322515
0.22214676 -0.14552097 0.87027299
0.22092703 -0.14222102 0.86739993
0.21903779 -0.139061 0.86467832
0.21651399 -0.13611859 0.86217535
0.21342596 -0.13345565 0.85994309
0.20986393 -0.13110943 0.85801077
0.20591751 -0.12908877 0.85638261
0.20164602 -0.12737066 0.85503566
0.19686794 -0.12584046 0.85387599
0.19970177 -0.12670828 0.85452861
0.15016247 -0.13774854 0.86633658
0.15179914 -0.13525373 0.86405975
0.1541041 -0.13248375 0.86151177
0.15688685 -0.12992494 0.85913128
0.16015044 -0.12766652 0.85699719
0.16386575 -0.12578781 0.85518092
0.16796894 -0.12435357 0.85374248
0.17236786 -0.12340484 0.85272199
0.17695694 -0.12295286 0.85213369
0.18163645 -0.12298014 0.8519662
0.18633114 -0.12344805 0.85218841
0.19101562 -0.12430919 0.8527593
0.19592415 -0.12556864 0.85367388
0.19304655 -0.12479164 0.85310346
0.14708199 -0.144141 0.87212497
0.1462083 -0.14685553 0.87456518
0.14560711 -0.15011619 0.87747794
0.145546 -0.15345882 0.88044125
0.14610276 -0.15681747 0.88339341
0.14732249 -0.16011743 0.88626647
0.14921173 -0.16327743 0.88898808
0.15173553 -0.16621986 0.89149106
0.15482356 -0.16888279 0.89372331
0.15838559 -0.171229 0.89565563
0.16233201 -0.17324966 0.89728379
0.16660351 -0.17496778 0.89863074
0.17138158 -0.176498 0.89979041
0.16854775 -0.17563015 0.89913779
0.21808705 -0.16458991 0.88732982
0.21645038 -0.16708471 0.88960665
0.21414542 -0.1698547 0.89215463
0.21136267 -0.17241351 0.89453512
0.20809908 -0.17467193 0.89666921
0.20438378 -0.17655064 0.89848542
0.20028059 -0.17798488 0.89992386
0.19588166 -0.17893361 0.90094441
0.19129258 -0.17938559 0.90153271
0.18661307 -0.1793583 0.9017002
0.18191838 -0.17889039 0.90147799
0.1772339 -0.17802925 0.9009071
0.17232537 -0.17676979 0.89999253
0.17520297 -0.17754681 0.90056294
0.22135401 -0.1598736 0.87973845
0.22223386 -0.1571399 0.87728095
0.2228393 -0.1538562 0.87434757
0.22290084 -0.15048997 0.8713634
0.22234015 -0.1471076 0.86839032
0.2211118 -0.14378433 0.86549705
0.21920921 -0.14060199 0.86275613
0.21666758 -0.13763879 0.86023551
0.21355775 -0.13495705 0.85798752
0.20997055 -0.13259426 0.85604155
0.20599625 -0.13055933 0.85440183
0.20169458 -0.12882906 0.8530454
0.19688275 -0.12728804 0.85187751
0.19973661 -0.12816201 0.85253477
0.14984736 -0.13928024 0.86442614
0.15149559 -0.13676782 0.8621332
0.15381682 -0.13397828 0.85956722
0.15661924 -0.13140139 0.85716999
0.15990588 -0.12912701 0.85502082
0.16364743 -0.12723503 0.85319173
0.16777961 -0.12579067 0.8517431
0.17220961 -0.12483523 0.8507154
0.1768311 -0.12438005 0.85012293
0.18154368 -0.12440753 0.84995425
0.18627152 -0.12487875 0.850178
0.19098908 -0.12574597 0.85075295
0.1959323 -0.12701432 0.85167396
0.19303438 -0.12623182 0.85109955
0.1467451 -0.14571787 0.87025541
0.14586525 -0.14845158 0.87271285
0.14525981 -0.15173528 0.87564623
0.14519827 -0.15510151 0.87863046
0.14575897 -0.15848389 0.88160348
0.1469873 -0.16180716 0.88449681
0.1488899 -0.16498949 0.88723767
0.15143153 -0.1679527 0.88975829
0.15454136 -0.17063443 0.89200634
0.15812856 -0.17299724 0.89395225
0.16210286 -0.17503217 0.89559197
0.16640453 -0.17676242 0.8969484
0.17121635 -0.17830344 0.89811629
0.16836251 -0.17742947 0.89745909
0.21825175 -0.16631123 0.88556772
0.21660352 -0.16882366 0.8878606
0.21428229 -0.17161322 0.89042658
0.21147989 -0.1741901 0.89282387
0.20819323 -0.17646447 0.89497304
0.20445168 -0.17835645 0.89680213
0.2003195 -0.17980082 0.8982507
0.1958895 -0.18075626 0.89927846
0.19126801 -0.18121143 0.89987087
0.18655545 -0.18118395 0.90003955
0.18182759 -0.18071273 0.8998158
0.17711003 -0.17984551 0.89924085
0.17216681 -0.17857715 0.89831984
0.17506473 -0.17935966 0.89889425
0.2215502 -0.16163869 0.87783968
0.22243656 -0.15888479 0.87536412
0.22304645 -0.15557687 0.87240905
0.22310846 -0.15218578 0.86940283
0.22254363 -0.14877844 0.86640787
0.22130622 -0.14543062 0.86349314
0.21938957 -0.1422248 0.86073208
0.21682918 -0.13923973 0.85819286
0.21369639 -0.13653818 0.85592818
0.21008271 -0.13415794 0.85396791
0.20607907 -0.13210799 0.85231608
0.20174564 -0.13036497 0.85094965
0.1968983 -0.12881257 0.84977311
0.19977321 -0.12969299 0.8504352
0.14951567 -0.1408933 0.86241436
0.15117607 -0.13836233 0.8601045
0.15351444 -0.13555218 0.85751963
0.15633754 -0.13295627 0.85510463
0.15964845 -0.13066511 0.85293961
0.16341762 -0.12875916 0.85109699
0.16758031 -0.12730414 0.84963769
0.172043 -0.12634164 0.84860241
0.17669863 -0.1258831 0.84800559
0.18144597 -0.12591079 0.84783566
0.18620872 -0.12638548 0.84806108
0.19096112 -0.12725911 0.84864026
0.19594082 -0.12853684 0.84956807
0.19302151 -0.12774855 0.84898943
0.14639051 -0.14737844 0.86828667
0.14550416 -0.15013234 0.87076229
0.14489427 -0.15344027 0.87371731
0.14483227 -0.15683135 0.87672353
0.1453971 -0.1602387 0.87971848
0.1466345 -0.16358651 0.88263321
0.14855115 -0.16679233 0.88539433
0.15111154 -0.16977741 0.88793355
0.15424433 -0.17247896 0.89019817
0.157858 -0.1748592 0.89215851
0.16186164 -0.17690915 0.89381027
0.16619508 -0.17865218 0.89517671
0.17104243 -0.18020457 0.89635324
0.1681675 -0.17932415 0.89569116
0.21842505 -0.16812384 0.88371199
0.21676464 -0.1706548 0.88602185
0.21442628 -0.17346495 0.88860673
0.21160318 -0.17606087 0.89102173
0.20829226 -0.17835203 0.89318675
0.2045231 -0.18025798 0.89502937
0.20036042 -0.181713 0.89648867
0.19589771 -0.1826755 0.89752394
0.1912421 -0.18313403 0.89812076
0.18649474 -0.18310635 0.89829069
0.18173198 -0.18263166 0.89806527
0.1769796 -0.18175803 0.89748609
0.17199989 -0.18048032 0.89655828
0.1749192 -0.18126859 0.89713699
0.22175576 -0.16349314 0.87584466
0.22264893 -0.1607181 0.87335002
0.2232635 -0.15738474 0.8703723
0.22332598 -0.1539676 0.86734295
0.22275682 -0.15053406 0.86432493
0.2215099 -0.14716053 0.86138785
0.21957852 -0.14393008 0.85860556
0.21699846 -0.14092205 0.8560468
0.2138416 -0.13819976 0.85376477
0.21020016 -0.13580123 0.85178941
0.20616575 -0.13373552 0.8501249
0.20179902 -0.13197911 0.84874797
0.19691443 -0.13041478 0.84756237
0.19981143 -0.13130195 0.84822959
0.1491677 -0.14258833 0.86030078
0.15084086 -0.14003792 0.85797316
0.1531972 -0.13720618 0.85536844
0.15604199 -0.13459033 0.8529349
0.15937835 -0.13228156 0.85075319
0.16317648 -0.13036096 0.84889644
0.16737114 -0.12889475 0.84742594
0.17186813 -0.12792487 0.84638268
0.17655954 -0.1274628 0.84578127
0.18134336 -0.1274907 0.84561002
0.18614271 -0.12796904 0.84583718
0.19093162 -0.12884937 0.84642082
0.1959496 -0.13013692 0.84735578
0.19300786 -0.12934259 0.84677267
0.14601853 -0.14912333 0.86621821
0.14512537 -0.15189837 0.86871284
0.14451079 -0.15523173 0.87169057
0.14444831 -0.15864886 0.87471992
0.14501747 -0.1620824 0.87773788
0.1462644 -0.16545592 0.88067496
0.14819577 -0.16868639 0.8834573
0.15077583 -0.17169441 0.88601601
0.15393271 -0.17441671 0.88829803
0.15757415 -0.17681523 0.89027345
0.16160855 -0.17888094 0.89193797
0.16597527 -0.18063736 0.8933149
0.17085987 -0.18220168 0.89450043
0.16796286 -0.1813145 0.89383328
0.21860659 -0.17002812 0.88176209
0.21693344 -0.17257854 0.88408965
0.21457709 -0.17541029 0.88669443
0.21173231 -0.17802614 0.88912797
0.20839594 -0.18033491 0.89130962
0.20459782 -0.18225551 0.89316636
0.20040315 -0.18372171 0.89463687
0.19590616 -0.18469159 0.89568019
0.19121477 -0.18515366 0.8962816
0.18643093 -0.18512577 0.89645278
0.18163158 -0.18464743 0.89622563
0.17684267 -0.18376708 0.89564198
0.17182469 -0.18247955 0.89470708
0.17476645 -0.18327388 0.8952902
0.22196922 -0.16543652 0.87375325
0.22286947 -0.16263944 0.87123883
0.22348893 -0.15927963 0.86823744
0.2235519 -0.15583535 0.86518407
0.22297822 -0.15237455 0.86214209
0.2217214 -0.14897424 0.8591817
0.21977469 -0.14571813 0.85637724
0.21717414 -0.14268623 0.85379821
0.21399221 -0.13994232 0.85149807
0.21032186 -0.13752475 0.84950697
0.20625541 -0.13544264 0.84782928
0.20185402 -0.13367227 0.84644139
0.19693065 -0.13209553 0.84524643
0.19985065 -0.13298975 0.84591889
0.14880483 -0.14436574 0.85808593
0.15049125 -0.14179507 0.85573989
0.1528663 -0.13894086 0.85311443
0.15573369 -0.13630423 0.85066158
0.15909654 -0.13397713 0.84846258
0.16292481 -0.13204128 0.84659111
0.16715279 -0.13056344 0.84510893
0.17168549 -0.12958585 0.84405738
0.17641413 -0.12912013 0.84345114
0.18123595 -0.12914823 0.84327859
0.18607341 -0.12963037 0.84350753
0.19090034 -0.13051769 0.84409583
0.19595815 -0.13181546 0.84503818
0.19299304 -0.13101481 0.84445041
0.14563064 -0.15095261 0.86405039
0.14473039 -0.1537497 0.86656481
0.14411093 -0.15710951 0.8695662
0.14404795 -0.16055378 0.87261957
0.14462164 -0.16401458 0.87566155
0.14587846 -0.16741489 0.87862194
0.14782517 -0.170671 0.88142633
0.15042572 -0.17370291 0.88400537
0.15360765 -0.17644683 0.88630551
0.157278 -0.17886439 0.8882966
0.16134444 -0.1809465 0.88997436
0.16574584 -0.18271686 0.89136219
0.17066921 -0.18429361 0.8925572
0.16774921 -0.18339938 0.89188468
0.21879503 -0.1720234 0.87971765
0.21710859 -0.17459406 0.88206375
0.21473356 -0.17744829 0.88468915
0.21186617 -0.18008491 0.88714206
0.20850332 -0.18241201 0.88934106
0.20467503 -0.18434785 0.89121252
0.20044707 -0.18582571 0.89269471
0.19591437 -0.18680328 0.89374626
0.19118573 -0.18726902 0.89435244
0.18636391 -0.1872409 0.89452499
0.18152645 -0.18675876 0.89429605
0.17669952 -0.18587144 0.89370781
0.17164171 -0.18457368 0.8927654
0.17460681 -0.18537432 0.89335316
0.22218546 -0.16746627 0.87156665
0.22309297 -0.16464666 0.86903197
0.22371742 -0.16125979 0.86600643
0.22378092 -0.15778777 0.86292845
0.2232026 -0.1542991 0.85986197
0.22193566 -0.1508714 0.85687774
0.21997327 -0.14758907 0.8540507
0.21735178 -0.14453274 0.85145092
0.21414421 -0.14176673 0.84913224
0.2104443 -0.1393297 0.84712511
0.20634511 -0.13723081 0.84543389
0.20190828 -0.13544619 0.84403485
0.19694524 -0.13385674 0.84283024
0.19988877 -0.13475817 0.84350812
0.14843182 -0.14622578 0.85577315
0.15013185 -0.14363441 0.85340822
0.15252602 -0.1407572 0.85076159
0.15541649 -0.13809934 0.84828901
0.15880643 -0.1357535 0.84607232
0.16266553 -0.13380206 0.84418571
0.16692756 -0.13231231 0.8426916
0.17149676 -0.13132685 0.84163159
0.1762635 -0.13085738 0.84102052
0.18112415 -0.13088572 0.84084654
0.18600057 -0.13137174 0.84107733
0.19086637 -0.13226621 0.84167033
0.19596492 -0.13357443 0.84262031
0.19297594 -0.13276733 0.84202784
0.14523208 -0.15286571 0.86178565
0.14432459 -0.15568532 0.86432028
0.14370012 -0.15907219 0.86734587
0.14363664 -0.16254421 0.87042385
0.14421496 -0.16603288 0.87349027
0.1454819 -0.16946058 0.87647456
0.14744428 -0.1727429 0.87930155
0.15006578 -0.17579924 0.88190138
0.15327333 -0.17856525 0.88422006
0.15697324 -0.18100227 0.88622713
0.16107243 -0.18310116 0.88791835
0.16550928 -0.18488578 0.88931745
0.17047231 -0.18647522 0.89052206
0.16752878 -0.1855738 0.88984412
0.21898572 -0.17410618 0.87757909
0.21728571 -0.17669757 0.87994409
0.21489154 -0.17957477 0.88259065
0.21200106 -0.18223263 0.88506329
0.20861113 -0.18457848 0.88727999
0.20475201 -0.1865299 0.88916653
0.20048998 -0.18801966 0.89066064
0.19592078 -0.18900512 0.89172065
0.19115406 -0.1894746 0.89233172
0.18629341 -0.18944626 0.89250571
0.18141699 -0.18896022 0.89227492
0.17655118 -0.18806577 0.89168191
0.17145263 -0.18675755 0.89073193
0.17444162 -0.18756464 0.89132446
0.22238779 -0.16957353 0.86928904
0.2233023 -0.16673215 0.8667348
0.22393158 -0.16331911 0.86368585
0.22399555 -0.15982029 0.86058408
0.22341277 -0.15630467 0.85749394
0.22213605 -0.15285051 0.8544867
0.2201585 -0.14954282 0.85163784
0.21751676 -0.1464629 0.84901792
0.21428443 -0.14367552 0.84668136
0.21055596 -0.14121966 0.84465873
0.2064251 -0.13910457 0.84295446
0.20195399 -0.13730617 0.84154463
0.19695264 -0.13570446 0.84033072
0.1999189 -0.13661285 0.84101385
0.14806455 -0.14816901 0.85337359
0.14977771 -0.14555763 0.85099036
0.15219037 -0.1426582 0.84832335
0.15510316 -0.13997981 0.84583163
0.15851928 -0.13761586 0.84359777
0.1624082 -0.13564935 0.84169668
0.16670313 -0.13414809 0.84019101
0.17130764 -0.13315502 0.83912277
0.17611116 -0.13268192 0.838507
0.18100937 -0.13271047 0.8383317
0.18592344 -0.13320026 0.83856428
0.19082682 -0.13410163 0.83916187
0.19596474 -0.13541995 0.84011912
0.19295268 -0.13460663 0.83952212
0.14484011 -0.15486021 0.85943246
0.14392559 -0.1577016 0.86198676
0.14329632 -0.16111463 0.86503565
0.14323235 -0.16461346 0.86813742
0.14381513 -0.16812907 0.87122756
0.14509185 -0.17158324 0.87423486
0.14706939 -0.17489092 0.87708366
0.14971113 -0.17797086 0.87970358
0.15294346 -0.18075822 0.88204014
0.15667194 -0.18321408 0.88406277
0.1608028 -0.18532917 0.88576704
0.1652739 -0.18712758 0.88717687
0.17027526 -0.18872929 0.88839078
0.167309 -0.18782091 0.88770765
0.21916334 -0.17626473 0.87534791
0.21745019 -0.17887612 0.87773114
0.21503752 -0.18177556 0.88039815
0.21212474 -0.18445393 0.88288987
0.20870861 -0.1868179 0.88512373
0.20481969 -0.18878441 0.88702482
0.20052476 -0.19028565 0.88853049
0.19592027 -0.19127873 0.88959873
0.19111674 -0.19175184 0.8902145
0.18621853 -0.19172327 0.8903898
0.18130447 -0.19123349 0.89015722
0.17640108 -0.19033211 0.88955963
0.17126316 -0.18901379 0.88860238
0.17427522 -0.18982713 0.88919938
0.2225192 -0.17275797 0.86578816
0.22344023 -0.16989633 0.86321574
0.22407399 -0.16645898 0.86014509
0.22413842 -0.16293524 0.85702127
0.22355148 -0.15939458 0.85390908
0.22226566 -0.1559158 0.85088038
0.22027405 -0.15258455 0.84801126
0.21761349 -0.14948268 0.84537268
0.21435812 -0.14667545 0.84301949
0.21060307 -0.1442021 0.84098244
0.20644279 -0.14207195 0.839266
0.20193984 -0.14026073 0.8378461
0.19690284 -0.1386476 0.83662355
0.19989024 -0.13956246 0.83731157
0.1476665 -0.15120097 0.84975934
0.14939184 -0.14857097 0.84735918
0.1518217 -0.14565088 0.8446731
0.15475523 -0.14295341 0.84216368
0.15819569 -0.14057261 0.8399139
0.16211231 -0.13859209 0.83799922
0.16643785 -0.13708015 0.83648288
0.17107515 -0.13608001 0.83540708
0.1759129 -0.13560353 0.83478689
0.18084599 -0.13563229 0.83461034
0.18579507 -0.13612556 0.83484453
0.19073339 -0.13703336 0.83544642
0.19590792 -0.13836107 0.83641052
0.19287439 -0.13754195 0.83580917
0.14441907 -0.15793982 0.85586143
0.14349803 -0.16080146 0.85843384
0.14286427 -0.1642388 0.8615045
0.14279985 -0.16776255 0.86462837
0.14338678 -0.17130321 0.86774051
0.1446726 -0.17478199 0.8707692
0.14666423 -0.17811324 0.87363833
0.14932479 -0.18121509 0.87627691
0.15258014 -0.18402234 0.87863016
0.15633519 -0.18649569 0.88066715
0.16049547 -0.18862584 0.88238358
0.16499843 -0.19043706 0.88380349
0.17003542 -0.19205019 0.88502604
0.16704802 -0.19113533 0.88433802
0.21927178 -0.17949682 0.87189025
0.21754642 -0.18212682 0.87429047
0.21511658 -0.18504691 0.87697649
0.21218303 -0.18774438 0.87948596
0.20874257 -0.19012517 0.88173568
0.20482595 -0.1921057 0.88365036
0.20050041 -0.19361764 0.88516676
0.19586313 -0.19461778 0.88624257
0.19102536 -0.19509426 0.88686275
0.18609227 -0.1950655 0.8870393
0.18114319 -0.19457223 0.88680506
0.17620488 -0.19366443 0.88620323
0.17103036 -0.19233672 0.88523912
0.17406388 -0.19315584 0.88584042
0.22230722 -0.17426683 0.86403662
0.22322492 -0.17141554 0.86147344
0.2238564 -0.1679906 0.85841388
0.2239206 -0.16447955 0.85530132
0.22333579 -0.16095169 0.85220039
0.2220546 -0.15748547 0.84918261
0.22007017 -0.15416625 0.84632385
0.21741921 -0.15107559 0.84369481
0.21417561 -0.14827847 0.84135008
0.21043411 -0.14581406 0.83932042
0.20628886 -0.14369158 0.83761019
0.20180215 -0.1418869 0.83619541
0.19678335 -0.14027961 0.83497727
0.19975996 -0.14119115 0.83566278
0.14772475 -0.15278764 0.84806567
0.14944386 -0.15016715 0.8456741
0.15186495 -0.14725761 0.84299779
0.1547879 -0.14456987 0.84049737
0.15821593 -0.14219767 0.83825576
0.16211841 -0.14022431 0.836348
0.16642833 -0.13871782 0.83483708
0.17104888 -0.13772129 0.83376515
0.17586918 -0.13724652 0.83314723
0.18078446 -0.13727517 0.83297127
0.18571568 -0.13776667 0.83320469
0.19063616 -0.13867119 0.83380437
0.195792 -0.13999411 0.83476502
0.19276944 -0.13917795 0.83416587
0.14448904 -0.15950219 0.85414565
0.14357133 -0.16235349 0.85670882
0.14293987 -0.16577843 0.85976839
0.14287567 -0.16928945 0.86288095
0.14346048 -0.17281732 0.86598188
0.14474165 -0.17628355 0.86899966
0.1467261 -0.17960277 0.87185842
0.14937705 -0.18269344 0.87448746
0.15262066 -0.18549053 0.87683219
0.15636215 -0.18795496 0.87886184
0.16050741 -0.19007742 0.88057208
0.16499411 -0.1918821 0.88198686
0.17001292 -0.1934894 0.883205
0.16703631 -0.19257785 0.88251948
0.21907152 -0.18098137 0.87011665
0.21735241 -0.18360186 0.87250817
0.21493132 -0.18651141 0.87518454
0.21200836 -0.18919913 0.87768489
0.20858033 -0.19157134 0.8799265
0.20467785 -0.19354472 0.88183427
0.20036793 -0.19505119 0.88334519
0.19574738 -0.19604774 0.88441712
0.19092709 -0.19652249 0.8850351
0.18601181 -0.19649383 0.88521099
0.18108059 -0.19600235 0.88497764
0.1761601 -0.19509782 0.88437796
0.17100425 -0.19377491 0.88341731
0.17402683 -0.19459108 0.88401645
0.22202513 -0.17492932 0.86320359
0.22293696 -0.17209628 0.86065686
0.22356439 -0.16869329 0.8576169
0.22362816 -0.16520475 0.85452425
0.22304711 -0.16169947 0.85144323
0.22177413 -0.15825547 0.84844476
0.21980241 -0.15495752 0.8456043
0.21716844 -0.15188664 0.84299213
0.21394561 -0.14910747 0.84066242
0.21022809 -0.14665882 0.83864576
0.20610939 -0.14454997 0.83694649
0.20165142 -0.14275685 0.83554077
0.19666478 -0.14115983 0.83433044
0.19962232 -0.14206555 0.83501154
0.14792046 -0.15358774 0.84733498
0.14962858 -0.15098403 0.84495872
0.15203415 -0.14809313 0.84229958
0.15493837 -0.14542262 0.83981514
0.15834443 -0.14306562 0.83758789
0.16222192 -0.14110489 0.83569235
0.16650423 -0.13960806 0.83419114
0.17109518 -0.1386179 0.83312607
0.17588459 -0.13814619 0.83251208
0.18076839 -0.13817467 0.83233732
0.18566801 -0.13866301 0.83256918
0.19055697 -0.13956173 0.83316505
0.19567978 -0.14087617 0.8341195
0.19267657 -0.14006524 0.83352423
0.14470549 -0.16025926 0.85337603
0.14379367 -0.1630923 0.85592276
0.14316624 -0.16649529 0.85896271
0.14310245 -0.16998383 0.86205536
0.14368352 -0.17348911 0.86513638
0.1449565 -0.17693311 0.86813486
0.14692822 -0.18023106 0.87097532
0.14956218 -0.18330194 0.87358749
0.15278502 -0.18608111 0.8759172
0.15650253 -0.18852976 0.87793386
0.16062124 -0.19063862 0.87963319
0.16507921 -0.19243173 0.88103884
0.17006585 -0.19402875 0.88224924
0.16710831 -0.19312303 0.88156807
0.21881016 -0.18160084 0.86924469
0.21710205 -0.18420455 0.87162089
0.21469648 -0.18709545 0.8742801
0.21179226 -0.18976596 0.87676448
0.20838618 -0.19212297 0.87899172
0.20450871 -0.19408369 0.88088727
0.2002264 -0.19558053 0.88238847
0.19563544 -0.19657068 0.88345355
0.19084603 -0.19704239 0.88406754
0.18596224 -0.19701391 0.88424236
0.18106262 -0.19652557 0.88401043
0.17617366 -0.19562685 0.88341463
0.17105083 -0.19431241 0.88246012
0.17405406 -0.19512334 0.88305545
0.22172268 -0.17531818 0.86266834
0.22262785 -0.17250583 0.86014014
0.2232507 -0.16912764 0.85712242
0.22331402 -0.16566455 0.85405231
0.22273719 -0.16218485 0.85099375
0.2214735 -0.15876596 0.84801716
0.21951616 -0.15549207 0.84519744
0.21690141 -0.1524436 0.84260428
0.2137021 -0.1496847 0.84029156
0.21001169 -0.14725392 0.83828962
0.20592302 -0.14516044 0.83660275
0.20149758 -0.14338039 0.83520728
0.19654731 -0.14179504 0.83400577
0.19948328 -0.14269415 0.83468193
0.14815857 -0.15413229 0.84691542
0.14985421 -0.15154757 0.84455657
0.15224224 -0.14867775 0.8419168
0.15512528 -0.14602673 0.83945048
0.1585065 -0.14368691 0.8372395
0.16235571 -0.14174049 0.83535779
0.16660677 -0.14025457 0.83386749
0.17116423 -0.13927165 0.83281022
0.17591871 -0.13880336 0.83220071
0.18076687 -0.13883163 0.8320272
0.18563075 -0.13931641 0.83225739
0.19048406 -0.14020859 0.83284891
0.1955695 -0.14151344 0.83379638
0.1925882 -0.14070842 0.83320546
0.14496705 -0.16075514 0.85291243
0.14406186 -0.16356751 0.85544062
0.14343902 -0.16694568 0.8584584
0.14337569 -0.17040877 0.86152846
0.14395253 -0.17388847 0.86458707
0.14521621 -0.17730737 0.86756361
0.14717355 -0.18058127 0.87038338
0.14978831 -0.18362974 0.87297648
0.15298763 -0.18638864 0.8752892
0.15667804 -0.18881941 0.87729114
0.16076669 -0.1909129 0.87897807
0.16519214 -0.19269294 0.88037348
0.17014241 -0.19427828 0.88157499
0.16720645 -0.19337918 0.88089883
0.21853116 -0.18194105 0.86866534
0.2168355 -0.18452576 0.87102425
0.21444748 -0.18739557 0.87366402
0.21156444 -0.19004661 0.87613028
0.20818321 -0.19238642 0.87834126
0.20433402 -0.19433284 0.88022298
0.20008294 -0.19581877 0.88171327
0.19552548 -0.19680169 0.8827706
0.19077101 -0.19726996 0.88338006
0.18592285 -0.19724169 0.88355362
0.18105896 -0.19675691 0.88332337
0.17620566 -0.19586474 0.88273191
0.17112021 -0.19455989 0.88178438
0.17410152 -0.19536491 0.88237536
0.22141005 -0.17556977 0.86228245
0.22230819 -0.17277926 0.85977393
0.2229262 -0.16942735 0.85677963
0.22298902 -0.16599119 0.85373342
0.22241668 -0.16253854 0.85069865
0.22116281 -0.15914623 0.84774524
0.2192207 -0.15589778 0.8449474
0.21662627 -0.15287302 0.84237444
0.21345182 -0.15013556 0.84007967
0.20979011 -0.14772369 0.83809328
0.20573324 -0.14564648 0.83641952
0.2013422 -0.14388028 0.83503491
0.19643041 -0.14230725 0.83384275
0.19934355 -0.14319937 0.83451366
0.14841788 -0.15454859 0.84665209
0.15010034 -0.15198396 0.84431154
0.1524698 -0.14913645 0.84169227
0.15533042 -0.14650604 0.83924514
0.15868536 -0.14418441 0.83705133
0.16250463 -0.14225313 0.83518428
0.16672266 -0.14077875 0.83370554
0.17124468 -0.13980347 0.8326565
0.17596219 -0.13933884 0.83205175
0.18077266 -0.13936688 0.83187956
0.18559873 -0.1398479 0.83210796
0.19041431 -0.14073312 0.83269483
0.19546022 -0.14202784 0.83363497
0.19250208 -0.14122908 0.83304864
0.14525117 -0.16111995 0.85260242
0.14435303 -0.16391045 0.85511094
0.14373502 -0.16726236 0.85810524
0.1436722 -0.17069852 0.86115146
0.14424454 -0.17415117 0.86418629
0.14549839 -0.17754348 0.8671397
0.14744052 -0.18079193 0.86993754
0.15003495 -0.18381669 0.87251049
0.15320939 -0.18655415 0.87480521
0.15687111 -0.18896602 0.8767916
0.16092798 -0.19104323 0.87846535
0.16531901 -0.19280943 0.87984997
0.17023081 -0.19438246 0.88104218
0.16731767 -0.19349034 0.88037127
0.21824335 -0.18214113 0.86823285
0.21656087 -0.18470575 0.8705734
0.21419142 -0.18755326 0.87319267
0.21133079 -0.19018368 0.87563974
0.20797586 -0.1925053 0.87783355
0.20415659 -0.19443658 0.87970066
0.19993857 -0.19591096 0.88117933
0.19541654 -0.19688624 0.88222843
0.19069903 -0.19735087 0.88283318
0.18588856 -0.19732283 0.88300538
0.18106249 -0.19684182 0.88277698
0.17624691 -0.19595659 0.88219005
0.17120101 -0.19466187 0.8812499
0.17415912 -0.19546063 0.8818363
0.22109127 -0.17573863 0.86198664
0.22198214 -0.17297073 0.85949844
0.22259514 -0.16964595 0.85652834
0.22265746 -0.16623759 0.8535068
0.22208975 -0.1628129 0.85049659
0.22084604 -0.15944806 0.84756702
0.21891963 -0.1562259 0.84479189
0.21634622 -0.15322563 0.84223974
0.21319747 -0.15051033 0.83996356
0.2095654 -0.14811797 0.83799326
0.20554137 -0.14605759 0.83633304
0.20118588 -0.14430569 0.83495963
0.19631386 -0.14274539 0.83377713
0.1992034 -0.14363028 0.83444262
0.14868999 -0.15488762 0.84648275
0.15035884 -0.15234376 0.84416115
0.15270911 -0.14951931 0.84156305
0.15554659 -0.14691019 0.83913577
0.15887436 -0.14460735 0.83695972
0.16266271 -0.1426917 0.83510774
0.16684659 -0.14122927 0.83364105
0.17133202 -0.14026189 0.83260047
0.17601134 -0.13980101 0.83200061
0.18078285 -0.13982883 0.83182985
0.18556987 -0.14030595 0.8320564
0.19034645 -0.14118402 0.8326385
0.19535151 -0.14246824 0.83357108
0.19241732 -0.14167595 0.83298945
0.14554892 -0.16140579 0.85238492
0.14465806 -0.16417371 0.85487312
0.14404505 -0.16749847 0.85784322
0.14398274 -0.17090683 0.86086476
0.14455044 -0.17433153 0.86387497
0.14579415 -0.17769638 0.86680454
0.14772056 -0.18091851 0.86957967
0.15029398 -0.1839188 0.87213182
0.15344273 -0.18663409 0.87440801
0.15707479 -0.18902645 0.8763783
0.16109882 -0.19108684 0.87803853
0.16545431 -0.19283874 0.87941194
0.17032634 -0.19439903 0.88059443
0.16743678 -0.19351414 0.87992895
0.2179502 -0.1822568 0.86788881
0.21628135 -0.18480065 0.87021041
0.21393108 -0.18762511 0.87280852
0.2110936 -0.19023424 0.8752358
0.20776583 -0.19253707 0.87741184
0.20397748 -0.19445272 0.87926382
0.19979361 -0.19591515 0.88073051
0.19530818 -0.19688255 0.88177109
0.19062886 -0.19734341 0.88237095
0.18585733 -0.19731559 0.88254172
0.18107033 -0.19683848 0.88231516
0.17629375 -0.19596042 0.88173306
0.17128868 -0.19467619 0.88080049
0.17422286 -0.19546847 0.88138211
0.22076838 -0.17585248 0.8617506
0.22165181 -0.17310764 0.85928315
0.2222597 -0.16981058 0.85633785
0.2223215 -0.16643064 0.85334152
0.22175853 -0.1630345 0.85035634
0.22052519 -0.1596977 0.84745127
0.21861485 -0.15650241 0.8446992
0.21606287 -0.15352714 0.84216833
0.21294038 -0.15083449 0.83991116
0.20933858 -0.14846207 0.83795726
0.2053481 -0.14641885 0.83631092
0.20102891 -0.14468156 0.83494896
0.19619751 -0.14313427 0.8337763
0.19906297 -0.14401178 0.83443624
0.14897065 -0.15517528 0.846376
0.15062559 -0.15265264 0.84407377
0.15295628 -0.14985172 0.84149736
0.15577009 -0.14726435 0.83909029
0.15907012 -0.14498071 0.83693236
0.1628269 -0.14308104 0.83509582
0.1669759 -0.14163078 0.83364135
0.17142393 -0.14067146 0.83260947
0.17606424 -0.14021443 0.83201456
0.18079598 -0.14024203 0.83184522
0.18554308 -0.14071517 0.83206987
0.19027984 -0.1415859 0.8326472
0.19524318 -0.14285943 0.83357197
0.19233346 -0.14207374 0.83299518
0.14585577 -0.16163911 0.852229
0.14497234 -0.16438395 0.85469645
0.14436443 -0.16768101 0.85764176
0.14430264 -0.17106095 0.86063814
0.14486562 -0.17445709 0.86362326
0.14609896 -0.17779389 0.86652839
0.1480093 -0.18098918 0.8692804
0.15056127 -0.18396445 0.87181127
0.15368377 -0.1866571 0.87406844
0.15728556 -0.18902951 0.87602234
0.16127604 -0.19107273 0.87766874
0.16559522 -0.19281003 0.87903064
0.17042664 -0.19435732 0.88020331
0.16756117 -0.19347979 0.87954342
0.21765348 -0.1823163 0.86760366
0.21599855 -0.18483895 0.86990589
0.21366787 -0.18763986 0.8724823
0.21085405 -0.19022724 0.87488931
0.20755401 -0.19251087 0.87704724
0.20379725 -0.19441055 0.87888378
0.19964825 -0.19586079 0.88033825
0.19520022 -0.19682012 0.88137019
0.19055991 -0.19727714 0.88196504
0.18582815 -0.19724956 0.88213438
0.18108106 -0.19677642 0.88190973
0.17634429 -0.19590567 0.88133246
0.17138095 -0.19463216 0.88040769
0.17429067 -0.19541784 0.88098443
0.22044253 -0.17592739 0.86155701
0.22131844 -0.17320597 0.85911059
0.22192115 -0.16993704 0.85619038
0.22198242 -0.16658594 0.85321957
0.22142425 -0.16321877 0.8502599
0.22020143 -0.15991044 0.84737962
0.21830738 -0.15674241 0.84465104
0.21577719 -0.15379253 0.84214175
0.21268134 -0.15112284 0.83990383
0.20911026 -0.14877068 0.83796662
0.20515382 -0.14674489 0.83633429
0.2008715 -0.14502241 0.834984
0.19608131 -0.14348832 0.8338213
0.19892232 -0.14435835 0.83447564
0.14925738 -0.15542661 0.84631354
0.15089819 -0.15292548 0.84403092
0.15320899 -0.15014847 0.8414765
0.1559988 -0.14758317 0.83908999
0.15927067 -0.14531901 0.83695048
0.1629954 -0.14343554 0.83512962
0.167109 -0.14199768 0.83368754
0.17151907 -0.14104654 0.83266443
0.1761198 -0.14059339 0.83207464
0.18081118 -0.14062075 0.83190674
0.18551777 -0.14108986 0.83212948
0.19021413 -0.14195317 0.83270186
0.19513513 -0.14321584 0.8336187
0.19225024 -0.14243685 0.83304685
0.14616907 -0.1618353 0.85211658
0.14529316 -0.16455671 0.854563
0.14469045 -0.16782564 0.85748321
0.14462918 -0.17117673 0.86045396
0.14518736 -0.17454392 0.86341363
0.14641018 -0.17785224 0.86629397
0.14830422 -0.18102027 0.86902249
0.15083443 -0.18397015 0.87153178
0.15393028 -0.18663985 0.8737697
0.15750134 -0.18899201 0.87570691
0.16145778 -0.19101779 0.87733924
0.1657401 -0.19274026 0.87868959
0.1705303 -0.19427435 0.87985224
0.16768928 -0.19340432 0.87919796
0.21735424 -0.18233608 0.86736006
0.21571341 -0.18483721 0.86964267
0.21340261 -0.18761422 0.87219709
0.2106128 -0.19017951 0.8745836
0.20734093 -0.19244367 0.87672311
0.2036162 -0.19432713 0.87854397
0.1995026 -0.195765 0.87998605
0.19509253 -0.19671614 0.88100916
0.1904918 -0.19716927 0.88159895
0.18580042 -0.19714193 0.88176686
0.18109383 -0.19667283 0.88154411
0.17639747 -0.1958095 0.88097173
0.17147648 -0.19454685 0.88005483
0.17436138 -0.19532584 0.88062668
0.22011453 -0.17597359 0.86139458
0.2209828 -0.17327584 0.85896945
0.22158027 -0.17003535 0.85607463
0.221641 -0.1667134 0.85312968
0.22108769 -0.16337551 0.85019577
0.21987551 -0.16009596 0.84734052
0.21799794 -0.1569555 0.84463573
0.21548976 -0.15403128 0.84214824
0.21242082 -0.15138482 0.83992982
0.20888083 -0.14905311 0.83800942
0.20495881 -0.14704494 0.83639127
0.20071372 -0.14533745 0.83505273
0.1959652 -0.14381671 0.83390015
0.19878151 -0.14467917 0.83454877
0.14954859 -0.15565114 0.84628367
0.15117513 -0.15317176 0.84402096
0.15346582 -0.15041892 0.84148878
0.15623137 -0.14787593 0.83912301
0.15947479 -0.14563148 0.8370021
0.1631671 -0.14376438 0.83519709
0.16724493 -0.14233902 0.83376753
0.17161664 -0.14139616 0.83275336
0.17617734 -0.14094697 0.8321687
0.18082792 -0.14097409 0.83200222
0.18549357 -0.1414391 0.83222306
0.19014907 -0.14229491 0.83279043
0.19502725 -0.14354658 0.83369935
0.19216746 -0.14277437 0.83313245
0.14648715 -0.16200408 0.8520363
0.14561886 -0.16470182 0.85446143
0.14502139 -0.16794232 0.85735619
0.14496066 -0.17126426 0.86030114
0.14551398 -0.17460215 0.86323506
0.14672616 -0.1778817 0.86609036
0.14860372 -0.18102217 0.86879516
0.15111192 -0.18394639 0.87128258
0.15418084 -0.18659285 0.87350106
0.15772083 -0.18892457 0.8754214
0.16164286 -0.19093272 0.87703955
0.16588794 -0.19264022 0.87837815
0.17063646 -0.19416095 0.87953067
0.16782016 -0.19329849 0.87888211
0.21705309 -0.18232653 0.86714715
0.21542653 -0.1848059 0.86940992
0.21313584 -0.18755876 0.8719421
0.2103703 -0.19010173 0.87430787
0.20712689 -0.19234619 0.87642872
0.20343456 -0.19421329 0.87823379
0.19935675 -0.19563864 0.87966329
0.19498503 -0.19658151 0.88067752
0.19042432 -0.19703069 0.88126218
0.18577375 -0.19700359 0.8814286
0.1811081 -0.19653857 0.88120782
0.17645259 -0.19568275 0.88064045
0.17157441 -0.19443108 0.87973154
0.17443421 -0.19520329 0.88029838
0.21978484 -0.17599799 0.86125588
0.22064544 -0.17332411 0.85885221
0.22123761 -0.17011228 0.85598302
0.22129782 -0.16681972 0.85306412
0.22074939 -0.16351137 0.85015613
0.21954794 -0.16026084 0.84732616
0.21768698 -0.15714815 0.84464526
0.21520098 -0.1542498 0.84217983
0.2121592 -0.15162675 0.83998102
0.20865053 -0.14931567 0.8380776
0.2047632 -0.14732528 0.83647382
0.20055568 -0.14563289 0.83514708
0.19584918 -0.1441256 0.8340047
0.19864057 -0.14498043 0.8346476
0.14984322 -0.15585533 0.84627867
0.15145537 -0.1533979 0.84403598
0.1537258 -0.1506694 0.84152615
0.15646687 -0.14814891 0.83918136
0.1596816 -0.14592431 0.83707923
0.16334125 -0.14407374 0.83529013
0.16738299 -0.14266099 0.83387327
0.17171603 -0.14172646 0.83286804
0.17623638 -0.14128125 0.83228856
0.18084581 -0.14130813 0.83212358
0.18547018 -0.14176904 0.83234245
0.1900845 -0.14261727 0.83290482
0.19491953 -0.14385787 0.83380562
0.19208503 -0.1430925 0.83324379
0.14680886 -0.16215207 0.85198039
0.14594826 -0.16482595 0.85438406
0.14535609 -0.16803776 0.85725325
0.14529587 -0.17133032 0.86017215
0.14584431 -0.17463867 0.86308008
0.14704576 -0.17788921 0.86591011
0.14890672 -0.18100189 0.86859095
0.15139271 -0.18390025 0.87105644
0.15443449 -0.18652329 0.87325525
0.15794317 -0.18883437 0.87515861
0.16183048 -0.19082476 0.87676245
0.16603801 -0.19251715 0.87808919
0.17074452 -0.19402444 0.87923151
0.16795313 -0.19316961 0.87858868
0.21675047 -0.18229471 0.86695755
0.21513833 -0.18475215 0.86920029
0.21286789 -0.18748064 0.87171006
0.21012682 -0.19000113 0.87405491
0.2069121 -0.19222572 0.87615705
0.20325245 -0.1940763 0.87794608
0.1992107 -0.19548905 0.879363
0.19487767 -0.19642358 0.88036823
0.19035731 -0.19686879 0.88094771
0.18574789 -0.19684193 0.88111269
0.18112351 -0.19638102 0.88089383
0.1765092 -0.19553277 0.88033146
0.17167418 -0.19429217 0.87943059
0.17450868 -0.19505756 0.87999243
0.21945383 -0.17600545 0.86113554
0.22030669 -0.17335559 0.8587535
0.22089356 -0.17017262 0.85591006
0.22095321 -0.16690964 0.85301739
0.22040972 -0.16363101 0.85013556
0.21921906 -0.16040967 0.84733099
0.21737482 -0.15732495 0.84467417
0.21491116 -0.15445264 0.84223086
0.2118967 -0.15185314 0.84005183
0.20841955 -0.14956284 0.83816552
0.20456715 -0.14759032 0.8365761
0.20039742 -0.14591314 0.83526129
0.19573319 -0.14441939 0.83412921
0.1984995 -0.14526655 0.83476633
0.15014052 -0.15604375 0.84629291
0.1517382 -0.1536084 0.84407032
0.15398823 -0.1509044 0.84158307
0.15670468 -0.14840655 0.83925933
0.15989052 -0.14620194 0.83717608
0.1635173 -0.14436799 0.83540308
0.16752273 -0.14296794 0.83399892
0.17181684 -0.1420418 0.83300275
0.17629659 -0.14160059 0.83242846
0.1808646 -0.14162722 0.83226496
0.18544744 -0.14208399 0.83248186
0.19002029 -0.14292461 0.83303916
0.1948119 -0.14415406 0.83393192
0.19200286 -0.14339556 0.83337516
0.14713342 -0.16228391 0.85194343
0.14628056 -0.16493377 0.85432547
0.1456937 -0.16811673 0.85716885
0.14563404 -0.17137972 0.86006159
0.14617753 -0.17465836 0.86294341
0.14736819 -0.17787969 0.86574799
0.14921243 -0.18096441 0.86840481
0.1516761 -0.18383673 0.87084806
0.15469055 -0.18643621 0.87302715
0.1581677 -0.18872653 0.87491345
0.1620201 -0.19069904 0.87650281
0.16618983 -0.19237623 0.87781763
0.17085406 -0.19386996 0.87894976
0.16808775 -0.19302282 0.87831265
0.21644673 -0.18224561 0.866786
0.21484905 -0.18468097 0.8690086
0.21259902 -0.18738496 0.87149584
0.20988257 -0.1898828 0.87381965
0.20669673 -0.19208741 0.87590289
0.20306996 -0.19392136 0.87767583
0.19906452 -0.19532143 0.87908
0.19477041 -0.19624755 0.88007623
0.19029066 -0.19668877 0.88065052
0.18572265 -0.19666213 0.88081402
0.18113981 -0.19620538 0.88059711
0.17656696 -0.19536476 0.88003981
0.17177537 -0.19413529 0.87914699
0.1745844 -0.19489381 0.87970382
0.21912177 -0.17599957 0.86102974
0.21996687 -0.17337385 0.8586694
0.22054839 -0.17021988 0.85585189
0.2206075 -0.16698663 0.85298556
0.22006896 -0.16373786 0.85012996
0.21888915 -0.16054589 0.84735096
0.2170617 -0.15748927 0.84471834
0.21462049 -0.15464312 0.84229732
0.2116335 -0.15206732 0.84013808
0.20818801 -0.14979786 0.838269
0.20437071 -0.14784332 0.83669406
0.20023897 -0.14618142 0.83539122
0.19561724 -0.14470129 0.83426946
0.19835836 -0.14554071 0.83490074
0.15043995 -0.15621974 0.84632236
0.15202306 -0.15380657 0.84412003
0.1542526 -0.1511272 0.84165543
0.1569443 -0.14865212 0.83935285
0.16010112 -0.1464676 0.83728856
0.16369486 -0.14465035 0.83553177
0.1676638 -0.14326304 0.83414036
0.17191878 -0.14234535 0.83315325
0.17635772 -0.14190815 0.8325842
0.18088412 -0.14193456 0.8324222
0.18542519 -0.14238715 0.83263713
0.1899564 -0.14322011 0.83318937
0.19470434 -0.14443837 0.83407396
0.19192089 -0.14368677 0.83352226
0.14746025 -0.16240305 0.85192132
0.14661515 -0.16502877 0.85428172
0.14603363 -0.16818273 0.85709924
0.14597452 -0.17141598 0.85996556
0.14651306 -0.17466475 0.8628211
0.14769287 -0.17785673 0.86560017
0.14952032 -0.18091334 0.86823273
0.15196154 -0.1837595 0.87065381
0.15494852 -0.1863353 0.87281299
0.15839401 -0.18860476 0.87468207
0.1622113 -0.1905593 0.876257
0.16634303 -0.19222119 0.87755984
0.17096478 -0.19370133 0.87868166
0.16822366 -0.1928619 0.87805033
0.21614207 -0.18218288 0.86662877
0.21455896 -0.18459605 0.8688311
0.21232942 -0.18727541 0.87129569
0.20963772 -0.18975049 0.87359828
0.20648091 -0.19193502 0.87566251
0.20288716 -0.19375226 0.87741935
0.19891822 -0.19513957 0.8788107
0.19466323 -0.19605726 0.87979788
0.1902243 -0.19649446 0.88036692
0.1856979 -0.19646806 0.88052893
0.18115681 -0.19601546 0.88031399
0.17662562 -0.1951825 0.87976176
0.17187768 -0.19396424 0.8788771
0.17466113 -0.19471584 0.87942886
0.21878886 -0.17598303 0.86093551
0.21962616 -0.17338155 0.85859692
0.2202023 -0.1702567 0.85580546
0.22026086 -0.1670533 0.85296559
0.21972729 -0.16383453 0.8501364
0.21855837 -0.16067201 0.84738302
0.21674781 -0.15764362 0.84477472
0.21432912 -0.15482374 0.84237599
0.21136971 -0.15227172 0.84023672
0.20795603 -0.15002321 0.83838487
0.20417397 -0.14808671 0.83682454
0.20008038 -0.14644016 0.83553368
0.19550131 -0.14497368 0.83442229
0.19821712 -0.14580536 0.83504772
0.15074109 -0.15638579 0.8463639
0.15230958 -0.1539949 0.8441819
0.15451854 -0.15134029 0.84174007
0.15718539 -0.14888805 0.8394587
0.16031307 -0.14672369 0.83741355
0.16387363 -0.14492323 0.83567291
0.16780593 -0.14354873 0.83429438
0.17202163 -0.1426395 0.83331639
0.17641959 -0.14220634 0.83275259
0.18090419 -0.14223249 0.83259207
0.18540336 -0.14268093 0.83280498
0.18989272 -0.14350618 0.83335215
0.19459683 -0.14471319 0.83422858
0.19183908 -0.14396854 0.83368194
0.14778888 -0.16251203 0.85191119
0.14695159 -0.16511351 0.85424978
0.14637545 -0.16823836 0.8570413
0.14631687 -0.17144176 0.85988116
0.14685045 -0.17466053 0.86271036
0.14801937 -0.17782305 0.86546373
0.14982994 -0.18085144 0.86807203
0.15224862 -0.18367133 0.8704707
0.15520804 -0.18622334 0.87261003
0.15862171 -0.18847185 0.87446183
0.16240378 -0.19040835 0.87602222
0.16649736 -0.1920549 0.87731302
0.17107643 -0.19352138 0.87842447
0.16836062 -0.19268969 0.87779897
0.21583666 -0.18210927 0.86648285
0.21426816 -0.18450016 0.86866486
0.2120592 -0.18715477 0.87110668
0.20939235 -0.18960701 0.87338799
0.20626467 -0.19177137 0.87543321
0.20270412 -0.19357184 0.87717384
0.19877182 -0.19494633 0.87855238
0.19455612 -0.19585556 0.87953037
0.19015816 -0.19628872 0.88009417
0.18567355 -0.19626257 0.88025469
0.18117438 -0.19581413 0.88004172
0.17668502 -0.19498888 0.87949461
0.17198092 -0.19378187 0.87861812
0.17473866 -0.19452652 0.87916476
0.21845523 -0.1759579 0.86085063
0.2192847 -0.17338075 0.85853392
0.21985544 -0.17028511 0.8557685
0.21991347 -0.16711165 0.85295522
0.21938489 -0.16392298 0.85015243
0.21822689 -0.16079003 0.84742481
0.21643326 -0.15778993 0.84484088
0.21403718 -0.15499642 0.84246463
0.21110544 -0.15246826 0.84034532
0.20772368 -0.15024078 0.83851081
0.20397697 -0.14832239 0.83696502
0.19992165 -0.14669122 0.83568627
0.1953854 -0.14523846 0.83458525
0.1980758 -0.14606236 0.83520484
0.15104362 -0.15654388 0.84641522
0.15259746 -0.15417534 0.8442536
0.15478575 -0.15154554 0.8418346
0.15742768 -0.14911623 0.83957458
0.16052611 -0.1469721 0.83754849
0.16405338 -0.14518847 0.83582419
0.16794892 -0.14382683 0.83445853
0.17212522 -0.14292611 0.83348966
0.17648205 -0.14249699 0.83293116
0.18092474 -0.1425229 0.83277214
0.18538184 -0.14296713 0.83298308
0.18982925 -0.14378469 0.83352512
0.19448936 -0.1449804 0.83439338
0.1917574 -0.14424272 0.83385181
0.14811902 -0.16261284 0.85191065
0.14728956 -0.16519 0.85422736
0.1467188 -0.16828564 0.85699278
0.14666077 -0.17145909 0.85980606
0.14718935 -0.17464776 0.86260885
0.14834735 -0.17778072 0.86533648
0.15014099 -0.18078081 0.8679204
0.15253706 -0.18357432 0.87029666
0.15546881 -0.18610249 0.87241596
0.15885057 -0.18832996 0.87425047
0.16259727 -0.19024836 0.87579626
0.16665259 -0.19187953 0.87707502
0.17118886 -0.19333228 0.87817603
0.16849844 -0.19250838 0.87755644
0.21553062 -0.18202686 0.86634606
0.21397679 -0.1843954 0.86850768
0.21178849 -0.1870252 0.87092668
0.20914656 -0.18945453 0.87318671
0.20604813 -0.19159864 0.87521279
0.20252086 -0.19338228 0.87693709
0.19862533 -0.19474393 0.87830275
