# .PCD v0.7 - Point Cloud Data file format
VERSION 0.7
FIELDS x y z rgba
SIZE 4 4 4 4
TYPE F F F U
COUNT 1 1 1 1
WIDTH 1003
HEIGHT 1
VIEWPOINT 0 0 0 1 0 0 0
POINTS 1003
DATA ascii
-0.017858114 -0.038795214 0.70700002 4286400307
-0.016603004 -0.038740341 0.70600003 4286336299
-0.015373153 -0.038740341 0.70600003 4286336299
-0.014143299 -0.038740341 0.70600003 4286008101
-0.012895157 -0.038685467 0.70500004 4285942308
-0.011667046 -0.038685467 0.70500004 4285812537
-0.010409322 -0.038575724 0.70300001 4286273088
-0.0091846958 -0.038575724 0.70300001 4286468932
-0.007960069 -0.038575724 0.70300001 4286271553
-0.0067258626 -0.03852085 0.70200002 4286205983
-0.0055029788 -0.03852085 0.70200002 4286469154
-0.0042861914 -0.038575724 0.70300001 4286534709
-0.0030572105 -0.03852085 0.70200002 4286600502
-0.0018343261 -0.03852085 0.70200002 4286403641
-0.00061144208 -0.03852085 0.70200002 4286008883
0.00061144208 -0.03852085 0.70200002 4285943855
0.0018343261 -0.03852085 0.70200002 4287062336
0.0030485005 -0.038411103 0.70000005 4287192651
0.0042679007 -0.038411103 0.70000005 4286008633
0.0054873005 -0.038411103 0.70000005 4286270254
0.0067067011 -0.038411103 0.70000005 4287257149
0.0079147778 -0.038356233 0.69900006 4287126859
0.0091324365 -0.038356233 0.69900006 4286929481
0.010350095 -0.038356233 0.69900006 4287060040
0.011567753 -0.038356233 0.69900006 4287520591
0.012785411 -0.038356233 0.69900006 4287586895
0.014003069 -0.038356233 0.69900006 4287915860
0.015220728 -0.038356233 0.69900006 4287653206
0.016438385 -0.038356233 0.69900006 4287192655
0.017605525 -0.038246486 0.69700003 4287258185
0.018819699 -0.038246486 0.69700003 4287784529
0.020033874 -0.038246486 0.69700003 4287456077
0.021248046 -0.038246486 0.69700003 4286469182
0.022429993 -0.038191613 0.69600004 4286338877
0.023642426 -0.038191613 0.69600004 4286799428
0.024819149 -0.038136739 0.69500005 4287061053
0.026029838 -0.038136739 0.69500005 4288245584
-0.050302871 -0.03788241 0.71300006 4283183418
-0.048992012 -0.037829272 0.71200001 4284621824
-0.047617573 -0.037723012 0.71000004 4286135315
-0.046380755 -0.037723012 0.71000004 4285480990
-0.045080353 -0.037669886 0.70900005 4285678368
-0.043845277 -0.037669886 0.70900005 4285940521
-0.042489998 -0.037563622 0.70700002 4286138156
-0.041258402 -0.037563622 0.70700002 4286138668
-0.04002681 -0.037563622 0.70700002 4286138668
-0.038795214 -0.037563622 0.70700002 4286204213
-0.037563622 -0.037563622 0.70700002 4286270006
-0.036434803 -0.037669886 0.70900005 4286204209
-0.035199728 -0.037669886 0.70900005 4286007086
-0.033964649 -0.037669886 0.70900005 4285483050
-0.032637242 -0.037563622 0.70700002 4285285928
-0.03140565 -0.037563622 0.70700002 4285286178
-0.030131377 -0.037510488 0.70600003 4285549349
-0.028901527 -0.037510488 0.70600003 4285941806
-0.027671672 -0.037510488 0.70600003 4286007600
-0.026441822 -0.037510488 0.70600003 4286139701
-0.02524768 -0.037563622 0.70700002 4286534459
-0.024016084 -0.037563622 0.70700002 4286534196
-0.02278449 -0.037563622 0.70700002 4286073645
-0.021552898 -0.037563622 0.70700002 4286071857
-0.020321304 -0.037563622 0.70700002 4286071857
-0.019089708 -0.037563622 0.70700002 4286006834
-0.017858114 -0.037563622 0.70700002 4286598715
-0.01662652 -0.037563622 0.70700002 4286402607
-0.015394927 -0.037563622 0.70700002 4286336814
-0.014143299 -0.037510488 0.70600003 4286271260
-0.012913447 -0.037510488 0.70600003 4286271260
-0.011683595 -0.037510488 0.70600003 4286205244
-0.010438936 -0.037457358 0.70500004 4286797382
-0.0092108259 -0.037457358 0.70500004 4286863175
-0.007960069 -0.037351094 0.70300001 4286205244
-0.0067354436 -0.037351094 0.70300001 4286205455
-0.0055108173 -0.037351094 0.70300001 4286666006
-0.0042861914 -0.037351094 0.70300001 4286599989
-0.0030615653 -0.037351094 0.70300001 4286599989
-0.0018369391 -0.037351094 0.70300001 4286599737
-0.00061231304 -0.037351094 0.70300001 4286402357
0.00061231304 -0.037351094 0.70300001 4286599737
0.0018369391 -0.037351094 0.70300001 4287389252
0.0030572105 -0.037297968 0.70200002 4287061294
0.0042800945 -0.037297968 0.70200002 4286008349
0.0055029788 -0.037297968 0.70200002 4286270506
0.0067258626 -0.037297968 0.70200002 4287191608
0.0079261009 -0.037191708 0.70000005 4286995528
0.0091455011 -0.037191708 0.70000005 4286798149
0.010364901 -0.037191708 0.70000005 4287059788
0.011584301 -0.037191708 0.70000005 4287388753
0.012840283 -0.037297968 0.70200002 4287586632
0.014023101 -0.037191708 0.70000005 4287586632
0.015242503 -0.037191708 0.70000005 4287455309
0.016508935 -0.037297968 0.70200002 4287323980
0.017731819 -0.037297968 0.70200002 4287192651
0.018954704 -0.037297968 0.70200002 4287653202
0.020177588 -0.037297968 0.70200002 4287194440
0.021309018 -0.037138574 0.69900006 4286404924
0.022462221 -0.03703231 0.69700003 4286405197
0.023676395 -0.03703231 0.69700003 4286800212
0.02489057 -0.03703231 0.69700003 4286996032
-0.050302871 -0.036640365 0.71300006 4282593598
-0.049060822 -0.036640365 0.71300006 4284752640
-0.04775171 -0.036588971 0.71200001 4286200075
-0.046511404 -0.036588971 0.71200001 4285546533
-0.045271099 -0.036588971 0.71200001 4285875498
-0.044030797 -0.036588971 0.71200001 4286006314
-0.042790491 -0.036588971 0.71200001 4286203950
-0.041433476 -0.036486194 0.71000004 4286204209
-0.040196653 -0.036486194 0.71000004 4286270002
-0.038959835 -0.036486194 0.71000004 4286204729
-0.037723012 -0.036486194 0.71000004 4286138936
-0.036486194 -0.036486194 0.71000004 4286270004
-0.035249375 -0.036486194 0.71000004 4286007088
-0.034012556 -0.036486194 0.71000004 4285483050
-0.032775734 -0.036486194 0.71000004 4285220135
-0.031494495 -0.036434803 0.70900005 4285089830
-0.030174056 -0.036332026 0.70700002 4285221416
-0.02894246 -0.036332026 0.70700002 4285941554
-0.027710868 -0.036332026 0.70700002 4286336312
-0.026479274 -0.036332026 0.70700002 4286205494
-0.025319103 -0.036434803 0.70900005 4286534459
-0.024084024 -0.036434803 0.70900005 4286533442
-0.022848945 -0.036434803 0.70900005 4286072891
-0.021613868 -0.036434803 0.70900005 4286138404
-0.020378789 -0.036434803 0.70900005 4286138404
-0.019143712 -0.036434803 0.70900005 4286138416
-0.017858114 -0.036332026 0.70700002 4286598967
-0.01662652 -0.036332026 0.70700002 4286402355
-0.015394927 -0.036332026 0.70700002 4286336562
-0.014163332 -0.036332026 0.70700002 4286467117
-0.012931738 -0.036332026 0.70700002 4286467117
-0.011683595 -0.036280639 0.70600003 4286336312
-0.010453743 -0.036280639 0.70600003 4286862656
-0.0092238905 -0.036280639 0.70600003 4286731850
-0.007982716 -0.036229249 0.70500004 4286205505
-0.006754606 -0.036229249 0.70500004 4286073361
-0.0055264956 -0.036229249 0.70500004 4286731547
-0.0042983857 -0.036229249 0.70500004 4286666045
-0.0030702753 -0.036229249 0.70500004 4286534459
-0.0018421654 -0.036229249 0.70500004 4286534196
-0.00061405508 -0.036229249 0.70500004 4286468402
0.00061405508 -0.036229249 0.70500004 4286730292
0.0018421654 -0.036229249 0.70500004 4287717187
0.0030702753 -0.036229249 0.70500004 4286928953
0.0042983857 -0.036229249 0.70500004 4286139438
0.0055108173 -0.036126472 0.70300001 4286205746
0.0067354436 -0.036126472 0.70300001 4287126848
0.007960069 -0.036126472 0.70300001 4287126859
0.0091846958 -0.036126472 0.70300001 4286863688
0.010409322 -0.036126472 0.70300001 4286928198
0.011633948 -0.036126472 0.70300001 4287520591
0.012858574 -0.036126472 0.70300001 4287586643
0.014063166 -0.036075082 0.70200002 4287520850
0.015286052 -0.036075082 0.70200002 4287324489
0.016508935 -0.036075082 0.70200002 4287192903
0.017731819 -0.036075082 0.70200002 4287128134
0.018954704 -0.036075082 0.70200002 4287456842
0.020177588 -0.036075082 0.70200002 4287260233
0.021400472 -0.036075082 0.70200002 4286339131
0.022526678 -0.035920918 0.69900006 4286337586
0.023676395 -0.035818137 0.69700003 4287192639
-0.05044397 -0.03549761 0.71500003 4282985792
-0.049198441 -0.03549761 0.71500003 4284423936
-0.048019975 -0.035547253 0.71600002 4285937164
-0.046707381 -0.03549761 0.71500003 4285417009
-0.045461852 -0.03549761 0.71500003 4285548595
-0.04409264 -0.035398316 0.71300006 4285744682
-0.042850591 -0.035398316 0.71300006 4285941804
-0.041550189 -0.035348665 0.71200001 4286204461
-0.040309884 -0.035348665 0.71200001 4286336047
-0.039069578 -0.035348665 0.71200001 4286401853
-0.037829272 -0.035348665 0.71200001 4286336060
-0.036588971 -0.035348665 0.71200001 4286270506
-0.035348665 -0.035348665 0.71200001 4286138919
-0.034108363 -0.035348665 0.71200001 4285483050
-0.032868057 -0.035348665 0.71200001 4285417257
-0.031538915 -0.035249375 0.71000004 4285744682
-0.030302092 -0.035249375 0.71000004 4285744682
-0.029065274 -0.035249375 0.71000004 4285941554
-0.027828453 -0.035249375 0.71000004 4286402105
-0.026591634 -0.035249375 0.71000004 4286468402
-0.025426235 -0.035348665 0.71200001 4286665782
-0.024117993 -0.035249375 0.71000004 4286796611
-0.022881173 -0.035249375 0.71000004 4286204731
-0.021644354 -0.035249375 0.71000004 4286072609
-0.020407531 -0.035249375 0.71000004 4286138658
-0.019143712 -0.035199728 0.70900005 4286270254
-0.017908633 -0.035199728 0.70900005 4286730805
-0.016673556 -0.035199728 0.70900005 4286599218
-0.015438477 -0.035199728 0.70900005 4286402096
-0.014203398 -0.035199728 0.70900005 4286336562
-0.01296832 -0.035199728 0.70900005 4286402355
-0.011733242 -0.035199728 0.70900005 4286402105
-0.010498164 -0.035199728 0.70900005 4286928450
-0.009236956 -0.03510043 0.70700002 4286666045
-0.0080053611 -0.03510043 0.70700002 4286271287
-0.0067641865 -0.035050783 0.70600003 4286336310
-0.0055343346 -0.035050783 0.70600003 4286599739
-0.0043044826 -0.035050783 0.70600003 4286666045
-0.0030746304 -0.035050783 0.70600003 4286534459
-0.0018447782 -0.035050783 0.70600003 4286533944
-0.00061492604 -0.035050783 0.70600003 4286533944
0.00061492604 -0.035050783 0.70600003 4286927666
0.0018447782 -0.035050783 0.70600003 4287256888
0.0030746304 -0.035050783 0.70600003 4286928953
0.0043044826 -0.035050783 0.70600003 4286534196
0.0055264956 -0.03500114 0.70500004 4286403641
0.006754606 -0.03500114 0.70500004 4287193156
0.007982716 -0.03500114 0.70500004 4287258194
0.0091846958 -0.034901842 0.70300001 4286929485
0.010409322 -0.034901842 0.70300001 4286863179
0.011633948 -0.034901842 0.70300001 4287652438
0.012858574 -0.034901842 0.70300001 4287653726
0.0140832 -0.034901842 0.70300001 4287521884
0.015307827 -0.034901842 0.70300001 4287456077
0.016532453 -0.034901842 0.70300001 4287324491
0.017757079 -0.034901842 0.70300001 4287258950
0.018981704 -0.034901842 0.70300001 4287587658
0.02020633 -0.034901842 0.70300001 4287260483
0.021430956 -0.034901842 0.70300001 4286734139
0.022655582 -0.034901842 0.70300001 4286208574
0.023880208 -0.034901842 0.70300001 4286800968
0.025104834 -0.034901842 0.70300001 4287128115
0.026329461 -0.034901842 0.70300001 4288707148
0.027554087 -0.034901842 0.70300001 4290348904
0.028778713 -0.034901842 0.70300001 4292191108
-0.050726175 -0.034443699 0.71900004 4282592312
-0.049404867 -0.034395795 0.71800005 4284556032
-0.048154112 -0.034395795 0.71800005 4285937668
-0.046772704 -0.034299985 0.71600002 4285285930
-0.045525432 -0.034299985 0.71600002 4285548845
-0.04421632 -0.034252077 0.71500003 4285744934
-0.042970791 -0.034252077 0.71500003 4286073643
-0.041725259 -0.034252077 0.71500003 4286204713
-0.040479731 -0.034252077 0.71500003 4286270506
-0.039234199 -0.034252077 0.71500003 4286467385
-0.03788241 -0.03415627 0.71300006 4286401592
-0.036640365 -0.03415627 0.71300006 4286335534
-0.035398316 -0.03415627 0.71300006 4286138154
-0.03415627 -0.03415627 0.71300006 4285941806
-0.032914221 -0.03415627 0.71300006 4285941806
-0.031672176 -0.03415627 0.71300006 4285941806
-0.03038745 -0.034108363 0.71200001 4285941806
-0.029147146 -0.034108363 0.71200001 4286007086
-0.027906843 -0.034108363 0.71200001 4286467637
-0.026666539 -0.034108363 0.71200001 4286730040
-0.025426235 -0.034108363 0.71200001 4287124798
-0.024185929 -0.034108363 0.71200001 4287059270
-0.022945626 -0.034108363 0.71200001 4286269754
-0.021705322 -0.034108363 0.71200001 4286138917
-0.020407531 -0.034012556 0.71000004 4286007588
-0.019170713 -0.034012556 0.71000004 4286335536
-0.017908633 -0.033964649 0.70900005 4286993209
-0.016673556 -0.033964649 0.70900005 4286730555
-0.015438477 -0.033964649 0.70900005 4286598969
-0.014223432 -0.034012556 0.71000004 4286402859
-0.01296832 -0.033964649 0.70900005 4286402859
-0.011733242 -0.033964649 0.70900005 4286599989
-0.010498164 -0.033964649 0.70900005 4286928953
-0.0092630871 -0.033964649 0.70900005 4286665545
-0.008028008 -0.033964649 0.70900005 4286270787
-0.006773768 -0.033868838 0.70700002 4286402357
-0.0055421731 -0.033868838 0.70700002 4286797115
-0.0043105795 -0.033868838 0.70700002 4286665795
-0.0030789853 -0.033868838 0.70700002 4286534209
-0.0018473911 -0.033868838 0.70700002 4286468402
-0.00061492604 -0.033820935 0.70600003 4286468402
0.00061492604 -0.033820935 0.70600003 4286862393
0.0018473911 -0.033868838 0.70700002 4287191358
0.0030789853 -0.033868838 0.70700002 4286862645
0.0043105795 -0.033868838 0.70700002 4286665010
0.0055343346 -0.033820935 0.70600003 4286600241
0.0067641865 -0.033820935 0.70600003 4287323707
0.007994039 -0.033820935 0.70600003 4287258187
0.0092108259 -0.033773027 0.70500004 4286994758
0.010438936 -0.033773027 0.70500004 4286928953
0.011667046 -0.033773027 0.70500004 4287521091
0.012895157 -0.033773027 0.70500004 4287785557
0.0140832 -0.033677217 0.70300001 4287522386
0.015307827 -0.033677217 0.70300001 4287259981
0.016532453 -0.033677217 0.70300001 4287128395
0.017807597 -0.033773027 0.70500004 4287390536
0.019035708 -0.033773027 0.70500004 4287719501
0.02020633 -0.033677217 0.70300001 4287260483
0.021430956 -0.033677217 0.70300001 4286602553
0.022655582 -0.033677217 0.70300001 4286405435
0.023880208 -0.033677217 0.70300001 4286997829
0.025176259 -0.033773027 0.70500004 4287259448
0.02640437 -0.033773027 0.70500004 4288904529
0.027632479 -0.033773027 0.70500004 4290414700
0.028860589 -0.033773027 0.70500004 4291664766
-0.050867274 -0.033283528 0.72100002 4282656813
-0.049473677 -0.0331912 0.71900004 4284489984
-0.048154112 -0.03314504 0.71800005 4285937416
-0.046772704 -0.033052713 0.71600002 4285285155
-0.045525432 -0.033052713 0.71600002 4285745706
-0.04427816 -0.033052713 0.71600002 4285941806
-0.043030888 -0.033052713 0.71600002 4286139186
-0.041783616 -0.033052713 0.71600002 4286270506
-0.040536344 -0.033052713 0.71600002 4286336299
-0.039289072 -0.033052713 0.71600002 4286336562
-0.03798867 -0.033006549 0.71500003 4286336562
-0.036743138 -0.033006549 0.71500003 4286402094
-0.035398316 -0.032914221 0.71300006 4286138665
-0.03415627 -0.032914221 0.71300006 4285876011
-0.032914221 -0.032914221 0.71300006 4285876011
-0.031672176 -0.032914221 0.71300006 4285941806
-0.030430133 -0.032914221 0.71300006 4285941806
-0.029188083 -0.032914221 0.71300006 4286138164
-0.027906843 -0.032868057 0.71200001 4286335799
-0.026666539 -0.032868057 0.71200001 4286532658
-0.025426235 -0.032868057 0.71200001 4287585602
-0.0242199 -0.032914221 0.71300006 4287060260
-0.022977855 -0.032914221 0.71300006 4286336538
-0.021735808 -0.032914221 0.71300006 4286138668
-0.020493761 -0.032914221 0.71300006 4286270254
-0.019224714 -0.032868057 0.71200001 4286336562
-0.017984409 -0.032868057 0.71200001 4286534198
-0.016744105 -0.032868057 0.71200001 4286664762
-0.015503802 -0.032868057 0.71200001 4286467639
-0.014263497 -0.032868057 0.71200001 4286336551
-0.012986612 -0.032775734 0.71000004 4286468137
-0.011749791 -0.032775734 0.71000004 4286533944
-0.010512971 -0.032775734 0.71000004 4286797115
-0.0092630871 -0.032729574 0.70900005 4286796882
-0.008028008 -0.032729574 0.70900005 4286270538
-0.00679293 -0.032729574 0.70900005 4286401853
-0.0055421731 -0.032637242 0.70700002 4286928198
-0.0043105795 -0.032637242 0.70700002 4286732092
-0.0030876955 -0.032729574 0.70900005 4286468664
-0.0018526172 -0.032729574 0.70900005 4286272043
-0.00061579706 -0.032637242 0.70700002 4286337836
0.00061579706 -0.032637242 0.70700002 4286666045
0.0018473911 -0.032637242 0.70700002 4286666045
0.0030789853 -0.032637242 0.70700002 4286796852
0.0043105795 -0.032637242 0.70700002 4286665010
0.0055421731 -0.032637242 0.70700002 4286534950
0.006773768 -0.032637242 0.70700002 4287127087
0.0080053611 -0.032637242 0.70700002 4287323961
0.0092238905 -0.032591082 0.70600003 4287126583
0.010453743 -0.032591082 0.70600003 4286994747
0.011683595 -0.032591082 0.70600003 4287586884
0.012895157 -0.032544918 0.70500004 4287588935
0.014123266 -0.032544918 0.70500004 4287523141
0.015351377 -0.032544918 0.70500004 4287456842
0.016579488 -0.032544918 0.70500004 4287456842
0.017807597 -0.032544918 0.70500004 4287456590
0.019035708 -0.032544918 0.70500004 4287522640
0.020263817 -0.032544918 0.70500004 4287260481
0.021491928 -0.032544918 0.70500004 4286734137
0.022720037 -0.032544918 0.70500004 4286733898
0.023948148 -0.032544918 0.70500004 4286997327
0.025211969 -0.032591082 0.70600003 4287324991
0.026441822 -0.032591082 0.70600003 4289233244
0.027671672 -0.032591082 0.70600003 4290415213
0.028901527 -0.032591082 0.70600003 4292191623
0.030131377 -0.032591082 0.70600003 4291270219
-0.049473677 -0.031938702 0.71900004 4284620288
-0.048221178 -0.031938702 0.71900004 4286462477
-0.046903353 -0.031894282 0.71800005 4285678889
-0.045652602 -0.031894282 0.71800005 4285941804
-0.044401843 -0.031894282 0.71800005 4286007852
-0.043151088 -0.031894282 0.71800005 4286139438
-0.041900329 -0.031894282 0.71800005 4286074158
-0.040649574 -0.031894282 0.71800005 4286139951
-0.039398819 -0.031894282 0.71800005 4286204981
-0.0380418 -0.031805441 0.71600002 4286336310
-0.036794525 -0.031805441 0.71600002 4286336310
-0.03549761 -0.031761017 0.71500003 4285941552
-0.034252077 -0.031761017 0.71500003 4285678637
-0.033006549 -0.031761017 0.71500003 4285678637
-0.031761017 -0.031761017 0.71500003 4285941806
-0.030515486 -0.031761017 0.71500003 4286007600
-0.029188083 -0.031672176 0.71300006 4286073908
-0.02794604 -0.031672176 0.71300006 4286139701
-0.026703993 -0.031672176 0.71300006 4286402094
-0.025461946 -0.031672176 0.71300006 4287125561
-0.024287838 -0.031761017 0.71500003 4286928942
-0.023042308 -0.031761017 0.71500003 4286270756
-0.021735808 -0.031672176 0.71300006 4286203948
-0.020493761 -0.031672176 0.71300006 4286269741
-0.019251717 -0.031672176 0.71300006 4286402105
-0.01800967 -0.031672176 0.71300006 4286533692
-0.016767623 -0.031672176 0.71300006 4286599487
-0.015525577 -0.031672176 0.71300006 4286533694
-0.014283531 -0.031672176 0.71300006 4286402344
-0.013023193 -0.031627756 0.71200001 4286468137
-0.011782888 -0.031627756 0.71200001 4286534196
-0.010542585 -0.031627756 0.71200001 4286928953
-0.0092761507 -0.031538915 0.71000004 4286863179
-0.0080393311 -0.031538915 0.71000004 4286204992
-0.0068025109 -0.031538915 0.71000004 4286269491
-0.0055578519 -0.031494495 0.70900005 4287059006
-0.0043227733 -0.031494495 0.70900005 4286732354
-0.0030920503 -0.031538915 0.71000004 4286403389
-0.0018526172 -0.031494495 0.70900005 4286469166
-0.0006175391 -0.031494495 0.70900005 4286469166
0.0006175391 -0.031494495 0.70900005 4286666045
0.0018526172 -0.031494495 0.70900005 4286666045
0.0030876955 -0.031494495 0.70900005 4286665784
0.0043227733 -0.031494495 0.70900005 4286534198
0.0055578519 -0.031494495 0.70900005 4286797867
0.006773768 -0.03140565 0.70700002 4287390004
0.0080053611 -0.03140565 0.70700002 4287258436
0.009236956 -0.03140565 0.70700002 4287060801
0.01046855 -0.03140565 0.70700002 4287126335
0.011683595 -0.03136123 0.70600003 4287718215
0.012913447 -0.03136123 0.70600003 4287587662
0.014143299 -0.03136123 0.70600003 4287653456
0.015373153 -0.03136123 0.70600003 4287456590
0.016603004 -0.03136123 0.70600003 4287325004
0.017832857 -0.03136123 0.70600003 4287129424
0.019062709 -0.03136123 0.70600003 4287195474
0.02029256 -0.03136123 0.70600003 4287390536
0.021522412 -0.03136123 0.70600003 4286929985
0.022752265 -0.03136123 0.70600003 4286929481
0.023982115 -0.03136123 0.70600003 4287390032
0.025211969 -0.03136123 0.70600003 4287521856
0.026441822 -0.03136123 0.70600003 4289495646
0.027710868 -0.03140565 0.70700002 4290546803
0.028901527 -0.03136123 0.70600003 4291862407
0.030131377 -0.03136123 0.70600003 4291138381
-0.049817722 -0.030899599 0.72400004 4284356352
-0.048422381 -0.030814242 0.72200006 4286593297
-0.04696868 -0.030686205 0.71900004 4285875761
-0.045716181 -0.030686205 0.71900004 4286073141
-0.044401843 -0.030643526 0.71800005 4286073645
-0.043151088 -0.030643526 0.71800005 4286139438
-0.04195869 -0.030686205 0.71900004 4286270004
-0.040706191 -0.030686205 0.71900004 4286270004
-0.039398819 -0.030643526 0.71800005 4286335536
-0.038148064 -0.030643526 0.71800005 4286532658
-0.036897305 -0.030643526 0.71800005 4286402105
-0.035547253 -0.030558165 0.71600002 4286007348
-0.034299985 -0.030558165 0.71600002 4285677617
-0.033052713 -0.030558165 0.71600002 4285743410
-0.031805441 -0.030558165 0.71600002 4285417005
-0.030558165 -0.030558165 0.71600002 4285680434
-0.02926996 -0.030515486 0.71500003 4286336049
-0.028024429 -0.030515486 0.71500003 4286467635
-0.026778897 -0.030515486 0.71500003 4286664762
-0.025533367 -0.030515486 0.71500003 4287125313
-0.024321808 -0.030558165 0.71600002 4286863399
-0.023074534 -0.030558165 0.71600002 4286139419
-0.021796778 -0.030515486 0.71500003 4286007348
-0.020551248 -0.030515486 0.71500003 4286139190
-0.019305717 -0.030515486 0.71500003 4286204729
-0.018060187 -0.030515486 0.71500003 4286533694
-0.016814657 -0.030515486 0.71500003 4286665545
-0.015569126 -0.030515486 0.71500003 4286467910
-0.014283531 -0.030430133 0.71300006 4286336814
-0.013041485 -0.030430133 0.71300006 4286534194
-0.011799439 -0.030430133 0.71300006 4286599218
-0.010557393 -0.030430133 0.71300006 4286796598
-0.0093153464 -0.030430133 0.71300006 4286862393
-0.0080733001 -0.030430133 0.71300006 4286665014
-0.0068216724 -0.03038745 0.71200001 4286467647
-0.0055813682 -0.03038745 0.71200001 4286862404
-0.0043410645 -0.03038745 0.71200001 4286797634
-0.00310076 -0.03038745 0.71200001 4286666047
-0.0018604563 -0.03038745 0.71200001 4286403641
-0.00061841006 -0.030302092 0.71000004 4286535227
0.00061841006 -0.030302092 0.71000004 4286732092
0.0018552302 -0.030302092 0.71000004 4286666043
0.00310076 -0.03038745 0.71200001 4286666297
0.0043288707 -0.030302092 0.71000004 4286600504
0.0055578519 -0.030259414 0.70900005 4286732092
0.00679293 -0.030259414 0.70900005 4287455559
0.008028008 -0.030259414 0.70900005 4287323961
0.0092630871 -0.030259414 0.70900005 4287060790
0.01046855 -0.030174056 0.70700002 4287125831
0.011700144 -0.030174056 0.70700002 4287849554
0.012931738 -0.030174056 0.70700002 4287522640
0.014163332 -0.030174056 0.70700002 4287390797
0.015394927 -0.030174056 0.70700002 4287324493
0.01662652 -0.030174056 0.70700002 4287390286
0.017858114 -0.030174056 0.70700002 4287259983
0.019089708 -0.030174056 0.70700002 4287325776
0.020321304 -0.030174056 0.70700002 4287194186
0.021552898 -0.030174056 0.70700002 4286799428
0.02278449 -0.030174056 0.70700002 4286734417
0.024016084 -0.030174056 0.70700002 4286931795
0.02524768 -0.030174056 0.70700002 4287456063
0.026479274 -0.030174056 0.70700002 4289758818
0.027710868 -0.030174056 0.70700002 4290612596
0.028901527 -0.030131377 0.70600003 4291994249
-0.05114948 -0.029679328 0.72500002 4283513668
-0.049886528 -0.029679328 0.72500002 4284354816
-0.04855651 -0.029638389 0.72400004 4286723350
-0.047164656 -0.029556518 0.72200006 4285876011
-0.045843344 -0.029515579 0.72100002 4286007598
-0.044463687 -0.029433707 0.71900004 4286139188
-0.043211188 -0.029433707 0.71900004 4286139188
-0.04195869 -0.029433707 0.71900004 4286270004
-0.040706191 -0.029433707 0.71900004 4286335797
-0.039453689 -0.029433707 0.71900004 4286466865
-0.038201194 -0.029433707 0.71900004 4286664501
-0.036948696 -0.029433707 0.71900004 4286204729
-0.035696197 -0.029433707 0.71900004 4285941556
-0.034395795 -0.02939277 0.71800005 4285678637
-0.03314504 -0.02939277 0.71800005 4285612844
-0.031894282 -0.02939277 0.71800005 4285483054
-0.030643526 -0.02939277 0.71800005 4285680434
-0.029310895 -0.029310895 0.71600002 4286073908
-0.028063623 -0.029310895 0.71600002 4286271287
-0.026816349 -0.029310895 0.71600002 4286796611
-0.025569078 -0.029310895 0.71600002 4287125833
-0.024389746 -0.02939277 0.71800005 4286927668
-0.023138989 -0.02939277 0.71800005 4286204201
-0.021888232 -0.02939277 0.71800005 4286007849
-0.020637477 -0.02939277 0.71800005 4285942056
-0.019332718 -0.029310895 0.71600002 4286139953
-0.018085444 -0.029310895 0.71600002 4286468662
-0.016838174 -0.029310895 0.71600002 4286730307
-0.015569126 -0.02926996 0.71500003 4286598465
-0.014323597 -0.02926996 0.71500003 4286598955
-0.013078067 -0.02926996 0.71500003 4286664748
-0.011832536 -0.02926996 0.71500003 4286730805
-0.010557393 -0.029188083 0.71300006 4286862647
-0.0093153464 -0.029188083 0.71300006 4286862393
-0.0080733001 -0.029188083 0.71300006 4286467635
-0.0068312539 -0.029188083 0.71300006 4286598703
-0.0055892081 -0.029188083 0.71300006 4287125047
-0.0043471614 -0.029188083 0.71300006 4286928450
-0.0031051154 -0.029188083 0.71300006 4286533692
-0.0018630693 -0.029188083 0.71300006 4286467871
-0.00062102306 -0.029188083 0.71300006 4287060008
0.00062102306 -0.029188083 0.71300006 4286994245
0.0018630693 -0.029188083 0.71300006 4286928452
0.0031051154 -0.029188083 0.71300006 4286862908
0.0043410645 -0.029147146 0.71200001 4286665530
0.0055813682 -0.029147146 0.71200001 4286862393
0.0068025109 -0.029065274 0.71000004 4287520322
0.0080393311 -0.029065274 0.71000004 4287323961
0.0092630871 -0.029024336 0.70900005 4286994997
0.010498164 -0.029024336 0.70900005 4286928450
0.011733242 -0.029024336 0.70900005 4287783758
0.012931738 -0.02894246 0.70700002 4287522386
0.014163332 -0.02894246 0.70700002 4287325006
0.015394927 -0.02894246 0.70700002 4287324493
0.01662652 -0.02894246 0.70700002 4287324493
0.017908633 -0.029024336 0.70900005 4287259731
0.019089708 -0.02894246 0.70700002 4287325524
0.020321304 -0.02894246 0.70700002 4286997838
0.021552898 -0.02894246 0.70700002 4286603080
0.02278449 -0.02894246 0.70700002 4286734930
0.024016084 -0.02894246 0.70700002 4286800979
0.02524768 -0.02894246 0.70700002 4287587138
0.026479274 -0.02894246 0.70700002 4290152808
0.027710868 -0.02894246 0.70700002 4290809205
0.02894246 -0.02894246 0.70700002 4291664514
-0.05114948 -0.028416377 0.72500002 4283909710
-0.049886528 -0.028416377 0.72500002 4283960353
-0.04862358 -0.028416377 0.72500002 4286197315
-0.047164656 -0.028298793 0.72200006 4285546537
-0.045843344 -0.028259596 0.72100002 4286270004
-0.044587366 -0.028259596 0.72100002 4286139188
-0.043331381 -0.028259596 0.72100002 4286073395
-0.042075399 -0.028259596 0.72100002 4286073393
-0.040706191 -0.02818121 0.71900004 4286073393
-0.039453689 -0.02818121 0.71900004 4286204209
-0.038307454 -0.028259596 0.72100002 4286270002
-0.037051473 -0.028259596 0.72100002 4286270004
-0.035696197 -0.02818121 0.71900004 4286007088
-0.034443699 -0.02818121 0.71900004 4285678387
-0.0331912 -0.02818121 0.71900004 4285612594
-0.031938702 -0.02818121 0.71900004 4285677867
-0.030643526 -0.028142013 0.71800005 4285941039
-0.02939277 -0.028142013 0.71800005 4285941302
-0.028142013 -0.028142013 0.71800005 4286467647
-0.026891258 -0.028142013 0.71800005 4286599750
-0.025640501 -0.028142013 0.71800005 4286863179
-0.024423715 -0.02818121 0.71900004 4286796850
-0.023171214 -0.02818121 0.71900004 4286270506
-0.021918718 -0.02818121 0.71900004 4285942308
-0.020666219 -0.02818121 0.71900004 4286139688
-0.019413721 -0.02818121 0.71900004 4286402357
-0.018161224 -0.02818121 0.71900004 4286928702
-0.016908726 -0.02818121 0.71900004 4286927668
-0.015634451 -0.028142013 0.71800005 4286598703
-0.01434363 -0.028063623 0.71600002 4286533664
-0.013096357 -0.028063623 0.71600002 4286731044
-0.011849085 -0.028063623 0.71600002 4286862645
-0.010601813 -0.028063623 0.71600002 4287125561
-0.0093414756 -0.028024429 0.71500003 4286797113
-0.0080959452 -0.028024429 0.71500003 4285941804
-0.0068504158 -0.028024429 0.71500003 4286336301
-0.0056048855 -0.028024429 0.71500003 4287191610
-0.0043593552 -0.028024429 0.71500003 4286994747
-0.0031138253 -0.028024429 0.71500003 4286336560
-0.0018682951 -0.028024429 0.71500003 4286401563
-0.00062276504 -0.028024429 0.71500003 4287256871
0.00062276504 -0.028024429 0.71500003 4286994245
0.0018682951 -0.028024429 0.71500003 4286928452
0.0031138253 -0.028024429 0.71500003 4286862656
0.0043593552 -0.028024429 0.71500003 4286796863
0.0055892081 -0.02794604 0.71300006 4286797382
0.0068216724 -0.027906843 0.71200001 4287192139
0.0080619771 -0.027906843 0.71200001 4287389241
0.0092761507 -0.027828453 0.71000004 4287257655
0.010512971 -0.027828453 0.71000004 4287126859
0.011749791 -0.027828453 0.71000004 4288311134
0.01296832 -0.027789259 0.70900005 4288049734
0.014203398 -0.027789259 0.70900005 4287194425
0.015460251 -0.027828453 0.71000004 4287324243
0.016697073 -0.027828453 0.71000004 4287390036
0.017933892 -0.027828453 0.71000004 4287456592
0.019170713 -0.027828453 0.71000004 4287522386
0.020378789 -0.027789259 0.70900005 4287128145
0.021613868 -0.027789259 0.70900005 4286996303
0.022848945 -0.027789259 0.70900005 4286931795
0.024117993 -0.027828453 0.71000004 4287129174
0.025354812 -0.027828453 0.71000004 4287718217
0.026591634 -0.027828453 0.71000004 4290349938
0.027828453 -0.027828453 0.71000004 4290875253
-0.052629311 -0.027265789 0.72800004 4294967295
-0.051290583 -0.027228335 0.72700006 4285094749
-0.050024152 -0.027228335 0.72700006 4284360994
-0.048757717 -0.027228335 0.72700006 4285150253
-0.047360629 -0.027153427 0.72500002 4285480990
-0.046034098 -0.027115975 0.72400004 4286204713
-0.04464921 -0.02704107 0.72200006 4286139449
-0.043391485 -0.02704107 0.72200006 4286073656
-0.04213376 -0.02704107 0.72200006 4286007600
-0.040819418 -0.027003614 0.72100002 4286073393
-0.039563436 -0.027003614 0.72100002 4286270254
-0.038307454 -0.027003614 0.72100002 4286270254
-0.037051473 -0.027003614 0.72100002 4286270004
-0.035795491 -0.027003614 0.72100002 4286138418
-0.03453951 -0.027003614 0.72100002 4285875761
-0.0331912 -0.02692871 0.71900004 4285481003
-0.031938702 -0.02692871 0.71900004 4285546533
-0.030686205 -0.02692871 0.71900004 4285941291
-0.029433707 -0.02692871 0.71900004 4285876011
-0.02818121 -0.02692871 0.71900004 4286534198
-0.02692871 -0.02692871 0.71900004 4286403391
-0.025676213 -0.02692871 0.71900004 4286732100
-0.024423715 -0.02692871 0.71900004 4286797113
-0.023171214 -0.02692871 0.71900004 4286139440
-0.021918718 -0.02692871 0.71900004 4286270506
-0.020666219 -0.02692871 0.71900004 4286402092
-0.019413721 -0.02692871 0.71900004 4286664760
-0.018161224 -0.02692871 0.71900004 4287191104
-0.016908726 -0.02692871 0.71900004 4286992959
-0.015656227 -0.02692871 0.71900004 4286532408
-0.014403729 -0.02692871 0.71900004 4286466854
-0.01315123 -0.02692871 0.71900004 4286993198
-0.011882184 -0.026891258 0.71800005 4286862656
-0.010631428 -0.026891258 0.71800005 4286994243
-0.0093545411 -0.026816349 0.71600002 4286666297
-0.0081072692 -0.026816349 0.71600002 4286008111
-0.0068599968 -0.026816349 0.71600002 4286139953
-0.0056127245 -0.026816349 0.71600002 4287192641
-0.0043654526 -0.026816349 0.71600002 4287192401
-0.0031181804 -0.026816349 0.71600002 4286271299
-0.0018709081 -0.026816349 0.71600002 4286400545
-0.00062363606 -0.026816349 0.71600002 4287387697
0.0006253781 -0.026891258 0.71800005 4287126607
0.0018709081 -0.026816349 0.71600002 4286797643
0.0031138253 -0.026778897 0.71500003 4286862656
0.0043593552 -0.026778897 0.71500003 4286796863
0.0056048855 -0.026778897 0.71500003 4286994245
0.0068312539 -0.026703993 0.71300006 4287717711
0.0080733001 -0.026703993 0.71300006 4287324230
0.0093153464 -0.026703993 0.71300006 4287060801
0.010557393 -0.026703993 0.71300006 4286995530
0.011782888 -0.026666539 0.71200001 4288113755
0.013023193 -0.026666539 0.71200001 4287983700
0.014263497 -0.026666539 0.71200001 4287260233
0.015503802 -0.026666539 0.71200001 4287323978
0.016767623 -0.026703993 0.71300006 4287455307
0.01800967 -0.026703993 0.71300006 4287587408
0.019251717 -0.026703993 0.71300006 4287587408
0.020493761 -0.026703993 0.71300006 4287324493
0.021705322 -0.026666539 0.71200001 4287192651
0.022881173 -0.026591634 0.71000004 4287127632
0.024117993 -0.026591634 0.71000004 4287390547
0.025354812 -0.026591634 0.71000004 4287784260
0.026666539 -0.026666539 0.71200001 4290416237
0.027906843 -0.026666539 0.71200001 4290941044
-0.052629311 -0.025997611 0.72800004 4294967295
-0.051361132 -0.025997611 0.72800004 4286213998
-0.050092958 -0.025997611 0.72800004 4284295989
-0.048824783 -0.025997611 0.72800004 4284427832
-0.047491282 -0.025961902 0.72700006 4285087761
-0.046097681 -0.025890477 0.72500002 4286008863
-0.044772889 -0.025854766 0.72400004 4286139199
-0.043511681 -0.025854766 0.72400004 4286073406
-0.04213376 -0.025783347 0.72200006 4286074158
-0.040876035 -0.025783347 0.72200006 4286074158
-0.039618313 -0.025783347 0.72200006 4286402094
-0.038360588 -0.025783347 0.72200006 4286599216
-0.037102863 -0.025783347 0.72200006 4286336562
-0.035845138 -0.025783347 0.72200006 4286007598
-0.034587413 -0.025783347 0.72200006 4286071857
-0.033283528 -0.025747633 0.72100002 4285743149
-0.032027543 -0.025747633 0.72100002 4285678119
-0.030771563 -0.025747633 0.72100002 4286204463
-0.029433707 -0.025676213 0.71900004 4286073393
-0.02818121 -0.025676213 0.71900004 4286468151
-0.027003614 -0.025747633 0.72100002 4286599737
-0.025747633 -0.025747633 0.72100002 4286862908
-0.024491651 -0.025747633 0.72100002 4286666034
-0.023235669 -0.025747633 0.72100002 4286139690
-0.021979688 -0.025747633 0.72100002 4286270004
-0.020723706 -0.025747633 0.72100002 4286335797
-0.019467723 -0.025747633 0.72100002 4286467637
-0.018211741 -0.025747633 0.72100002 4287059518
-0.016955759 -0.025747633 0.72100002 4286993461
-0.015699776 -0.025747633 0.72100002 4286532910
-0.014403729 -0.025676213 0.71900004 4286204729
-0.01315123 -0.025676213 0.71900004 4286862658
-0.011898733 -0.025676213 0.71900004 4286994247
-0.010646234 -0.025676213 0.71900004 4286862404
-0.0093937367 -0.025676213 0.71900004 4286666297
-0.0081299152 -0.025640501 0.71800005 4286468662
-0.0068791592 -0.025640501 0.71800005 4286403139
-0.0056284028 -0.025640501 0.71800005 4287324241
-0.0043776468 -0.025640501 0.71800005 4287324493
-0.0031268904 -0.025640501 0.71800005 4286403391
-0.0018761343 -0.025640501 0.71800005 4286533190
-0.0006253781 -0.025640501 0.71800005 4287388499
0.0006253781 -0.025640501 0.71800005 4287323991
0.0018761343 -0.025640501 0.71800005 4286929233
0.0031268904 -0.025640501 0.71800005 4286863427
0.0043776468 -0.025640501 0.71800005 4286863427
0.0056284028 -0.025640501 0.71800005 4287126083
0.0068791592 -0.025640501 0.71800005 4287849805
0.0081299152 -0.025640501 0.71800005 4287456063
0.0093806712 -0.025640501 0.71800005 4287192891
0.010601813 -0.025569078 0.71600002 4287061585
0.011832536 -0.025533367 0.71500003 4287587929
0.013078067 -0.025533367 0.71500003 4287786829
0.014323597 -0.025533367 0.71500003 4287523401
0.015569126 -0.025533367 0.71500003 4287455559
0.016814657 -0.025533367 0.71500003 4287587145
0.018060187 -0.025533367 0.71500003 4287653202
0.019305717 -0.025533367 0.71500003 4287456079
0.020493761 -0.025461946 0.71300006 4287258700
0.021735808 -0.025461946 0.71300006 4287126857
0.022977855 -0.025461946 0.71300006 4287127891
0.0242199 -0.025461946 0.71300006 4287456856
0.025461946 -0.025461946 0.71300006 4287982407
0.026703993 -0.025461946 0.71300006 4290416748
0.02794604 -0.025461946 0.71300006 4291006837
-0.052773893 -0.024797373 0.73000002 4294967295
-0.051502235 -0.024797373 0.73000002 4287661959
-0.050230574 -0.024797373 0.73000002 4283969087
-0.048958916 -0.024797373 0.73000002 4283574585
-0.047556605 -0.024729436 0.72800004 4284628497
-0.046288431 -0.024729436 0.72800004 4285549599
-0.044834729 -0.024627527 0.72500002 4285746488
-0.043571778 -0.024627527 0.72500002 4285746488
-0.042250473 -0.02459356 0.72400004 4286139953
-0.040989265 -0.02459356 0.72400004 4286205746
-0.039728057 -0.02459356 0.72400004 4286402355
-0.038466848 -0.02459356 0.72400004 4286402355
-0.03720564 -0.02459356 0.72400004 4286336060
-0.035944432 -0.02459356 0.72400004 4286073145
-0.034683224 -0.02459356 0.72400004 4286007086
-0.033329692 -0.024525622 0.72200006 4285875500
-0.032071967 -0.024525622 0.72200006 4285744682
-0.030771563 -0.024491651 0.72100002 4286205233
-0.029515579 -0.024491651 0.72100002 4286205496
-0.028259596 -0.024491651 0.72100002 4286468412
-0.027003614 -0.024491651 0.72100002 4286337598
-0.025747633 -0.024491651 0.72100002 4286666306
-0.024525622 -0.024525622 0.72200006 4286337335
-0.023267897 -0.024525622 0.72200006 4286073906
-0.022010174 -0.024525622 0.72200006 4286270004
-0.020752449 -0.024525622 0.72200006 4286401590
-0.019494725 -0.024525622 0.72200006 4286336312
-0.018211741 -0.024491651 0.72100002 4286928450
-0.016955759 -0.024491651 0.72100002 4286666045
-0.015699776 -0.024491651 0.72100002 4286139701
-0.014443794 -0.024491651 0.72100002 4286269491
-0.013187813 -0.024491651 0.72100002 4287059006
-0.01193183 -0.024491651 0.72100002 4286928450
-0.010675848 -0.024491651 0.72100002 4286928450
-0.0094198659 -0.024491651 0.72100002 4286993209
-0.0081412373 -0.024423715 0.71900004 4286664501
-0.0068887398 -0.024423715 0.71900004 4286533694
-0.0056362418 -0.024423715 0.71900004 4287454796
-0.0043837437 -0.024423715 0.71900004 4287324493
-0.0031312455 -0.024423715 0.71900004 4286403391
-0.0018787471 -0.024423715 0.71900004 4286532408
-0.00062624906 -0.024423715 0.71900004 4287519303
0.00062624906 -0.024423715 0.71900004 4287192401
0.0018839733 -0.024491651 0.72100002 4286929485
0.0031399552 -0.024491651 0.72100002 4287060542
0.0043837437 -0.024423715 0.71900004 4287126335
0.0056362418 -0.024423715 0.71900004 4287127109
0.0068887398 -0.024423715 0.71900004 4287587660
0.0081412373 -0.024423715 0.71900004 4287194440
0.0093806712 -0.024389746 0.71800005 4286799682
0.010631428 -0.024389746 0.71800005 4287127630
0.011882184 -0.024389746 0.71800005 4287851096
0.013096357 -0.024321808 0.71600002 4287851348
0.01434363 -0.024321808 0.71600002 4287654226
0.015569126 -0.024287838 0.71500003 4287587145
0.016814657 -0.024287838 0.71500003 4287653194
0.018060187 -0.024287838 0.71500003 4287850333
0.019305717 -0.024287838 0.71500003 4287850333
0.020551248 -0.024287838 0.71500003 4287126857
0.021735808 -0.0242199 0.71300006 4286863942
0.022977855 -0.0242199 0.71300006 4286997588
0.024287838 -0.024287838 0.71500003 4287194968
0.025533367 -0.024287838 0.71500003 4288048200
0.026778897 -0.024287838 0.71500003 4290350955
0.028024429 -0.024287838 0.71500003 4291007352
0.02926996 -0.024287838 0.71500003 4291862661
-0.054119591 -0.023557939 0.73100001 4294967295
-0.052846186 -0.023557939 0.73100001 4294967295
-0.051572785 -0.023557939 0.73100001 4289044129
-0.050230574 -0.023525711 0.73000002 4284890961
-0.048958916 -0.023525711 0.73000002 4283443515
-0.047687255 -0.023525711 0.73000002 4284956447
-0.046288431 -0.023461258 0.72800004 4285614377
-0.045020252 -0.023461258 0.72800004 4285680432
-0.043691982 -0.023429032 0.72700006 4285746481
-0.042425543 -0.023429032 0.72700006 4286139690
-0.041045878 -0.023364577 0.72500002 4286336812
-0.03978293 -0.023364577 0.72500002 4286336562
-0.038466848 -0.023332352 0.72400004 4286534198
-0.03720564 -0.023332352 0.72400004 4286599239
-0.035944432 -0.023332352 0.72400004 4286138688
-0.034683224 -0.023332352 0.72400004 4285875759
-0.033422016 -0.023332352 0.72400004 4285875759
-0.032160807 -0.023332352 0.72400004 4285876011
-0.030814242 -0.023267897 0.72200006 4286073647
-0.029515579 -0.023235669 0.72100002 4286205494
-0.028259596 -0.023235669 0.72100002 4286337081
-0.02704107 -0.023267897 0.72200006 4286533944
-0.025783347 -0.023267897 0.72200006 4286797115
-0.024525622 -0.023267897 0.72200006 4286468916
-0.023267897 -0.023267897 0.72200006 4286139951
-0.022071144 -0.023332352 0.72400004 4286139953
-0.020809935 -0.023332352 0.72400004 4286139953
-0.019494725 -0.023267897 0.72200006 4286401853
-0.018237 -0.023267897 0.72200006 4287060040
-0.016979277 -0.023267897 0.72200006 4286928953
-0.015721552 -0.023267897 0.72200006 4286402609
-0.014443794 -0.023235669 0.72100002 4286467647
-0.013187813 -0.023235669 0.72100002 4286928198
-0.01194838 -0.023267897 0.72200006 4287059004
-0.010690656 -0.023267897 0.72200006 4287256640
-0.0094198659 -0.023235669 0.72100002 4286862908
-0.0081638834 -0.023235669 0.72100002 4286402357
-0.0069079017 -0.023235669 0.72100002 4286403391
-0.005659759 -0.023267897 0.72200006 4287258700
-0.0044020345 -0.023267897 0.72200006 4287323961
-0.0031399552 -0.023235669 0.72100002 4286534446
-0.0018839733 -0.023235669 0.72100002 4286599235
-0.00062799104 -0.023235669 0.72100002 4287322957
0.00062799104 -0.023235669 0.72100002 4287192643
0.0018839733 -0.023235669 0.72100002 4286797886
0.0031399552 -0.023235669 0.72100002 4286928953
0.0043837437 -0.023171214 0.71900004 4287060540
0.0056362418 -0.023171214 0.71900004 4287126083
0.0068887398 -0.023171214 0.71900004 4287783756
0.0081412373 -0.023171214 0.71900004 4287456833
0.0093937367 -0.023171214 0.71900004 4287259198
0.010646234 -0.023171214 0.71900004 4287390034
0.011882184 -0.023138989 0.71800005 4288245343
0.01313294 -0.023138989 0.71800005 4288179534
0.014383697 -0.023138989 0.71800005 4287785033
0.015590901 -0.023074534 0.71600002 4287455827
0.016838174 -0.023074534 0.71600002 4287718999
0.018085444 -0.023074534 0.71600002 4287916389
0.019332718 -0.023074534 0.71600002 4287653474
0.02057999 -0.023074534 0.71600002 4287192651
0.021827262 -0.023074534 0.71600002 4287126857
0.023074534 -0.023074534 0.71600002 4286997590
0.024321808 -0.023074534 0.71600002 4287458141
0.025569078 -0.023074534 0.71600002 4288112710
0.026816349 -0.023074534 0.71600002 4290547051
0.028063623 -0.023074534 0.71600002 4291270008
0.029310895 -0.023074534 0.71600002 4292322697
-0.052846186 -0.022284538 0.73100001 4294967295
-0.051572785 -0.022284538 0.73100001 4289241505
-0.050299384 -0.022284538 0.73100001 4286530389
-0.048958916 -0.022254052 0.73000002 4284622392
-0.047687255 -0.022254052 0.73000002 4285217302
-0.046415593 -0.022254052 0.73000002 4286072611
-0.045143936 -0.022254052 0.73000002 4286073393
-0.043752078 -0.022193084 0.72800004 4286139186
-0.042483903 -0.022193084 0.72800004 4286336562
-0.041215725 -0.022193084 0.72800004 4286336562
-0.03978293 -0.022101626 0.72500002 4286467637
-0.038519979 -0.022101626 0.72500002 4286796602
-0.037257027 -0.022101626 0.72500002 4286796098
-0.035994079 -0.022101626 0.72500002 4286006582
-0.034731127 -0.022101626 0.72500002 4285876011
-0.033468179 -0.022101626 0.72500002 4285744682
-0.032205228 -0.022101626 0.72500002 4285549095
-0.030899599 -0.022071144 0.72400004 4285746731
-0.029638389 -0.022071144 0.72400004 4286336299
-0.028377183 -0.022071144 0.72400004 4286599470
-0.027115975 -0.022071144 0.72400004 4286599487
-0.025854766 -0.022071144 0.72400004 4286796609
-0.024627527 -0.022101626 0.72500002 4286534709
-0.023364577 -0.022101626 0.72500002 4286074158
-0.022101626 -0.022101626 0.72500002 4286139949
-0.020838678 -0.022101626 0.72500002 4286205998
-0.019575726 -0.022101626 0.72500002 4286336562
-0.018287517 -0.022071144 0.72400004 4286928699
-0.016979277 -0.022010174 0.72200006 4286797130
-0.015721552 -0.022010174 0.72200006 4286270785
-0.014523927 -0.022101626 0.72500002 4286335786
-0.013260976 -0.022101626 0.72500002 4286993715
-0.011998027 -0.022101626 0.72500002 4287059004
-0.010735076 -0.022101626 0.72500002 4287387969
-0.0094721252 -0.022101626 0.72500002 4286994495
-0.0082091754 -0.022101626 0.72500002 4286402357
-0.0069462257 -0.022101626 0.72500002 4286535229
-0.0056754365 -0.022071144 0.72400004 4287324489
-0.0044142287 -0.022071144 0.72400004 4287324230
-0.0031443106 -0.022010174 0.72200006 4286337335
-0.0018865862 -0.022010174 0.72200006 4286598442
-0.00062886212 -0.022010174 0.72200006 4287650873
0.00062886212 -0.022010174 0.72200006 4287258187
0.0018839733 -0.021979688 0.72100002 4286797636
0.0031399552 -0.021979688 0.72100002 4286665252
0.0043959371 -0.021979688 0.72100002 4287191597
0.0056519196 -0.021979688 0.72100002 4287060290
0.0068887398 -0.021918718 0.71900004 4287783756
0.0081412373 -0.021918718 0.71900004 4287588164
0.0093937367 -0.021918718 0.71900004 4287324993
0.010646234 -0.021918718 0.71900004 4287586382
0.011898733 -0.021918718 0.71900004 4288441691
0.01315123 -0.021918718 0.71900004 4288179286
0.014403729 -0.021918718 0.71900004 4287915858
0.015656227 -0.021918718 0.71900004 4287719249
0.016908726 -0.021918718 0.71900004 4287785042
0.018161224 -0.021918718 0.71900004 4287785051
0.019413721 -0.021918718 0.71900004 4287522136
0.020637477 -0.021888232 0.71800005 4287324991
0.021888232 -0.021888232 0.71800005 4287193404
0.023171214 -0.021918718 0.71900004 4287128145
0.024389746 -0.021888232 0.71800005 4287654489
0.025640501 -0.021888232 0.71800005 4288112197
0.026891258 -0.021888232 0.71800005 4290743916
0.02818121 -0.021918718 0.71900004 4291466869
0.029433707 -0.021918718 0.71900004 4292453765
0.030686205 -0.021918718 0.71900004 4292388744
-0.052990776 -0.021068621 0.73300004 4294967295
-0.051713891 -0.021068621 0.73300004 4290952893
-0.050437 -0.021068621 0.73300004 4286862173
-0.049025979 -0.021011135 0.73100001 4284427832
-0.047752578 -0.021011135 0.73100001 4285546533
-0.046479177 -0.021011135 0.73100001 4286270256
-0.045205776 -0.021011135 0.73100001 4286271539
-0.043872274 -0.020982392 0.73000002 4286468662
-0.042600613 -0.020982392 0.73000002 4286402357
-0.041328952 -0.020982392 0.73000002 4286402357
-0.039947547 -0.020924907 0.72800004 4286467637
-0.038626242 -0.020896163 0.72700006 4286862395
-0.037359808 -0.020896163 0.72700006 4286468652
-0.036093373 -0.020896163 0.72700006 4285744930
-0.034826942 -0.020896163 0.72700006 4285876011
-0.033560503 -0.020896163 0.72700006 4286007598
-0.032205228 -0.020838678 0.72500002 4286139690
-0.030942278 -0.020838678 0.72500002 4286402605
-0.029679328 -0.020838678 0.72500002 4286468652
-0.028416377 -0.020838678 0.72500002 4286534446
-0.027153427 -0.020838678 0.72500002 4286665545
-0.025890477 -0.020838678 0.72500002 4286665545
-0.024695467 -0.020896163 0.72700006 4286534709
-0.023429032 -0.020896163 0.72700006 4286271537
-0.022162598 -0.020896163 0.72700006 4286270758
-0.020896163 -0.020896163 0.72700006 4286599466
-0.01962973 -0.020896163 0.72700006 4286664760
-0.018363295 -0.020896163 0.72700006 4287059518
-0.017096862 -0.020896163 0.72700006 4286862925
-0.015830427 -0.020896163 0.72700006 4286336581
-0.014563993 -0.020896163 0.72700006 4286270254
-0.013297559 -0.020896163 0.72700006 4286862647
-0.012031124 -0.020896163 0.72700006 4287125563
-0.010735076 -0.020838678 0.72500002 4287125563
-0.0094721252 -0.020838678 0.72500002 4286994495
-0.0082091754 -0.020838678 0.72500002 4286665530
-0.0069462257 -0.020838678 0.72500002 4286797365
-0.0056832754 -0.020838678 0.72500002 4287455296
-0.0044203256 -0.020838678 0.72500002 4287324984
-0.0031573751 -0.020838678 0.72500002 4286338088
-0.0018918123 -0.020809935 0.72400004 4286336814
-0.00063060404 -0.020809935 0.72400004 4287521089
0.00063147506 -0.020838678 0.72500002 4287324984
0.0018865862 -0.020752449 0.72200006 4286666797
0.0031443106 -0.020752449 0.72200006 4286730805
0.0043959371 -0.020723706 0.72100002 4287257149
0.0056519196 -0.020723706 0.72100002 4287388739
0.0069079017 -0.020723706 0.72100002 4287783497
0.0081638834 -0.020723706 0.72100002 4287718717
0.0094198659 -0.020723706 0.72100002 4287521595
0.010675848 -0.020723706 0.72100002 4287586645
0.01193183 -0.020723706 0.72100002 4288507747
0.013187813 -0.020723706 0.72100002 4288246093
0.014403729 -0.020666219 0.71900004 4287719749
0.015656227 -0.020666219 0.71900004 4287588179
0.016955759 -0.020723706 0.72100002 4287654228
0.018211741 -0.020723706 0.72100002 4287654226
0.019413721 -0.020666219 0.71900004 4287456590
0.020666219 -0.020666219 0.71900004 4287193904
