# .PCD v0.7 - Point Cloud Data file format
VERSION 0.7
FIELDS x y z
SIZE 4 4 4
TYPE F F F
COUNT 1 1 1
WIDTH 1323
HEIGHT 1
VIEWPOINT 0 0 0 1 0 0 0
POINTS 1323
DATA ascii
0.020815108 -0.095423557 0.71763635
0.020934336 -0.096765086 0.71875197
0.021041628 -0.098185606 0.71993548
0.021104168 -0.10020711 0.72163016
0.020853404 -0.10224105 0.72337192
0.019578936 -0.10413577 0.72511595
0.015450274 -0.10530151 0.72657943
0.0095518865 -0.10549483 0.72743076
-0.0015456707 -0.10550542 0.72873515
-0.039660495 -0.086623557 0.71728677
-0.039621573 -0.087024964 0.71762019
-0.039576896 -0.087485731 0.71800292
-0.039525639 -0.088014342 0.71844202
-0.039466966 -0.088619418 0.71894461
-0.039400119 -0.089308821 0.71951723
-0.039324474 -0.090088852 0.72016519
-0.039239608 -0.090963796 0.72089189
-0.039145265 -0.091935709 0.72169924
-0.03904127 -0.093004532 0.72258699
-0.03892725 -0.094168335 0.72355354
-0.038801868 -0.095423557 0.72459573
-0.038660932 -0.096765086 0.72570878
-0.038492747 -0.098185606 0.7268852
-0.038163256 -0.10020711 0.72854877
-0.037518054 -0.10224105 0.73018593
-0.035876144 -0.10413577 0.7315895
-0.031521413 -0.10530151 0.7320627
-0.025585534 -0.10549483 0.73153251
-0.014485923 -0.10550542 0.73024571
-0.040186778 -0.08119598 0.71277839
-0.0402257 -0.080794573 0.71244496
-0.040270377 -0.080333807 0.71206224
-0.040321633 -0.079805195 0.71162319
-0.040380307 -0.079200119 0.71112055
-0.040447149 -0.078510717 0.71054792
-0.040522777 -0.077730685 0.70990002
-0.040607587 -0.076855741 0.70917326
-0.040701725 -0.075883828 0.70836592
-0.040805005 -0.074815005 0.70747805
-0.040916681 -0.073651202 0.70651126
-0.041034725 -0.07239598 0.70546818
-0.041153952 -0.071054451 0.70435256
-0.041261241 -0.069633931 0.70316911
-0.041323781 -0.067612432 0.70147437
-0.041073017 -0.06557849 0.6997326
-0.03979855 -0.063683771 0.69798857
-0.035669889 -0.06251803 0.6965251
-0.029771501 -0.06232471 0.69567376
-0.018673943 -0.062314115 0.69436938
0.01944088 -0.08119598 0.70581776
0.019401958 -0.080794573 0.70548433
0.019357281 -0.080333807 0.70510161
0.019306025 -0.079805195 0.70466256
0.019247353 -0.079200119 0.70415992
0.019180505 -0.078510717 0.70358729
0.019104859 -0.077730685 0.70293939
0.019019993 -0.076855741 0.70221263
0.018925648 -0.075883828 0.70140535
0.018821653 -0.074815005 0.70051754
0.018707633 -0.073651202 0.69955099
0.018582253 -0.07239598 0.6985088
0.018441319 -0.071054451 0.69739574
0.01827313 -0.069633931 0.69621933
0.017943643 -0.067612432 0.69455582
0.01729844 -0.06557849 0.6929186
0.015656531 -0.063683771 0.69151503
0.011301798 -0.06251803 0.69104189
0.0053659198 -0.06232471 0.69157201
-0.0057336912 -0.062314115 0.69285882
0.019462295 -0.086581931 0.71034211
0.019500565 -0.086976603 0.71066993
0.019544493 -0.087429643 0.71104622
0.019594891 -0.087949388 0.71147794
0.019652577 -0.088544324 0.71197212
0.019718302 -0.089222163 0.71253514
0.019792663 -0.089989118 0.7131722
0.01987605 -0.090849385 0.7138868
0.019968608 -0.091805004 0.71468061
0.020070158 -0.092855908 0.71555352
0.020179959 -0.09400019 0.71650416
0.020296024 -0.095234372 0.71752971
0.020413252 -0.0965534 0.71862662
0.020518744 -0.097950108 0.71979028
0.020580236 -0.099937707 0.72145659
0.020333678 -0.10193755 0.72316915
0.019080577 -0.10380049 0.72488391
0.015021147 -0.10494669 0.72632283
0.0092216618 -0.10513677 0.72715992
-0.001689811 -0.10514718 0.72844243
-0.039165527 -0.086581931 0.71718597
-0.039127257 -0.086976603 0.71751386
-0.039083328 -0.087429643 0.71789014
-0.039032932 -0.087949388 0.71832186
-0.038975243 -0.088544324 0.71881604
-0.038909517 -0.089222163 0.71937907
-0.038835142 -0.089989118 0.72001612
-0.038751699 -0.090849385 0.72073072
-0.038658936 -0.091805004 0.72152448
-0.038556684 -0.092855908 0.72239733
-0.038444575 -0.09400019 0.72334772
-0.038321298 -0.095234372 0.72437245
-0.038182728 -0.0965534 0.72546685
-0.038017359 -0.097950108 0.72662348
-0.037693396 -0.099937707 0.72825915
-0.037059013 -0.10193755 0.72986889
-0.035444632 -0.10380049 0.73124892
-0.031162921 -0.10494669 0.73171413
-0.025326574 -0.10513677 0.73119289
-0.014413082 -0.10514718 0.72992766
-0.039682984 -0.081245363 0.71275324
-0.039721254 -0.080850683 0.71242541
-0.039765183 -0.080397643 0.71204913
-0.039815579 -0.079877898 0.71161735
-0.039873268 -0.079282962 0.71112323
-0.03993899 -0.078605123 0.71056014
-0.040013351 -0.077838168 0.70992309
-0.040096737 -0.076977901 0.70920855
-0.040189296 -0.07602229 0.70841473
-0.040290847 -0.074971385 0.70754176
-0.040400647 -0.073827095 0.70659119
-0.040516712 -0.072592922 0.70556557
-0.040633939 -0.071273886 0.70446873
-0.040739432 -0.069877177 0.70330507
-0.040800925 -0.067889579 0.70163876
-0.040554367 -0.065889746 0.6999262
-0.039301265 -0.064026795 0.69821137
-0.035241835 -0.062880598 0.69677246
-0.029442351 -0.062690519 0.69593543
-0.018530877 -0.062680103 0.69465292
0.018944837 -0.081245363 0.70590931
0.018906569 -0.080850683 0.70558149
0.018862639 -0.080397643 0.7052052
0.018812243 -0.079877898 0.70477349
0.018754555 -0.079282962 0.7042793
0.018688828 -0.078605123 0.70371628
0.018614452 -0.077838168 0.70307916
0.01853101 -0.076977901 0.70236462
0.018438246 -0.07602229 0.70157087
0.018335994 -0.074971385 0.70069796
0.018223885 -0.073827095 0.69974762
0.018100608 -0.072592922 0.6987229
0.017962039 -0.071273886 0.6976285
0.017796669 -0.069877177 0.69647187
0.017472707 -0.067889579 0.6948362
0.016838321 -0.065889746 0.69322646
0.015223943 -0.064026795 0.69184637
0.010942233 -0.062880598 0.69138116
0.0051058852 -0.062690519 0.69190246
-0.0058076074 -0.062680103 0.69316769
0.018957103 -0.086539477 0.71035898
0.018994719 -0.086927414 0.7106812
0.019037899 -0.08737272 0.71105111
0.019087436 -0.087883599 0.71147549
0.019144138 -0.08846838 0.71196121
0.01920874 -0.089134648 0.71251464
0.019281831 -0.089888513 0.71314085
0.019363794 -0.090734094 0.71384323
0.019454774 -0.091673404 0.71462345
0.019554589 -0.092706367 0.71548152
0.019662516 -0.093831122 0.71641588
0.019776599 -0.095044233 0.71742398
0.019891828 -0.096340753 0.7185021
0.01999552 -0.097713619 0.71964592
0.020055961 -0.099667296 0.72128379
0.01981361 -0.101633 0.72296709
0.018581901 -0.10346414 0.72465265
0.014591759 -0.10459077 0.72606701
0.0088912612 -0.10477761 0.72688973
-0.0018339668 -0.10478785 0.72815037
-0.038670026 -0.086539477 0.71708608
-0.038632408 -0.086927414 0.7174083
-0.038589228 -0.08737272 0.71777821
-0.038539693 -0.087883599 0.71820259
-0.03848299 -0.08846838 0.71868831
-0.038418382 -0.089134648 0.71924174
-0.038345277 -0.089888513 0.71986794
-0.038263258 -0.090734094 0.72057027
-0.038172081 -0.091673404 0.72135049
-0.038071573 -0.092706367 0.7222085
-0.037961379 -0.093831122 0.72314262
-0.037840202 -0.095044233 0.72414988
-0.037703998 -0.096340753 0.72522557
-0.037541453 -0.097713619 0.72636247
-0.037223019 -0.099667296 0.72797024
-0.036599465 -0.101633 0.72955245
-0.03501264 -0.10346414 0.73090899
-0.030804012 -0.10459077 0.73136628
-0.025067283 -0.10477761 0.73085392
-0.014340068 -0.10478785 0.72961026
-0.039178651 -0.081293993 0.71272898
-0.039216265 -0.080906056 0.71240675
-0.039259445 -0.08046075 0.71203685
-0.03930898 -0.079949878 0.71161252
-0.039365683 -0.079365097 0.7111268
-0.039430287 -0.078698829 0.71057332
-0.039503377 -0.077944964 0.70994717
-0.039585341 -0.077099375 0.70924479
-0.03967632 -0.076160073 0.70846456
-0.039776135 -0.07512711 0.70760649
-0.039884064 -0.074002355 0.70667207
-0.039998148 -0.072789244 0.70566404
-0.040113375 -0.071492724 0.70458585
-0.040217068 -0.070119858 0.70344204
-0.040277507 -0.068166181 0.70180422
-0.040035158 -0.06620048 0.70012087
-0.038803447 -0.064369328 0.69843537
-0.034813307 -0.063242696 0.69702101
-0.029112808 -0.063055865 0.69619823
-0.01838758 -0.063045628 0.69493759
0.018448478 -0.081293993 0.70600188
0.018410861 -0.080906056 0.70567966
0.018367682 -0.08046075 0.70530975
0.018318146 -0.079949878 0.70488542
0.018261444 -0.079365097 0.7043997
0.018196836 -0.078698829 0.70384628
0.018123731 -0.077944964 0.70322007
0.018041711 -0.077099375 0.70251769
0.017950533 -0.076160073 0.70173746
0.017850026 -0.07512711 0.70087951
0.017739831 -0.074002355 0.69994539
0.017618658 -0.072789244 0.69893813
0.017482452 -0.071492724 0.69786239
0.017319907 -0.070119858 0.69672549
0.017001472 -0.068166181 0.69511777
0.016377917 -0.06620048 0.69353551
0.014791094 -0.064369328 0.69217902
0.010582466 -0.063242696 0.69172174
0.0048457361 -0.063055865 0.6922341
-0.0058814781 -0.063045628 0.69347769
0.018451542 -0.086496353 0.71037668
0.018488504 -0.086877547 0.7106933
0.018530931 -0.08731512 0.71105677
0.018579608 -0.08781711 0.71147376
0.018635325 -0.088391729 0.71195102
0.018698802 -0.089046419 0.71249485
0.018770622 -0.089787178 0.71311015
0.018851163 -0.090618066 0.71380031
0.018940562 -0.091541044 0.71456701
0.019038642 -0.092556059 0.71541011
0.019144693 -0.093661264 0.71632832
0.019256793 -0.094853289 0.71731883
0.019370018 -0.096127272 0.71837825
0.019471908 -0.097476281 0.71950215
0.019531298 -0.099395998 0.72111154
0.019293161 -0.10132754 0.72276562
0.018082859 -0.10312685 0.72442186
0.014162067 -0.10423391 0.72581166
0.008560651 -0.1044175 0.72662008
-0.0019781652 -0.10442755 0.72785884
-0.038173985 -0.086496353 0.71698684
-0.038137022 -0.086877547 0.71730345
-0.038094595 -0.08731512 0.71766692
-0.038045917 -0.08781711 0.71808392
-0.037990201 -0.088391729 0.71856123
-0.037926715 -0.089046419 0.71910501
-0.03785488 -0.089787178 0.7197203
-0.037774287 -0.090618066 0.72041047
-0.037684694 -0.091541044 0.72117716
-0.037585933 -0.092556059 0.72202021
-0.037477653 -0.093661264 0.72293812
-0.037358586 -0.094853289 0.72392786
-0.037224747 -0.096127272 0.72498482
-0.037065029 -0.097476281 0.72610199
-0.036752127 -0.099395998 0.72768182
-0.03613941 -0.10132754 0.72923654
-0.034580167 -0.10312685 0.73056948
-0.030444687 -0.10423391 0.73101884
-0.024807669 -0.1044175 0.73051536
-0.014266902 -0.10442755 0.72929335
-0.03867377 -0.081342041 0.71270549
-0.038710732 -0.080960847 0.71238881
-0.038753159 -0.080523282 0.7120254
-0.038801838 -0.080021285 0.71160841
-0.038857553 -0.079446666 0.7111311
-0.038921032 -0.078791976 0.71058726
-0.038992852 -0.078051217 0.70997196
-0.039073393 -0.077220328 0.7092818
-0.039162792 -0.07629735 0.70851517
-0.039260872 -0.075282335 0.707672
-0.039366923 -0.074177131 0.70675385
-0.039479021 -0.072985105 0.70576328
-0.039592247 -0.071711123 0.70470387
-0.039694138 -0.070362121 0.70357996
-0.039753526 -0.068442397 0.70197058
-0.039515391 -0.066510864 0.70031649
-0.038305089 -0.064711541 0.69866025
-0.034384295 -0.063604489 0.69727051
-0.02878288 -0.063420907 0.69646204
-0.018244063 -0.063410841 0.69522333
0.017951757 -0.081342041 0.70609528
0.017914794 -0.080960847 0.70577866
0.017872365 -0.080523282 0.70541519
0.017823689 -0.080021285 0.7049982
0.017767971 -0.079446666 0.70452094
0.017704487 -0.078791976 0.70397711
0.017632652 -0.078051217 0.70336181
0.017552059 -0.077220328 0.70267165
0.017462466 -0.07629735 0.70190501
0.017363705 -0.075282335 0.7010619
0.017255425 -0.074177131 0.70014405
0.017136358 -0.072985105 0.69915432
0.017002519 -0.071711123 0.69809729
0.016842799 -0.070362121 0.69698012
0.016529899 -0.068442397 0.69540036
0.015917182 -0.066510864 0.69384557
0.014357939 -0.064711541 0.69251263
0.010222459 -0.063604489 0.69206333
0.0045854398 -0.063420907 0.69256681
-0.0059553273 -0.063410841 0.69378877
0.017945567 -0.08645267 0.71039498
0.017981876 -0.086827114 0.710706
0.018023552 -0.087256938 0.71106303
0.018071366 -0.087750047 0.71147263
0.018126097 -0.088314489 0.71194148
0.018188452 -0.088957585 0.71247566
0.018259002 -0.089685231 0.71308005
0.018338116 -0.090501405 0.71375799
0.018425928 -0.091408044 0.7145111
0.018522274 -0.092405088 0.7153393
0.018626446 -0.093490727 0.71624124
0.018736564 -0.094661646 0.71721423
0.018847784 -0.095913075 0.71825492
0.01894787 -0.097238198 0.71935892
0.019006209 -0.099123925 0.72093982
0.018772287 -0.10102127 0.72256458
0.017583413 -0.10278873 0.72419149
0.01373204 -0.10387618 0.72555667
0.0082297977 -0.10405651 0.72635084
-0.0021224292 -0.10406639 0.72756761
-0.0376774 -0.08645267 0.71688813
-0.037641093 -0.086827114 0.71719915
-0.037599415 -0.087256938 0.71755618
-0.0375516 -0.087750047 0.71796578
-0.037496869 -0.088314489 0.71843463
-0.037434511 -0.088957585 0.71896881
-0.037363946 -0.089685231 0.7195732
-0.03728478 -0.090501405 0.72025114
-0.03719677 -0.091408044 0.72100419
-0.03709976 -0.092405088 0.72183233
-0.036993396 -0.093490727 0.72273397
-0.03687644 -0.094661646 0.72370619
-0.036744971 -0.095913075 0.7247445
-0.036588077 -0.097238198 0.72584188
-0.036280718 -0.099123925 0.72739375
-0.035678849 -0.10102127 0.72892094
-0.034147214 -0.10278873 0.73023027
-0.030084951 -0.10387618 0.73067164
-0.024547735 -0.10405651 0.7301771
-0.014193594 -0.10406639 0.72897673
-0.038168337 -0.081389613 0.71268255
-0.038204644 -0.08101517 0.71237153
-0.038246322 -0.080585353 0.7120145
-0.038294137 -0.080092244 0.71160489
-0.038348865 -0.079527803 0.71113604
-0.038411222 -0.078884698 0.71060187
-0.038481768 -0.07815706 0.70999748
-0.038560882 -0.077340879 0.70931953
-0.038648698 -0.07643424 0.70856643
-0.038745042 -0.075437203 0.70773816
-0.038849216 -0.074351564 0.70683628
-0.038959332 -0.073180638 0.7058633
-0.039070554 -0.071929216 0.7048226
-0.039170638 -0.070604093 0.7037186
-0.039228979 -0.068718359 0.70213771
-0.038995057 -0.066821024 0.70051295
-0.037806183 -0.06505356 0.69888604
-0.03395481 -0.06396611 0.69752085
-0.028452566 -0.063785769 0.69672668
-0.01810034 -0.06377589 0.69550991
0.017454632 -0.081389613 0.70618939
0.017418323 -0.08101517 0.70587838
0.017376646 -0.080585353 0.70552135
0.017328832 -0.080092244 0.70511174
0.0172741 -0.079527803 0.70464289
0.017211741 -0.078884698 0.70410872
0.017141178 -0.07815706 0.70350432
0.017062012 -0.077340879 0.70282638
0.016974002 -0.07643424 0.70207328
0.016876992 -0.075437203 0.70124513
0.016770629 -0.074351564 0.70034349
0.01665367 -0.073180638 0.69937128
0.016522203 -0.071929216 0.69833302
0.016365308 -0.070604093 0.69723564
0.016057951 -0.068718359 0.69568378
0.01545608 -0.066821024 0.69415659
0.013924444 -0.06505356 0.69284725
0.0098621836 -0.06396611 0.69240588
0.0043249675 -0.063785769 0.69290042
-0.0060291756 -0.06377589 0.6941008
0.017439146 -0.086408533 0.71041375
0.017474798 -0.086776219 0.71071923
0.017515725 -0.087198287 0.71106976
0.017562676 -0.0876825 0.71147197
0.017616419 -0.088236757 0.71193236
0.01767765 -0.088868253 0.71245694
0.017746925 -0.089582771 0.71305043
0.017824611 -0.090384223 0.71371615
0.017910842 -0.0912745 0.71445566
0.018005449 -0.092253551 0.71526891
0.018107742 -0.093319602 0.71615458
0.01821587 -0.094469398 0.71711004
0.018325085 -0.095698252 0.7181319
0.018423365 -0.096999459 0.71921599
0.018480651 -0.098851167 0.72076839
0.018250952 -0.10071427 0.72236383
0.017083526 -0.10244985 0.72396141
0.01330164 -0.10351768 0.72530192
0.0078986697 -0.10369477 0.72608173
-0.0022667802 -0.10370447 0.72727656
-0.03718026 -0.086408533 0.71678978
-0.037144609 -0.086776219 0.7170952
-0.037103683 -0.087198287 0.71744579
-0.037056733 -0.0876825 0.717848
-0.037002988 -0.088236757 0.71830839
-0.036941756 -0.088868253 0.71883291
-0.036872465 -0.089582771 0.71942639
-0.036794726 -0.090384223 0.72009212
-0.036708307 -0.0912745 0.72083163
-0.036613047 -0.092253551 0.72164482
-0.036508601 -0.093319602 0.72253019
-0.03639375 -0.094469398 0.72348487
-0.036264654 -0.095698252 0.72450441
-0.036110595 -0.096999459 0.725582
-0.035808779 -0.098851167 0.72710586
-0.035217769 -0.10071427 0.72860551
-0.033713765 -0.10244985 0.72989124
-0.029724797 -0.10351768 0.73032463
-0.024287485 -0.10369477 0.72983903
-0.014120153 -0.10370447 0.72866029
-0.037662338 -0.081436828 0.71266007
-0.037697993 -0.081069134 0.71235466
-0.037738919 -0.080647066 0.71200407
-0.037785869 -0.08016286 0.71160185
-0.037839614 -0.079608604 0.71114147
-0.037900843 -0.078977101 0.71061695
-0.037970118 -0.07826259 0.71002346
-0.038047805 -0.077461138 0.70935774
-0.038134038 -0.076570854 0.70861822
-0.038228642 -0.075591803 0.70780492
-0.038330935 -0.074525751 0.70691931
-0.038439065 -0.073375955 0.70596385
-0.03854828 -0.072147109 0.70494199
-0.03864656 -0.070845895 0.7038579
-0.038703844 -0.068994187 0.7023055
-0.038474146 -0.06713108 0.70071006
-0.037306722 -0.065395504 0.69911247
-0.033524834 -0.064327672 0.69777191
-0.028121863 -0.064150594 0.6969921
-0.017956413 -0.064140886 0.69579726
0.016957067 -0.081436828 0.70628411
0.016921414 -0.081069134 0.70597869
0.01688049 -0.080647066 0.7056281
0.016833538 -0.08016286 0.70522588
0.016779795 -0.079608604 0.7047655
0.016718561 -0.078977101 0.70424098
0.01664927 -0.07826259 0.70364743
0.016571531 -0.077461138 0.70298177
0.016485112 -0.076570854 0.70224226
0.016389851 -0.075591803 0.70142907
0.016285408 -0.074525751 0.7005437
0.016170558 -0.073375955 0.69958901
0.016041461 -0.072147109 0.69856942
0.0158874 -0.070845895 0.69749188
0.015585585 -0.068994187 0.69596803
0.014994575 -0.06713108 0.69446838
0.013490573 -0.065395504 0.69318265
0.0095016034 -0.064327672 0.69274926
0.0040642908 -0.064150594 0.69323486
-0.0061030407 -0.064140886 0.6944136
0.016932245 -0.086364016 0.71043301
0.016967243 -0.086724944 0.71073282
0.017007414 -0.087139241 0.71107697
0.017053502 -0.087614551 0.71147174
0.017106257 -0.088158615 0.71192366
0.017166361 -0.088778496 0.71243858
0.017234363 -0.089479871 0.71302116
0.017310621 -0.090266578 0.7136746
0.017395265 -0.091140486 0.71440053
0.017488129 -0.092101529 0.71519887
0.017588543 -0.093147971 0.71606821
0.017694684 -0.094276622 0.71700609
0.01780189 -0.095482871 0.71800917
0.01789836 -0.096760146 0.71907336
0.017954594 -0.098577797 0.72059715
0.017729118 -0.10040664 0.72216326
0.016583167 -0.10211029 0.72373146
0.012870838 -0.10315848 0.72504735
0.0075672432 -0.1033323 0.72581279
-0.0024112349 -0.10334183 0.72698563
-0.036682561 -0.086364016 0.71669173
-0.036647566 -0.086724944 0.71699154
-0.036607392 -0.087139241 0.71733564
-0.036561303 -0.087614551 0.71773046
-0.036508549 -0.088158615 0.71818238
-0.036448441 -0.088778496 0.71869731
-0.036380425 -0.089479871 0.71927989
-0.036304116 -0.090266578 0.71993333
-0.036219284 -0.091140486 0.72065926
-0.036125775 -0.092101529 0.72145748
-0.036023255 -0.093147971 0.72232658
-0.035910517 -0.094276622 0.72326368
-0.035783798 -0.095482871 0.7242645
-0.035632566 -0.096760146 0.72532225
-0.035336304 -0.098577797 0.72681808
-0.034756165 -0.10040664 0.72829014
-0.033279825 -0.10211029 0.72955221
-0.029364223 -0.10315848 0.72997767
-0.024026917 -0.1033323 0.72950095
-0.014046593 -0.10334183 0.7283439
-0.037155773 -0.081483752 0.71263802
-0.037190769 -0.081122823 0.71233821
-0.037230942 -0.080708519 0.71199405
-0.037277032 -0.080233216 0.71159923
-0.037329786 -0.079689153 0.71114731
-0.037389889 -0.079069272 0.71063244
-0.037457891 -0.078367896 0.71004987
-0.037534151 -0.07758119 0.70939636
-0.037618794 -0.076707281 0.7086705
-0.037711658 -0.075746238 0.70787215
-0.037812073 -0.074699789 0.70700282
-0.03791821 -0.073571146 0.70606494
-0.038025416 -0.072364897 0.70506185
-0.03812189 -0.071087621 0.70399767
-0.03817812 -0.069269963 0.70247388
-0.037952647 -0.067441128 0.70090777
-0.036806695 -0.065737478 0.69933957
-0.033094365 -0.064689286 0.69802368
-0.027790772 -0.064515464 0.69725823
-0.017812293 -0.064505935 0.69608533
0.016459033 -0.081483752 0.70637929
0.016424036 -0.081122823 0.70607948
0.016383864 -0.080708519 0.70573533
0.016337775 -0.080233216 0.70534056
0.016285021 -0.079689153 0.70488864
0.016224911 -0.079069272 0.70437372
0.016156897 -0.078367896 0.70379114
0.01608059 -0.07758119 0.70313764
0.015995758 -0.076707281 0.70241177
0.015902249 -0.075746238 0.70161355
0.015799725 -0.074699789 0.70074445
0.015686989 -0.073571146 0.69980735
0.015560268 -0.072364897 0.69880652
0.015409038 -0.071087621 0.69774878
0.015112775 -0.069269963 0.69625294
0.014532636 -0.067441128 0.69478089
0.013056297 -0.065737478 0.69351882
0.0091406945 -0.064689286 0.69309336
0.0038033901 -0.064515464 0.69357008
-0.0061769355 -0.064505935 0.69472712
0.016424825 -0.086319186 0.71045256
0.016459167 -0.086673342 0.71074677
0.016498586 -0.087079875 0.71108443
0.016543809 -0.087546259 0.71147186
0.016595574 -0.088080116 0.71191525
0.016654551 -0.088688374 0.71242052
0.016721277 -0.089376591 0.71299219
0.016796105 -0.090148546 0.71363342
0.01687916 -0.091006055 0.71434569
0.016970284 -0.091949075 0.71512902
0.017068813 -0.092975892 0.71598208
0.017172962 -0.094083369 0.71690232
0.017278155 -0.09526699 0.71788663
0.017372821 -0.096520305 0.71893084
0.017427998 -0.098303862 0.72042602
0.017206751 -0.10009839 0.72196281
0.016082294 -0.1017701 0.72350156
0.012439604 -0.10279862 0.72479278
0.0072354926 -0.10296918 0.72554386
-0.0025558113 -0.10297853 0.7266947
-0.036184277 -0.086319186 0.71659392
-0.036149938 -0.086673342 0.71688807
-0.03611052 -0.087079875 0.71722573
-0.036065295 -0.087546259 0.71761316
-0.036013532 -0.088080116 0.71805662
-0.03595455 -0.088688374 0.71856183
-0.035887811 -0.089376591 0.7191335
-0.035812933 -0.090148546 0.71977472
-0.035729695 -0.091006055 0.720487
-0.035637941 -0.091949075 0.72127026
-0.03553734 -0.092975892 0.72212303
-0.035426717 -0.094083369 0.72304255
-0.035302371 -0.09526699 0.72402459
-0.035153981 -0.096520305 0.72506255
-0.034863275 -0.098303862 0.72653025
-0.034294017 -0.10009839 0.72797471
-0.03284537 -0.1017701 0.72921312
-0.02900322 -0.10279862 0.72963059
-0.02376603 -0.10296918 0.72916281
-0.013972914 -0.10297853 0.72802752
-0.036648616 -0.081530467 0.71261621
-0.036682956 -0.081176311 0.712322
-0.036722373 -0.080769777 0.71198434
-0.036767598 -0.080303386 0.71159697
-0.036819361 -0.079769529 0.71115351
-0.03687834 -0.079161279 0.71064824
-0.036945064 -0.078473054 0.71007663
-0.037019894 -0.077701107 0.7094354
-0.037102949 -0.07684359 0.70872307
-0.037194073 -0.07590057 0.70793974
-0.037292603 -0.07487376 0.70708674
-0.037396751 -0.073766284 0.70616645
-0.037501946 -0.072582662 0.70518214
-0.037596609 -0.07132934 0.70413798
-0.037651785 -0.069545783 0.70264274
-0.03743054 -0.067751251 0.70110595
-0.036306083 -0.066079557 0.6995672
-0.032663394 -0.065051027 0.69827598
-0.027459282 -0.064880461 0.69752491
-0.017667977 -0.064871117 0.69637406
0.01596049 -0.081530467 0.7064749
0.015926149 -0.081176311 0.70618069
0.01588673 -0.080769777 0.70584303
0.015841506 -0.080303386 0.7054556
0.015789742 -0.079769529 0.7050122
0.015730761 -0.079161279 0.70450693
0.015664021 -0.078473054 0.70393527
0.015589145 -0.077701107 0.7032941
0.015505904 -0.07684359 0.70258182
0.01541415 -0.07590057 0.70179856
0.01531355 -0.07487376 0.70094573
0.015202928 -0.073766284 0.70002621
0.015078583 -0.072582662 0.69904417
0.014930192 -0.07132934 0.69800627
0.014639486 -0.069545783 0.69653851
0.014070229 -0.067751251 0.69509405
0.012621581 -0.066079557 0.69385564
0.0087794298 -0.065051027 0.69343817
0.0035422409 -0.064880461 0.69390595
-0.0062508755 -0.064871117 0.69504124
0.015916856 -0.086274095 0.7104724
0.01595054 -0.086621471 0.71076095
0.015989205 -0.087020218 0.71109217
0.016033562 -0.087477684 0.71147215
0.016084338 -0.088001326 0.71190709
0.016142186 -0.088597938 0.7124027
0.016207634 -0.089272983 0.7129634
0.016281029 -0.090030164 0.71359235
0.016362496 -0.090871267 0.71429104
0.016451877 -0.091796234 0.71505934
0.016548518 -0.092803396 0.71589607
0.016650675 -0.093889683 0.71679872
0.016753856 -0.095050648 0.7177642
0.016846707 -0.096279986 0.71878839
0.01690083 -0.098029405 0.72025502
0.016683817 -0.09978959 0.72176236
0.015580881 -0.1014293 0.72327167
0.012007905 -0.10243814 0.72453815
0.0069033918 -0.10260544 0.72527486
-0.002700523 -0.10261461 0.72640371
-0.035685401 -0.086274095 0.71649617
-0.035651717 -0.086621471 0.71678472
-0.035613053 -0.087020218 0.71711594
-0.035568696 -0.087477684 0.71749592
-0.03551792 -0.088001326 0.71793091
-0.035460066 -0.088597938 0.71842647
-0.035394605 -0.089272983 0.71898717
-0.035321161 -0.090030164 0.71961612
-0.035239514 -0.090871267 0.72031474
-0.035149515 -0.091796234 0.72108305
-0.035050839 -0.092803396 0.72191954
-0.034942336 -0.093889683 0.72282147
-0.03482037 -0.095050648 0.72378469
-0.03467482 -0.096279986 0.72480273
-0.034389678 -0.098029405 0.72624242
-0.033831313 -0.09978959 0.72765923
-0.032410391 -0.1014293 0.72887391
-0.028641772 -0.10243814 0.72928339
-0.023504814 -0.10260544 0.72882462
-0.013899121 -0.10261461 0.72771096
-0.036140848 -0.081577018 0.71259463
-0.036174532 -0.081229642 0.71230608
-0.036213197 -0.080830887 0.71197486
-0.036257554 -0.080373429 0.71159488
-0.03630833 -0.079849787 0.71115994
-0.036366176 -0.079253174 0.71066433
-0.036431625 -0.078578129 0.71010363
-0.036505021 -0.077820949 0.70947468
-0.036586486 -0.076979846 0.708776
-0.036675867 -0.076054871 0.70800769
-0.036772512 -0.075047709 0.70717096
-0.036874667 -0.073961429 0.70626831
-0.03697785 -0.072800465 0.70530283
-0.037070699 -0.071571127 0.70427865
-0.03712482 -0.069821708 0.70281202
-0.036907807 -0.068061516 0.70130467
-0.035804871 -0.066421814 0.69979537
-0.032231897 -0.065412968 0.69852889
-0.027127383 -0.065245673 0.69779217
-0.017523469 -0.065236501 0.69666332
0.015461408 -0.081577018 0.70657086
0.015427724 -0.081229642 0.70628232
0.01538906 -0.080830887 0.70595109
0.015344703 -0.080373429 0.70557112
0.015293928 -0.079849787 0.70513612
0.015236076 -0.079253174 0.70464057
0.015170612 -0.078578129 0.70407987
0.015097169 -0.077820949 0.70345092
0.015015521 -0.076979846 0.70275229
0.014925524 -0.076054871 0.70198399
0.014826849 -0.075047709 0.7011475
0.014718344 -0.073961429 0.70024556
0.014596379 -0.072800465 0.69928235
0.014450828 -0.071571127 0.6982643
0.014165686 -0.069821708 0.69682461
0.013607321 -0.068061516 0.69540781
0.012186401 -0.066421814 0.69419312
0.0084177805 -0.065412968 0.69378364
0.0032808231 -0.065245673 0.69424248
-0.00632487 -0.065236501 0.69535607
0.015408305 -0.086228773 0.71049249
0.01544133 -0.086569369 0.71077538
0.01547924 -0.086960331 0.7111001
0.015522731 -0.087408856 0.71147269
0.015572513 -0.087922268 0.71189916
0.01562923 -0.088507228 0.71238506
0.015693402 -0.089169085 0.71293479
0.015765361 -0.089911476 0.71355146
0.015845239 -0.090736143 0.7142365
0.015932873 -0.09164305 0.71498984
0.016027628 -0.092630535 0.71581018
0.016127788 -0.093695596 0.71669519
0.016228953 -0.094833881 0.71764177
0.01631999 -0.096039206 0.71864599
0.016373055 -0.097754449 0.72008395
0.016160281 -0.099480256 0.72156185
0.015078892 -0.10108793 0.72304171
0.011575714 -0.10207706 0.72428346
0.0065709171 -0.10224109 0.72500581
-0.0028453846 -0.10225008 0.72611254
-0.0351859 -0.086228773 0.7163986
-0.035152875 -0.086569369 0.71668148
-0.035114966 -0.086960331 0.71700621
-0.035071477 -0.087408856 0.7173788
-0.035021693 -0.087922268 0.71780527
-0.034964968 -0.088507228 0.71829116
-0.034900788 -0.089169085 0.7188409
-0.034828778 -0.089911476 0.71945757
-0.034748726 -0.090736143 0.72014254
-0.034660485 -0.09164305 0.72089583
-0.034563739 -0.092630535 0.72171593
-0.034457352 -0.093695596 0.72260028
-0.03433777 -0.094833881 0.72354472
-0.034195062 -0.096039206 0.72454286
-0.03391549 -0.097754449 0.72595441
-0.033368032 -0.099480256 0.72734356
-0.031974871 -0.10108793 0.72853452
-0.028279871 -0.10207706 0.72893596
-0.023243263 -0.10224109 0.72848612
-0.013825218 -0.10225008 0.72739428
-0.035632454 -0.081623465 0.71257323
-0.035665479 -0.081282869 0.71229035
-0.035703387 -0.080891907 0.71196556
-0.03574688 -0.080443382 0.71159303
-0.035796661 -0.07992997 0.71116656
-0.035853378 -0.07934501 0.71068066
-0.03591755 -0.078683153 0.71013087
-0.035989512 -0.077940762 0.70951426
-0.036069386 -0.077116095 0.70882922
-0.036157019 -0.076209195 0.70807588
-0.036251776 -0.075221702 0.70725554
-0.036351938 -0.074156642 0.70637047
-0.036453102 -0.073018357 0.70542389
-0.03654414 -0.071813032 0.70441967
-0.036597203 -0.070097789 0.70298171
-0.03638443 -0.068371989 0.70150381
-0.035303041 -0.066764317 0.70002401
-0.031799864 -0.065775178 0.69878227
-0.026795065 -0.065611146 0.69805992
-0.017378764 -0.065602161 0.69695312
0.014961753 -0.081623465 0.70666713
0.014928727 -0.081282869 0.70638418
0.014890818 -0.080891907 0.70605946
0.014847327 -0.080443382 0.70568693
0.014797544 -0.07992997 0.70526046
0.014740821 -0.07934501 0.70477456
0.014676638 -0.078683153 0.70422477
0.014604629 -0.077940762 0.70360816
0.014524578 -0.077116095 0.70292312
0.014436338 -0.076209195 0.7021699
0.01433959 -0.075221702 0.70134974
0.014233205 -0.074156642 0.70046544
0.014113623 -0.073018357 0.69952101
0.013970913 -0.071813032 0.69852281
0.013691343 -0.070097789 0.69711131
0.013143885 -0.068371989 0.69572216
0.011750722 -0.066764317 0.6945312
0.0080557223 -0.065775178 0.69412971
0.0030191152 -0.065611146 0.69457954
-0.0063989297 -0.065602161 0.69567138
0.014899134 -0.086183272 0.7105127
0.014931501 -0.086517073 0.71078998
0.014968654 -0.086900234 0.71110827
0.015011277 -0.087339818 0.71147335
0.015060067 -0.087842986 0.71189129
0.015115653 -0.088416271 0.71236753
0.015178543 -0.089064926 0.7129063
0.01524907 -0.089792505 0.71351069
0.015327351 -0.090600729 0.71418202
0.015413237 -0.091489539 0.71492034
0.015506103 -0.092457324 0.71572435
0.015604264 -0.093501136 0.71659172
0.015703412 -0.094616719 0.7175194
0.015792632 -0.095797993 0.71850359
0.015844639 -0.097479023 0.71991289
0.015636109 -0.099170394 0.72136128
0.014576293 -0.100746 0.72281158
0.011143 -0.1017154 0.72402853
0.0062380452 -0.10187616 0.72473651
-0.0029904093 -0.10188497 0.7258212
-0.034685761 -0.086183272 0.71630096
-0.034653392 -0.086517073 0.71657825
-0.034616239 -0.086900234 0.71689653
-0.034573618 -0.087339818 0.71726167
-0.034524828 -0.087842986 0.71767962
-0.034469236 -0.088416271 0.7181558
-0.034406334 -0.089064926 0.71869463
-0.034335762 -0.089792505 0.71929896
-0.034257304 -0.090600729 0.71997029
-0.034170825 -0.091489539 0.72070855
-0.034076009 -0.092457324 0.72151232
-0.033971746 -0.093501136 0.72237897
-0.033854548 -0.094616719 0.72330457
-0.033714686 -0.095797993 0.7242828
-0.033440694 -0.097479023 0.72566617
-0.032904159 -0.099170394 0.7270276
-0.031538788 -0.100746 0.72819483
-0.027917499 -0.1017154 0.72858828
-0.022981368 -0.10187616 0.72814739
-0.013751204 -0.10188497 0.72707736
-0.035123404 -0.081669837 0.71255195
-0.035155769 -0.081336036 0.71227467
-0.035192922 -0.080952875 0.71195644
-0.035235547 -0.080513291 0.7115913
-0.035284337 -0.080010124 0.71117336
-0.035339922 -0.079436839 0.71069717
-0.035402812 -0.078788176 0.71015835
-0.035473339 -0.078060605 0.70955402
-0.035551619 -0.077252381 0.70888263
-0.035637505 -0.076363571 0.70814431
-0.035730373 -0.075395785 0.70734036
-0.035828535 -0.074351974 0.70647293
-0.035927679 -0.073236391 0.70554525
-0.0360169 -0.072055116 0.70456105
-0.036068909 -0.070374086 0.70315182
-0.035860378 -0.068682715 0.70170337
-0.034800563 -0.067107111 0.70025307
-0.031367268 -0.066137709 0.69903612
-0.026462315 -0.065976948 0.6983282
-0.01723386 -0.065968141 0.69724345
0.01446149 -0.081669837 0.70676368
0.014429124 -0.081336036 0.7064864
0.014391971 -0.080952875 0.70616812
0.014349348 -0.080513291 0.70580298
0.014300558 -0.080010124 0.70538503
0.014244967 -0.079436839 0.70490885
0.014182064 -0.078788176 0.70437008
0.014111492 -0.078060605 0.70376569
0.014033036 -0.077252381 0.70309436
0.013946556 -0.076363571 0.70235616
0.01385174 -0.075395785 0.70155239
0.013747476 -0.074351974 0.70068568
0.01363028 -0.073236391 0.69976008
0.013490418 -0.072055116 0.69878185
0.013216425 -0.070374086 0.69739848
0.012679889 -0.068682715 0.69603705
0.011314518 -0.067107111 0.69486988
0.0076932292 -0.066137709 0.69447637
0.0027570985 -0.065976948 0.69491726
-0.0064730644 -0.065968141 0.69598728
0.014389315 -0.086137615 0.71053308
0.014421022 -0.086464606 0.7108047
0.014457418 -0.086839959 0.71111649
0.014499173 -0.08727058 0.71147418
0.014546967 -0.087763496 0.7118836
0.014601422 -0.088325098 0.71235007
0.01466303 -0.088960536 0.71287793
0.014732118 -0.089673281 0.71346998
0.014808806 -0.090465032 0.7141276
0.014892939 -0.091335721 0.7148509
0.014983911 -0.092283785 0.71563852
0.015080074 -0.093306325 0.71648818
0.015177201 -0.094399169 0.71739697
0.015264603 -0.095556371 0.71836108
0.015315549 -0.097203135 0.71974164
0.015111271 -0.098860033 0.72116053
0.014073053 -0.10040352 0.72258127
0.010709737 -0.10135317 0.72377348
0.0059047542 -0.10151065 0.72446698
-0.0031356087 -0.10151928 0.72552955
-0.034184951 -0.086137615 0.71620339
-0.034153245 -0.086464606 0.71647501
-0.034116849 -0.086839959 0.7167868
-0.034075096 -0.08727058 0.71714449
-0.034027301 -0.087763496 0.71755391
-0.033972844 -0.088325098 0.71802044
-0.033911224 -0.088960536 0.71854824
-0.033842087 -0.089673281 0.71914023
-0.033765234 -0.090465032 0.71979791
-0.033680514 -0.091335721 0.72052109
-0.033587631 -0.092283785 0.72130847
-0.033485491 -0.093306325 0.72215748
-0.033370685 -0.094399169 0.72306424
-0.033233672 -0.095556371 0.72402257
-0.032965261 -0.097203135 0.72537774
-0.032439664 -0.098860033 0.72671139
-0.031102121 -0.10040352 0.72785479
-0.027554641 -0.10135317 0.72824025
-0.022719117 -0.10151065 0.72780836
-0.01367708 -0.10151928 0.72676009
-0.034613676 -0.081716165 0.71253079
-0.034645382 -0.081389166 0.71225917
-0.034681778 -0.081013814 0.71194738
-0.034723535 -0.0805832 0.71158969
-0.034771331 -0.080090284 0.71118027
-0.034825783 -0.079528682 0.71071374
-0.034887392 -0.078893244 0.71018595
-0.034956478 -0.078180492 0.70959389
-0.035033166 -0.077388749 0.70893627
-0.035117302 -0.076518051 0.70821297
-0.035208274 -0.075569995 0.70742536
-0.035304435 -0.074547455 0.70657569
-0.035401564 -0.073454611 0.7056669
-0.035488967 -0.072297409 0.70470279
-0.03553991 -0.070650645 0.70332223
-0.035335634 -0.06899374 0.70190334
-0.034297414 -0.067450255 0.70048261
-0.030934099 -0.066500612 0.69929039
-0.026129115 -0.066343129 0.69859689
-0.017088752 -0.066334501 0.69753432
0.013960592 -0.081716165 0.70686048
0.013928885 -0.081389166 0.70658886
0.013892489 -0.081013814 0.70627707
0.013850734 -0.0805832 0.70591938
0.013802939 -0.080090284 0.70550996
0.013748481 -0.079528682 0.70504344
0.013686861 -0.078893244 0.70451564
0.013617726 -0.078180492 0.70392358
0.013540871 -0.077388749 0.70326596
0.013456153 -0.076518051 0.70254278
0.013363267 -0.075569995 0.7017554
0.01326113 -0.074547455 0.7009064
0.013146323 -0.073454611 0.69999963
0.013009313 -0.072297409 0.69904131
0.012740902 -0.070650645 0.69768614
0.012215303 -0.06899374 0.69635248
0.010877759 -0.067450255 0.69520909
0.0073302789 -0.066500612 0.69482362
0.0024947552 -0.066343129 0.69525552
-0.0065472815 -0.066334501 0.69630373
0.013878806 -0.086091809 0.71055359
0.013909853 -0.08641199 0.71081954
0.013945491 -0.08677952 0.71112484
0.013986375 -0.087201171 0.71147507
0.014033175 -0.087683812 0.71187598
0.014086494 -0.088233717 0.71233273
0.014146818 -0.088855915 0.71284956
0.014214467 -0.089553818 0.71342927
0.014289557 -0.090329066 0.71407324
0.014371938 -0.091181621 0.71478146
0.014461014 -0.092109926 0.71555263
0.014555174 -0.093111165 0.71638465
0.014650277 -0.09418124 0.71727449
0.014735858 -0.095314324 0.71821851
0.014785742 -0.096926786 0.71957034
0.014585719 -0.098549165 0.72095966
0.013569134 -0.10006049 0.72235078
0.010275892 -0.10099036 0.72351813
0.0055710161 -0.10114456 0.72419715
-0.0032809966 -0.10115301 0.72523761
-0.033683449 -0.086091809 0.71610576
-0.033652402 -0.08641199 0.71637172
-0.033616763 -0.08677952 0.71667701
-0.033575878 -0.087201171 0.71702725
-0.03352908 -0.087683812 0.71742815
-0.033475757 -0.088233717 0.7178849
-0.033415418 -0.088855915 0.71840173
-0.033347726 -0.089553818 0.71898144
-0.033272471 -0.090329066 0.71962541
-0.033189517 -0.091181621 0.72033352
-0.033098567 -0.092109926 0.7211045
-0.032998558 -0.093111165 0.72193581
-0.032886144 -0.09418124 0.72282368
-0.032751985 -0.095314324 0.72376198
-0.032489169 -0.096926786 0.72508895
-0.031974521 -0.098549165 0.72639483
-0.030664844 -0.10006049 0.72751445
-0.027191274 -0.10099036 0.72789186
-0.022456493 -0.10114456 0.72746897
-0.013602843 -0.10115301 0.72644258
-0.034103237 -0.081762478 0.71250969
-0.034134284 -0.081442297 0.71224374
-0.034169924 -0.081074759 0.71193844
-0.034210809 -0.080653116 0.7115882
-0.034257606 -0.080170467 0.7111873
-0.034310926 -0.079620562 0.71073049
-0.034371249 -0.078998372 0.71021372
-0.034438901 -0.078300469 0.70963401
-0.034513988 -0.077525221 0.70899004
-0.034596369 -0.076672666 0.70828182
-0.034685448 -0.075744353 0.70751065
-0.034779605 -0.074743122 0.70667863
-0.034874707 -0.073673047 0.70578879
-0.034960289 -0.072539955 0.70484477
-0.035010174 -0.070927501 0.70349294
-0.034810152 -0.069305122 0.70210361
-0.033793565 -0.067793794 0.7007125
-0.030500324 -0.066863932 0.69954515
-0.025795449 -0.066709727 0.69886607
-0.016943436 -0.066701278 0.69782561
0.013459016 -0.081762478 0.70695752
0.013427969 -0.081442297 0.70669156
0.013392332 -0.081074759 0.70638627
0.013351447 -0.080653116 0.70603603
0.013304648 -0.080170467 0.70563513
0.013251324 -0.079620562 0.70517832
0.013190987 -0.078998372 0.70466155
0.013123292 -0.078300469 0.70408183
0.01304804 -0.077525221 0.70343786
0.012965085 -0.076672666 0.70272976
0.012874136 -0.075744353 0.70195878
0.012774128 -0.074743122 0.70112747
0.012661711 -0.073673047 0.7002396
0.012527554 -0.072539955 0.69930124
0.012264737 -0.070927501 0.69797432
0.011750087 -0.069305122 0.69666845
0.010440412 -0.067793794 0.69554883
0.0069668423 -0.066863932 0.69517142
0.0022320622 -0.066709727 0.69559431
-0.006621589 -0.066701278 0.6966207
0.013367579 -0.086045876 0.71057421
0.013397965 -0.086359233 0.7108345
0.013432843 -0.086718939 0.7111333
0.013472856 -0.087131597 0.71147603
0.013518658 -0.087603956 0.71186841
0.013570841 -0.088142149 0.71231544
0.01362988 -0.088751085 0.71282125
0.013696088 -0.08943411 0.71338862
0.013769577 -0.090192847 0.71401888
0.013850204 -0.09102723 0.71471196
0.013937383 -0.091935761 0.71546674
0.014029535 -0.092915662 0.716281
0.014122611 -0.093962938 0.71715188
0.014206369 -0.095071882 0.71807581
0.01425519 -0.096649982 0.7193988
0.014059429 -0.09823779 0.7207585
0.013064506 -0.099716917 0.72212005
0.0098414347 -0.10062696 0.72326249
0.005236811 -0.10077788 0.72392708
-0.0034265826 -0.10078615 0.72494537
-0.033181217 -0.086045876 0.71600807
-0.033150833 -0.086359233 0.71626836
-0.033115957 -0.086718939 0.71656716
-0.03307594 -0.087131597 0.71690995
-0.033030141 -0.087603956 0.71730226
-0.032977954 -0.088142149 0.7177493
-0.0329189 -0.088751085 0.7182551
-0.03285265 -0.08943411 0.71882248
-0.032778997 -0.090192847 0.71945268
-0.032697812 -0.09102723 0.72014576
-0.032608803 -0.091935761 0.7209003
-0.032510921 -0.092915662 0.7217139
-0.032400902 -0.093962938 0.72258282
-0.032269605 -0.095071882 0.72350115
-0.032012388 -0.096649982 0.72479981
-0.031508703 -0.09823779 0.72607791
-0.030226935 -0.099716917 0.72717363
-0.02682738 -0.10062696 0.727543
-0.02219349 -0.10077788 0.72712916
-0.013528491 -0.10078615 0.72612458
-0.033592064 -0.081808791 0.71248859
-0.033622451 -0.081495434 0.7122283
-0.033657327 -0.081135735 0.71192956
-0.033697341 -0.08072307 0.71158677
-0.033743143 -0.08025071 0.7111944
-0.033795327 -0.079712525 0.71074736
-0.033854365 -0.079103582 0.71024156
-0.033920575 -0.078420557 0.70967418
-0.033994064 -0.07766182 0.70904398
-0.03407469 -0.076827437 0.70835084
-0.034161869 -0.075918905 0.70759606
-0.034254018 -0.074939005 0.7067818
-0.034347095 -0.073891729 0.70591092
-0.034430854 -0.072782785 0.70498699
-0.034479674 -0.071204685 0.703664
-0.034283914 -0.069616877 0.7023043
-0.033288989 -0.06813775 0.70094281
-0.03006592 -0.067227706 0.69980031
-0.025461296 -0.067076787 0.69913572
-0.016797902 -0.067068517 0.69811743
0.012956733 -0.081808791 0.70705473
0.012926348 -0.081495434 0.70679444
0.01289147 -0.081135735 0.70649564
0.012851457 -0.08072307 0.70615292
0.012805655 -0.08025071 0.70576054
0.012753468 -0.079712525 0.7053135
0.012694415 -0.079103582 0.7048077
0.012628165 -0.078420557 0.70424032
0.012554513 -0.07766182 0.70361012
0.012473328 -0.076827437 0.7029171
0.012384318 -0.075918905 0.7021625
0.012286439 -0.074939005 0.7013489
0.012176419 -0.073891729 0.70047998
0.01204512 -0.072782785 0.69956166
0.011787903 -0.071204685 0.69826299
0.011284218 -0.069616877 0.69698489
0.010002449 -0.06813775 0.69588917
0.006602895 -0.067227706 0.6955198
0.0019690038 -0.067076787 0.69593364
-0.0066959937 -0.067068517 0.69693822
0.012855587 -0.085999824 0.71059489
0.012885309 -0.086306348 0.71084952
0.012919426 -0.08665821 0.71114177
0.012958568 -0.087061875 0.7114771
0.013003371 -0.087523937 0.7118609
0.013054416 -0.088050388 0.71229821
0.013112169 -0.088646047 0.71279299
0.013176932 -0.089314185 0.71334797
0.013248818 -0.090056367 0.71396446
0.013327688 -0.090872563 0.71464247
0.013412965 -0.091761284 0.71538073
0.013503107 -0.092719816 0.71617728
0.013594154 -0.093744256 0.71702915
0.013676086 -0.094829023 0.71793294
0.013723843 -0.096372709 0.71922708
0.013532352 -0.097925894 0.72055715
0.012559121 -0.099372767 0.72188896
0.0094063282 -0.10026297 0.72300655
0.0049021086 -0.1004106 0.72365659
-0.0035723818 -0.10041869 0.72465271
-0.032678224 -0.085999824 0.71591032
-0.0326485 -0.086306348 0.71616489
-0.032614384 -0.08665821 0.71645719
-0.032575242 -0.087061875 0.71679246
-0.032530438 -0.087523937 0.71717626
-0.032479391 -0.088050388 0.71761358
-0.032421626 -0.088646047 0.71810836
-0.032356817 -0.089314185 0.71866333
-0.032284774 -0.090056367 0.71927983
-0.032205358 -0.090872563 0.71995771
-0.032118287 -0.091761284 0.72069585
-0.032022543 -0.092719816 0.72149169
-0.031914923 -0.093744256 0.72234166
-0.031786487 -0.094829023 0.72324002
-0.031534877 -0.096372709 0.72451037
-0.031042179 -0.097925894 0.72576058
-0.029788358 -0.099372767 0.72683239
-0.026462929 -0.10026297 0.72719371
-0.02193008 -0.1004106 0.72678888
-0.013454021 -0.10041869 0.72580624
-0.033080112 -0.081855133 0.71246755
-0.033109833 -0.081548601 0.71221292
-0.033143952 -0.081196748 0.71192068
-0.03318309 -0.080793083 0.7115854
-0.033227894 -0.08033102 0.71120155
-0.033278942 -0.079804569 0.71076429
-0.033336692 -0.07920891 0.71026951
-0.033401456 -0.078540772 0.70971453
-0.033473343 -0.077798583 0.70909804
-0.033552211 -0.076982394 0.70842004
-0.03363749 -0.076093674 0.70768172
-0.033727631 -0.075135142 0.70688522
-0.033818681 -0.074110702 0.70603329
-0.033900611 -0.073025934 0.70512956
-0.033948366 -0.071482249 0.70383537
-0.033756878 -0.069929056 0.70250535
-0.032783646 -0.068482183 0.70117348
-0.029630853 -0.06759198 0.70005596
-0.025126634 -0.067444354 0.69940585
-0.016652143 -0.067436263 0.6984098
0.012453699 -0.081855133 0.70715219
0.012423976 -0.081548601 0.70689756
0.012389858 -0.081196748 0.70660532
0.012350718 -0.080793083 0.70626998
0.012305913 -0.08033102 0.70588619
0.012254865 -0.079804569 0.70544893
0.012197101 -0.07920891 0.70495415
0.012132294 -0.078540772 0.70439917
0.012060248 -0.077798583 0.70378268
0.011980835 -0.076982394 0.70310473
0.011893763 -0.076093674 0.70236665
0.011798019 -0.075135142 0.70157075
0.011690398 -0.074110702 0.70072079
0.011561963 -0.073025934 0.69982249
0.011310353 -0.071482249 0.69855213
0.010817654 -0.069929056 0.69730192
0.0095638335 -0.068482183 0.69623005
0.0062384042 -0.06759198 0.69586873
0.0017055551 -0.067444354 0.69627362
-0.0067705042 -0.067436263 0.69725627
0.01234279 -0.08595366 0.71061569
0.012371849 -0.086253345 0.7108646
0.012405205 -0.086597346 0.71115035
0.012443472 -0.086992003 0.71147817
0.012487276 -0.087443747 0.71185338
0.01253718 -0.08795844 0.71228093
0.012593644 -0.088540807 0.71276468
0.012656962 -0.089194022 0.71330726
0.012727244 -0.089919642 0.71390998
0.01280435 -0.090717614 0.71457285
0.012887726 -0.091586493 0.71529466
0.012975856 -0.09252362 0.71607339
0.013064869 -0.093525194 0.71690631
0.013144972 -0.094585739 0.71778989
0.013191662 -0.096094958 0.71905512
0.013004446 -0.097613476 0.72035551
0.012052945 -0.099028043 0.72165757
0.0089705409 -0.099898368 0.72275019
0.0045668823 -0.1000427 0.72338575
-0.0037184064 -0.10005061 0.72435963
-0.032174427 -0.08595366 0.71581239
-0.03214537 -0.086253345 0.71606135
-0.032112014 -0.086597346 0.7163471
-0.032073747 -0.086992003 0.71667486
-0.032029945 -0.087443747 0.71705014
-0.031980034 -0.08795844 0.71747768
-0.031923559 -0.088540807 0.71796137
-0.031860203 -0.089194022 0.71850395
-0.031789765 -0.089919642 0.71910667
-0.031712122 -0.090717614 0.71976948
-0.031626996 -0.091586493 0.72049111
-0.03153339 -0.09252362 0.72126919
-0.031428169 -0.093525194 0.7221002
-0.031302601 -0.094585739 0.72297847
-0.031056611 -0.096094958 0.72422045
-0.03057491 -0.097613476 0.72544277
-0.029349083 -0.099028043 0.72649068
-0.026097897 -0.099898368 0.72684389
-0.021666249 -0.1000427 0.72644812
-0.013379427 -0.10005061 0.72548741
-0.032567345 -0.081901506 0.71244651
-0.032596402 -0.081601821 0.7121976
-0.032629758 -0.08125782 0.71191186
-0.032668024 -0.080863163 0.71158403
-0.03271183 -0.080411419 0.71120882
-0.032761734 -0.079896718 0.71078128
-0.032818198 -0.079314359 0.71029752
-0.032881517 -0.078661144 0.70975494
-0.032951798 -0.077935524 0.70915222
-0.033028904 -0.077137552 0.70848936
-0.03311228 -0.076268673 0.70776755
-0.033200409 -0.075331539 0.70698881
-0.033289421 -0.074329972 0.7061559
-0.033369526 -0.073269427 0.70527232
-0.033416215 -0.071760207 0.70400709
-0.033229001 -0.07024169 0.70270669
-0.032277498 -0.068827122 0.70140463
-0.029195094 -0.06795679 0.70031202
-0.024791436 -0.067812465 0.69967645
-0.016506147 -0.067804553 0.69870257
0.011949874 -0.081901506 0.70724982
0.011920816 -0.081601821 0.70700091
0.01188746 -0.08125782 0.70671517
0.011849193 -0.080863163 0.70638734
0.01180539 -0.080411419 0.70601207
0.01175548 -0.079896718 0.70558459
0.011699007 -0.079314359 0.70510083
0.011635647 -0.078661144 0.70455825
0.01156521 -0.077935524 0.70395553
0.011487568 -0.077137552 0.70329273
0.011402442 -0.076268673 0.70257109
0.011308836 -0.075331539 0.70179302
0.011203616 -0.074329972 0.70096201
0.011078048 -0.073269427 0.70008373
0.010832056 -0.071760207 0.69884175
0.010350357 -0.07024169 0.6976195
0.0091245295 -0.068827122 0.69657159
0.0058733434 -0.06795679 0.69621831
0.0014416955 -0.067812465 0.69661415
-0.0068451273 -0.067804553 0.69757485
0.01182915 -0.0859074 0.71063656
0.011857544 -0.08620023 0.71087974
0.011890137 -0.086536363 0.71115899
0.011927529 -0.08692199 0.71147931
0.01197033 -0.0873634 0.71184593
0.012019094 -0.087866321 0.7122637
0.012074266 -0.088435367 0.71273637
0.012136135 -0.089073643 0.71326655
0.012204809 -0.089782663 0.7138555
0.012280153 -0.090562381 0.71450317
0.01236162 -0.091411382 0.71520847
0.012447734 -0.092327081 0.71596944
0.012534712 -0.093305737 0.71678323
0.012612982 -0.094342023 0.7176466
0.012658606 -0.095816731 0.71888292
0.01247567 -0.097300507 0.72015357
0.011545934 -0.098682724 0.72142589
0.0085340356 -0.099533141 0.72249347
0.0042311051 -0.099674173 0.72311455
-0.0038646685 -0.099681899 0.72406608
-0.031669799 -0.0859074 0.7157144
-0.031641405 -0.08620023 0.71595764
-0.031608813 -0.086536363 0.71623683
-0.031571418 -0.08692199 0.71655715
-0.031528618 -0.0873634 0.71692377
-0.03147985 -0.087866321 0.71734154
-0.031424668 -0.088435367 0.71781421
-0.031362757 -0.089073643 0.71834439
-0.031293932 -0.089782663 0.71893328
-0.031218067 -0.090562381 0.71958095
-0.031134887 -0.091411382 0.72028607
-0.031043421 -0.092327081 0.72104633
-0.030940607 -0.093305737 0.72185832
-0.030817913 -0.094342023 0.72271651
-0.03057755 -0.095816731 0.72393012
-0.030106867 -0.097300507 0.72512442
-0.028909078 -0.098682724 0.72614837
-0.025732258 -0.099533141 0.72649354
-0.021401979 -0.099674173 0.72610682
-0.013304707 -0.099681899 0.72516805
-0.032053728 -0.08194793 0.71242547
-0.032082122 -0.0816551 0.71218228
-0.032114714 -0.081318967 0.71190304
-0.032152105 -0.08093334 0.71158272
-0.032194905 -0.08049193 0.71121609
-0.032243669 -0.079989001 0.71079832
-0.032298841 -0.079419963 0.71032566
-0.03236071 -0.078781687 0.70979548
-0.032429386 -0.078072667 0.70920652
-0.03250473 -0.077292949 0.70855886
-0.032586195 -0.07644394 0.70785356
-0.032672312 -0.075528249 0.70709258
-0.032759286 -0.074549586 0.7062788
-0.032837559 -0.073513299 0.70541543
