# .PCD v0.7 - Point Cloud Data file format
VERSION 0.7
FIELDS x y z
SIZE 4 4 4
TYPE F F F
COUNT 1 1 1
WIDTH 1337
HEIGHT 1
VIEWPOINT 0 0 0 1 0 0 0
POINTS 1337
DATA ascii
-0.03891686 -0.011254596 0.84366864
-0.034340579 -0.013822658 0.8459146
-0.029460162 -0.016030513 0.84783661
-0.024331629 -0.01785746 0.84941667
-0.019018153 -0.019278532 0.85063314
-0.013641598 -0.020253332 0.85145116
-0.017149435 -0.019670203 0.85096461
-0.055411223 0.023126561 0.81317395
-0.053149659 0.027127551 0.80958557
-0.050165921 0.030816773 0.80626827
-0.046567816 0.034169089 0.80324548
-0.042453811 0.037158865 0.80054098
-0.03791273 0.039767973 0.79817182
-0.033024177 0.041984405 0.79614943
-0.027859725 0.043800026 0.79448175
-0.022484777 0.045208603 0.79317492
-0.016960982 0.046204194 0.7922349
-0.011349921 0.046779804 0.79166847
-0.005721679 0.046925981 0.79148471
-0.00020840146 0.046631936 0.79169452
-0.0037846935 0.046874225 0.79151249
0.045373678 0.011383447 0.82268625
0.044785906 0.015716432 0.81882894
0.043386616 0.01991635 0.81509793
0.041268826 0.023934664 0.81153566
0.038516428 0.027724488 0.80818313
0.035207082 0.031248303 0.80507302
0.031412028 0.034476519 0.80223107
0.027196378 0.037385076 0.79967803
0.022620097 0.039953139 0.79743207
0.01773968 0.042160992 0.79551005
0.012611146 0.043987941 0.79392999
0.0072976691 0.045409013 0.79271352
0.001921114 0.046383813 0.79189551
0.0054289522 0.045800682 0.79238212
0.044441 0.0053190747 0.83305866
0.042146388 0.0012596236 0.83669955
0.03911905 -0.0024835069 0.8400653
0.03546837 -0.0058848066 0.84313226
0.031294253 -0.0089182686 0.84587628
0.026686817 -0.011565503 0.84828007
0.021726834 -0.01381432 0.85033196
0.01648692 -0.015656471 0.85202402
0.011033433 -0.017085627 0.85334992
0.0054289233 -0.018095771 0.85430372
-0.00026412655 -0.018679786 0.85487843
-0.0059746089 -0.018828103 0.85506487
-0.011568447 -0.018529762 0.85485196
-0.0079398984 -0.018775592 0.85503668
-0.057816572 0.01723378 0.82340741
-0.057220209 0.012837482 0.82732111
-0.055800471 0.0085761929 0.8311066
-0.053651735 0.0044991644 0.83472091
-0.050859123 0.00065396313 0.83812249
-0.047501422 -0.0029213419 0.84127802
-0.043650914 -0.0061967266 0.84416151
-0.039373666 -0.0091477856 0.84675181
-0.034730513 -0.011753368 0.84903061
-0.029778784 -0.013993488 0.8509807
-0.024575314 -0.01584713 0.85258389
-0.019184196 -0.017288968 0.85381812
-0.013729079 -0.018278012 0.85464805
-0.017288173 -0.017686363 0.85415435
-0.056109041 0.025735749 0.81581157
-0.05381443 0.0297952 0.81217074
-0.050787091 0.03353833 0.80880493
-0.047136411 0.036939628 0.80573797
-0.042962294 0.039973091 0.80299401
-0.038354862 0.042620327 0.80059022
-0.033394877 0.044869144 0.79853827
-0.028154964 0.046711296 0.79684621
-0.022701476 0.048140451 0.79552031
-0.017096967 0.049150594 0.79456657
-0.011403916 0.049734611 0.79399186
-0.0056934338 0.049882926 0.79380542
-9.9596502e-05 0.049584582 0.79401827
-0.0037281448 0.049830414 0.79383355
0.046148531 0.013821044 0.82546288
0.045552164 0.018217342 0.82154918
0.04413243 0.022478631 0.81776363
0.04198369 0.026555659 0.81414932
0.039191082 0.030400861 0.8107478
0.035833377 0.033976164 0.80759221
0.031982873 0.037251551 0.80470878
0.027705623 0.04020261 0.80211842
0.023062471 0.04280819 0.79983962
0.018110741 0.045048311 0.79788953
0.01290727 0.046901952 0.7962864
0.0075161527 0.048343793 0.79505217
0.0020610355 0.049332835 0.79422224
0.0056201299 0.048741188 0.79471588
0.045231249 0.0077590756 0.8361001
0.042901833 0.0036380468 0.83979619
0.039828572 -0.000161863 0.84321302
0.036122516 -0.0036147565 0.84632647
0.031885076 -0.0066942316 0.84911209
0.027207756 -0.009381623 0.85155237
0.022172531 -0.011664553 0.85363543
0.016853135 -0.013534646 0.85535318
0.011316926 -0.014985485 0.85669917
0.0056274026 -0.016010949 0.85766739
-0.00015200331 -0.016603822 0.8582508
-0.0059491084 -0.016754389 0.8584401
-0.011627799 -0.016451523 0.85822397
-0.0079442086 -0.016701082 0.85841149
-0.058577456 0.019854512 0.82630241
-0.057972047 0.015391528 0.83027548
-0.056530777 0.0110656 0.83411843
-0.054349445 0.0069267284 0.83778757
-0.051514469 0.0030231993 0.8412407
-0.048105836 -0.00060633937 0.8444441
-0.044196919 -0.0039314101 0.84737134
-0.039854791 -0.0069272304 0.85000092
-0.035141207 -0.0095723411 0.85231435
-0.030114368 -0.011846439 0.854294
-0.024831966 -0.013728196 0.85592145
-0.019359069 -0.015191905 0.8571744
-0.013821205 -0.016195955 0.85801697
-0.017434288 -0.015595331 0.85751581
-0.056844026 0.028485449 0.81859136
-0.054514609 0.032606479 0.81489533
-0.051441349 0.036406387 0.8114785
-0.047735292 0.03985928 0.80836499
-0.043497853 0.042938758 0.80557936
-0.038820531 0.045626149 0.80313909
-0.03378531 0.047909077 0.80105603
-0.028465912 0.049779169 0.79933834
-0.022929702 0.05123001 0.79799235
-0.01724018 0.052255474 0.79702413
-0.011460773 0.052848347 0.79644066
-0.0056636678 0.052998912 0.79625142
1.5022317e-05 0.052696045 0.79646748
-0.0036685679 0.052945606 0.79627997
0.046964679 0.016390011 0.82838905
0.046359275 0.020852996 0.82441598
0.044918001 0.025178922 0.82057309
0.042736668 0.029317796 0.81690389
0.039901692 0.033221323 0.81345081
0.036493059 0.036850862 0.81024736
0.032584142 0.040175933 0.80732012
0.028242014 0.043171756 0.80469054
0.023528432 0.045816865 0.80237716
0.018501591 0.048090965 0.80039746
0.013219188 0.04997272 0.79877001
0.0077462932 0.051436428 0.79751706
0.0022084285 0.052440479 0.79667455
0.0058215111 0.051839855 0.79717571
0.046060439 0.010324275 0.83929694
0.0436945 0.0061386391 0.84305096
0.040573068 0.0022791559 0.84652138
0.036808904 -0.0012278704 0.84968364
0.032505032 -0.0043556257 0.85251296
0.027754385 -0.0070851482 0.85499144
0.022640219 -0.0094038676 0.85710716
0.017237429 -0.01130328 0.85885185
0.011614424 -0.012776862 0.86021894
0.0058357036 -0.013818403 0.86120236
-3.4309454e-05 -0.014420572 0.86179489
-0.0059222984 -0.0145735 0.86198717
-0.011690017 -0.014265887 0.86176765
-0.0079486761 -0.014519355 0.86195815
-0.059375726 0.022609338 0.82934564
-0.058760826 0.018076384 0.833381
-0.057296965 0.013682639 0.83728421
-0.055081431 0.0094788792 0.84101087
-0.052202009 0.0055141505 0.84451813
-0.04873994 0.0018277102 0.84777176
-0.044769742 -0.0015494885 0.8507449
-0.040359538 -0.0045922785 0.85341573
-0.035572059 -0.007278854 0.8557654
-0.030466408 -0.0095886039 0.85777605
-0.02510119 -0.011499864 0.85942906
-0.019542495 -0.012986521 0.86070162
-0.01391781 -0.014006313 0.86155742
-0.017587535 -0.013396269 0.8610484
-0.05761512 0.031375583 0.82151371
-0.055249184 0.035561223 0.81775969
-0.052127749 0.039420705 0.81428933
-0.048363585 0.042927731 0.81112701
-0.044059712 0.046055485 0.80829769
-0.039309066 0.048785008 0.80581921
-0.034194902 0.051103726 0.80370349
-0.028792109 0.05300314 0.80195886
-0.023169106 0.054476723 0.80059177
-0.017390385 0.055518262 0.79960835
-0.011520372 0.056120433 0.79901576
-0.0056323828 0.05627336 0.79882354
0.00013533546 0.055965748 0.799043
-0.0036060049 0.056219216 0.79885256
0.047821045 0.019090522 0.83146501
0.047206145 0.023623476 0.82742965
0.045742285 0.028017221 0.8235265
0.04352675 0.032220982 0.81979978
0.040647328 0.036185708 0.81629252
0.037185259 0.039872151 0.81303889
0.033215061 0.04324935 0.81006581
0.028804857 0.046292137 0.80739498
0.024017377 0.048978712 0.80504531
0.018911727 0.051288463 0.8030346
0.013546509 0.053199723 0.80138165
0.007987814 0.054686382 0.80010903
0.0023631288 0.055706173 0.79925328
0.0060328548 0.055096127 0.79976231
0.046924438 0.013014213 0.84264708
0.044520464 0.0087612718 0.84646142
0.04134883 0.0048397286 0.84998763
0.037524141 0.0012763091 0.85320079
0.03315106 -0.001901742 0.85607558
0.028324021 -0.0046751546 0.85859394
0.023127627 -0.0070311581 0.8607437
0.017637957 -0.0089611141 0.8625164
0.011924534 -0.010458393 0.86390549
0.0060528894 -0.011516681 0.8649047
8.8487846e-05 -0.012128535 0.86550677
-0.0058941813 -0.012283922 0.86570209
-0.011754644 -0.01197136 0.86547911
-0.0079531437 -0.012228905 0.86567259
-0.060207143 0.025496822 0.83253574
-0.05958236 0.020890979 0.83663601
-0.058094952 0.01642658 0.84060192
-0.055843797 0.012155224 0.84438854
-0.052918073 0.0081267403 0.84795219
-0.04940033 0.0043810224 0.85125816
-0.045366295 0.00094952015 0.8542791
-0.040885177 -0.0021421984 0.85699284
-0.036020711 -0.0048719766 0.8593803
-0.030832961 -0.0072188671 0.86142331
-0.025381472 -0.0091608614 0.86310285
-0.019733392 -0.010671424 0.86439592
-0.014018261 -0.011707611 0.86526543
-0.017746996 -0.011087758 0.86474824
-0.058418225 0.034404028 0.82457787
-0.056014247 0.038656972 0.82076347
-0.052842613 0.042578515 0.81723726
-0.049017929 0.046141934 0.81402415
-0.044644848 0.049319986 0.81114936
-0.039817806 0.052093398 0.808631
-0.03462141 0.054449402 0.80648124
-0.029131742 0.056379359 0.80470854
-0.023418318 0.057876635 0.80331945
-0.017546674 0.058934923 0.80232024
-0.011582272 0.059546776 0.80171812
-0.0055996031 0.059702165 0.80152279
0.0002608597 0.059389602 0.80174583
-0.0035406409 0.059647147 0.8015523
0.04871336 0.021921422 0.8346892
0.048088573 0.026527265 0.83058894
0.046601165 0.030991664 0.82662296
0.044350013 0.035263021 0.8228364
0.041424289 0.039291501 0.81927276
0.037906546 0.043037221 0.81596678
0.033872508 0.046468724 0.81294584
0.029391391 0.049560443 0.8102321
0.024526928 0.05229022 0.80784464
0.019339176 0.054637112 0.80580157
0.013887688 0.056579106 0.80412203
0.0082396073 0.058089666 0.80282897
0.0025244763 0.059125856 0.80195946
0.0062532113 0.058506001 0.80247664
0.047809515 0.01582697 0.84614277
0.045366596 0.011505132 0.85001898
0.04214358 0.0075200587 0.85360229
0.038256936 0.0038989109 0.85686749
0.033813011 0.0006693785 0.85978884
0.028907772 -0.0021489654 0.86234802
0.023627192 -0.0045431363 0.86453259
0.01804859 -0.0065043578 0.86633402
0.01224261 -0.0080258911 0.86774558
0.0062758448 -0.0091013229 0.868761
0.00021481875 -0.0097230878 0.86937284
-0.0058647688 -0.0098809935 0.86957133
-0.011820171 -0.0095633669 0.86934471
-0.007957086 -0.0098250872 0.86954135
-0.061057601 0.028511796 0.8358677
-0.060422696 0.02383134 0.84003437
-0.058911193 0.019294618 0.84406453
-0.056623574 0.014954065 0.84791249
-0.053650446 0.010860323 0.85153389
-0.050075721 0.0070539224 0.85489339
-0.04597633 0.003566829 0.85796326
-0.041422617 0.00042502486 0.86072099
-0.036479346 -0.0023489746 0.86314708
-0.031207556 -0.0047338847 0.86522323
-0.025667751 -0.0067073386 0.86693001
-0.019928174 -0.0082423734 0.86824399
-0.014120458 -0.0092953453 0.86912763
-0.017909599 -0.0086654546 0.86860204
-0.059239704 0.037563302 0.8277809
-0.056796782 0.041885141 0.82390475
-0.053573765 0.045870215 0.82032138
-0.049687125 0.049491361 0.81705618
-0.045243196 0.052720897 0.81413484
-0.040337957 0.055539239 0.81157565
-0.035057377 0.057933409 0.80939108
-0.029478777 0.059894633 0.80758971
-0.023672797 0.061416164 0.80617809
-0.017706031 0.062491596 0.80516267
-0.011645006 0.063113362 0.80455083
-0.0055654184 0.063271269 0.80435234
0.00038998385 0.062953644 0.80457896
-0.0034731007 0.06321536 0.80438232
0.049627416 0.024878478 0.83805597
0.048992511 0.029558934 0.83388937
0.047481004 0.034095656 0.82985914
0.045193385 0.038436208 0.82601118
0.042220261 0.042529952 0.82238978
0.038645532 0.046336353 0.81903028
0.034546141 0.049823444 0.81596041
0.02999243 0.05296525 0.81320268
0.025049161 0.05573925 0.81077659
0.019777369 0.058124159 0.80870044
0.014237565 0.060097612 0.80699366
0.0084979869 0.061632648 0.80567968
0.002690271 0.062685616 0.80479604
0.0064794123 0.062055729 0.80532163
0.049093328 0.020418536 0.85178512
0.046594165 0.015997199 0.8557505
0.043296948 0.011920381 0.85941637
0.039320827 0.0082158679 0.86275673
0.034774594 0.0049119811 0.86574537
0.029756427 0.0020287579 0.86836344
0.024354275 -0.00042053388 0.87059826
0.018647244 -0.0024269084 0.87244117
0.012707596 -0.0039834697 0.87388527
0.0066034636 -0.0050836625 0.87492406
0.00040290013 -0.0057197404 0.87554997
-0.0058166524 -0.0058812788 0.87575305
-0.011909162 -0.0055563427 0.87552118
-0.0079571409 -0.0058240872 0.87572241
-0.062280145 0.033395395 0.84127349
-0.061630622 0.028607182 0.84553605
-0.060084321 0.023966014 0.84965903
-0.057744034 0.019525535 0.85359555
-0.054702464 0.015337544 0.85730034
-0.051045436 0.011443516 0.8607372
-0.046851669 0.0078761401 0.86387771
-0.042193118 0.0046620038 0.86669892
-0.037136044 0.0018241417 0.86918092
-0.031742886 -0.00061567622 0.87130487
-0.026075546 -0.0026345623 0.87305087
-0.020203829 -0.004204934 0.87439513
-0.014262406 -0.0052821506 0.8752991
-0.018138781 -0.0046377573 0.8747614
-0.060420394 0.042655285 0.83300048
-0.057921231 0.047076624 0.8290351
-0.054624014 0.05115344 0.82536924
-0.050647892 0.054857954 0.82202888
-0.046101656 0.05816184 0.81904024
-0.041083492 0.061045062 0.81642216
-0.035681341 0.063494354 0.81418735
-0.029974308 0.065500729 0.81234443
-0.02403466 0.067057289 0.81090033
-0.017930528 0.068157487 0.80986154
-0.011729964 0.068793565 0.80923563
-0.0055104117 0.068955101 0.80903256
0.00058209727 0.068630166 0.80926442
-0.0033699239 0.06889791 0.8090632
0.050953079 0.029678427 0.84351218
0.050303556 0.034466639 0.83924955
0.048757255 0.039107807 0.83512658
0.046416968 0.043548286 0.83119005
0.043375399 0.04773628 0.82748526
0.039718371 0.051630307 0.82404846
0.035524603 0.055197682 0.82090789
0.030866055 0.058411818 0.81808668
0.025808981 0.061249681 0.81560469
0.020415822 0.0636895 0.81348079
0.01474848 0.065708384 0.81173474
0.0088767633 0.067278758 0.81039047
0.002935342 0.06835597 0.80948651
0.0068117175 0.067711577 0.8100242
0.049524583 0.024115572 0.85608816
0.047007572 0.01966266 0.86008191
0.043686811 0.015556729 0.86377394
0.039682291 0.01182576 0.86713815
0.035103593 0.0084982812 0.87014812
0.030049589 0.005594465 0.87278485
0.02460886 0.0031276834 0.8750357
0.01886107 0.0011069805 0.87689173
0.012879008 -0.00046069667 0.87834615
0.0067312834 -0.0015687468 0.87939233
0.0004864393 -0.0022093658 0.88002276
-0.0057775299 -0.0023720604 0.88022727
-0.011913547 -0.0020448021 0.8799938
-0.0079333037 -0.0023144574 0.88019639
-0.062644243 0.037185103 0.84550142
-0.061990082 0.032362696 0.84979451
-0.060432743 0.027688386 0.85394692
-0.058075741 0.023216194 0.85791153
-0.05501245 0.018998295 0.86164278
-0.051329307 0.015076457 0.86510414
-0.047105592 0.011483607 0.86826712
-0.042413775 0.0082465168 0.87110847
-0.037320588 0.0053883893 0.87360823
-0.031888913 0.0029311471 0.87574732
-0.026181098 0.00089784496 0.87750584
-0.020267449 -0.00068374432 0.8788597
-0.014283597 -0.0017686518 0.8797701
-0.018187655 -0.0011196553 0.87922853
-0.060771216 0.046511121 0.83716941
-0.058254205 0.050964035 0.83317566
-0.054933444 0.055069964 0.82948369
-0.050928921 0.058800932 0.82611942
-0.046350222 0.062128413 0.82310951
-0.041296221 0.065032229 0.82047272
-0.035855491 0.067499012 0.81822187
-0.030107703 0.069519714 0.81636584
-0.024125641 0.07108739 0.81491143
-0.017977916 0.072195441 0.81386524
-0.011733071 0.072836056 0.81323481
-0.0054691019 0.072998755 0.8130303
0.00066691561 0.072671495 0.81326383
-0.0033133284 0.072941154 0.81306118
0.051397614 0.033441592 0.84775615
0.050743453 0.038263999 0.84346312
0.04918611 0.042938307 0.83931071
0.046829108 0.047410499 0.83534604
0.043765817 0.0516284 0.83161479
0.040082674 0.055550236 0.82815343
0.035858959 0.059143085 0.82499045
0.031167142 0.062380176 0.8221491
0.026073955 0.065238304 0.8196494
0.020642282 0.067695543 0.81751031
0.014934466 0.069728851 0.81575173
0.0090208175 0.071310438 0.81439787
0.0030369658 0.072395347 0.81348747
0.0069410233 0.071746349 0.81402904
0.049190883 0.025639677 0.85765833
0.046689808 0.02121496 0.86162674
0.043390073 0.017135024 0.86529541
0.039410908 0.013427678 0.86863834
0.034861203 0.010121268 0.87162924
0.029839197 0.0072358381 0.87424934
0.024432914 0.0047846739 0.87648588
0.018721523 0.0027767695 0.87833017
0.012777334 0.0012190162 0.87977535
0.0066685341 0.00011798116 0.88081497
0.0004632294 -0.00051858195 0.88144135
-0.0057610786 -0.00068024639 0.88164461
-0.011858244 -0.00035505736 0.88141257
-0.0079032015 -0.00062300795 0.88161391
-0.062267736 0.038626458 0.84713864
-0.061617717 0.033834584 0.85140449
-0.060070235 0.029189868 0.85553062
-0.057728156 0.024745991 0.85947013
-0.054684266 0.020554801 0.86317778
-0.051024441 0.016657794 0.86661726
-0.046827465 0.013087691 0.86976016
-0.042165358 0.009871101 0.87258357
-0.037104417 0.0070310682 0.87506741
-0.031707134 0.0045893835 0.87719297
-0.026035458 0.0025689548 0.87894034
-0.020159252 0.00099737989 0.88028568
-0.014213288 -8.0655656e-05 0.8811903
-0.018092627 0.00056422921 0.88065219
-0.060406566 0.047893427 0.83885932
-0.057905491 0.052318145 0.8348909
-0.054605752 0.056398079 0.83122224
-0.050626587 0.060105424 0.82787937
-0.046076886 0.063411839 0.82488847
-0.041054878 0.066297263 0.82226837
-0.035648596 0.068748429 0.82003176
-0.029937204 0.070756339 0.81818748
-0.023993015 0.072314091 0.8167423
-0.017884215 0.073415123 0.81570274
-0.01167891 0.074051686 0.81507629
-0.0054546022 0.074213348 0.8148731
0.00064256351 0.07388816 0.81510508
-0.003312479 0.074156113 0.8149038
0.051052056 0.034906648 0.84937906
0.050402038 0.039698519 0.84511322
0.048854552 0.044343237 0.84098709
0.046512473 0.048787113 0.83704752
0.043468583 0.052978303 0.83333993
0.039808758 0.056875311 0.82990044
0.035611782 0.060445413 0.82675749
0.030949676 0.063662 0.82393414
0.025888735 0.066502035 0.82145023
0.020491453 0.068943724 0.81932467
0.014819778 0.07096415 0.8175773
0.0089435717 0.072535723 0.81623203
0.0029976075 0.073613763 0.81532741
0.0068769469 0.072968878 0.81586546
0.048682034 0.026519125 0.85843831
0.046204556 0.022136161 0.8623693
0.042935964 0.018094726 0.86600333
0.038994346 0.014422364 0.86931473
0.034487572 0.011147154 0.87227738
0.029512957 0.0082889497 0.87487274
0.02415769 0.0058609149 0.87708819
0.018500188 0.0038719575 0.87891513
0.012612093 0.0023289053 0.88034666
0.0065609375 0.0012382602 0.88137645
0.00041418805 0.00060770143 0.88199693
-0.0057513854 0.00044756394 0.88219827
-0.011791016 0.00076968473 0.88196844
-0.0078732949 0.00050426065 0.88216782
-0.06172483 0.039383359 0.84801787
-0.06108094 0.034636702 0.85224348
-0.059548065 0.030035816 0.85633069
-0.057228085 0.025633873 0.86023307
-0.054212913 0.021482233 0.86390567
-0.050587628 0.017621998 0.86731267
-0.04643026 0.014085582 0.870426
-0.04181214 0.010899344 0.87322271
-0.036798958 0.0080861133 0.87568313
-0.031452604 0.005667469 0.87778866
-0.02583445 0.0036661034 0.87951952
-0.020013694 0.0021093595 0.88085216
-0.014123837 0.0010414971 0.88174826
-0.01796657 0.0016802948 0.88121521
-0.059881218 0.048562881 0.83981675
-0.057403743 0.052945845 0.83588576
-0.054135147 0.056987282 0.83225173
-0.05019353 0.060659643 0.82894033
-0.045686755 0.063934855 0.82597768
-0.040712144 0.066793054 0.82338232
-0.035356876 0.069221094 0.82116681
-0.029699374 0.071210049 0.81933993
-0.023811279 0.072753102 0.81790841
-0.017760124 0.073843747 0.81687862
-0.011613375 0.074474305 0.81625813
-0.0054478007 0.07463444 0.81605679
0.00059183023 0.074312322 0.81628662
-0.003325891 0.074577749 0.81608725
0.050525643 0.035698649 0.85023719
0.049881753 0.040445305 0.84601158
0.048348878 0.045046192 0.84192437
0.046028897 0.049448136 0.83802199
0.043013729 0.053599775 0.83434939
0.039388441 0.05746001 0.83094239
0.035231072 0.060996424 0.82782906
0.030612953 0.064182661 0.82503235
0.025599772 0.066995896 0.82257193
0.02025342 0.069414541 0.8204664
0.014635264 0.071415901 0.81873554
0.0088145081 0.072972648 0.8174029
0.0029246511 0.07404051 0.8165068
0.0067673842 0.073401712 0.81703985
0.048101421 0.027130028 0.85888964
0.045650687 0.022794368 0.86277819
0.042417366 0.018796552 0.866373
0.038518284 0.015163825 0.86964864
0.034060154 0.011923964 0.87257934
0.029139228 0.0090966104 0.87514669
0.023841761 0.0066947802 0.87733823
0.018245323 0.0047272863 0.87914544
0.012420774 0.0032008893 0.88056153
0.0064349286 0.0021220157 0.88158017
0.00035452255 0.0014982661 0.88219398
-0.0057445071 0.0013398563 0.88239312
-0.011718954 0.0016584984 0.88216579
-0.0078435168 0.0013959401 0.88236302
-0.061113842 0.039855417 0.84858167
-0.060476903 0.035159994 0.85276169
-0.058960568 0.030608764 0.85680473
-0.056665625 0.02625433 0.86066502
-0.053683002 0.022147497 0.86429799
-0.050096836 0.018328927 0.86766821
-0.045984339 0.01483068 0.87074792
-0.041416064 0.011678828 0.87351447
-0.036456987 0.0088959597 0.87594837
-0.031168338 0.0065034204 0.87803113
-0.025610819 0.0045236596 0.87974334
-0.019852886 0.0029837165 0.88106155
-0.014026597 0.0019273771 0.88194799
-0.017827855 0.0025592814 0.88142073
-0.05929013 0.048935868 0.840469
-0.056839395 0.053271528 0.83658046
-0.053606074 0.057269346 0.83298564
-0.049706992 0.06090207 0.82971001
-0.045248862 0.064141929 0.82677931
-0.040327936 0.066969283 0.82421196
-0.035030469 0.069371119 0.82202041
-0.029434031 0.071338609 0.82021326
-0.023609484 0.072865009 0.81879717
-0.017623637 0.073943883 0.81777847
-0.011543231 0.074567631 0.81716466
-0.0054442012 0.074726038 0.81696558
0.00053024566 0.074407399 0.81719291
-0.0033451919 0.074669957 0.81699562
0.049925134 0.036210477 0.85077697
0.049288195 0.040905904 0.84659702
0.04777186 0.045457132 0.84255391
0.045476917 0.049811564 0.83869368
0.04249429 0.053918399 0.83506072
0.038908128 0.05773697 0.83169043
0.034795631 0.061235216 0.82861078
0.030227358 0.064387068 0.82584423
0.025268279 0.067169935 0.82341033
0.01997963 0.06956248 0.82132757
0.01442211 0.071542241 0.81961536
0.0086641768 0.073082179 0.81829715
0.0028378887 0.074138522 0.81741071
0.0066391472 0.073506616 0.81793797
0.047481596 0.027594028 0.8591612
0.045059316 0.023308707 0.86300462
0.041863535 0.019357305 0.86655766
0.038009729 0.015766753 0.86979526
0.033603352 0.012564508 0.87269193
0.028739559 0.009769978 0.87522948
0.0235036 0.0073960372 0.87739563
0.017972132 0.0054513873 0.8791818
0.012215212 0.003942709 0.88058144
0.006298861 0.0028763616 0.88158828
0.000289046 0.0022598514 0.882195
-0.0057391711 0.0021032847 0.88239181
-0.011644254 0.0024182226 0.8821671
-0.0078138104 0.0021587138 0.88236207
-0.060465656 0.040171675 0.84897292
-0.059836112 0.035530765 0.85310435
-0.058337387 0.031032374 0.85710049
-0.056069091 0.026728498 0.8609159
-0.05312109 0.022669345 0.86450672
-0.049576566 0.018895106 0.86783785
-0.045511812 0.015437478 0.8708818
-0.040996574 0.01232222 0.87361622
-0.036095075 0.0095716594 0.87602186
-0.030867828 0.0072068977 0.87808043
-0.025374832 0.0052501191 0.87977278
-0.019683748 0.0037280594 0.88107568
-0.013925105 0.0026839797 0.88195181
-0.01768223 0.0033085486 0.88143069
-0.058663119 0.049146701 0.84095442
-0.056240834 0.053432021 0.837111
-0.053045057 0.057383426 0.83355796
-0.049191251 0.060973976 0.83032036
-0.044784874 0.064176224 0.82742369
-0.039921083 0.066970751 0.82488614
-0.03468512 0.069344692 0.82272005
-0.029153654 0.071289338 0.82093382
-0.023396734 0.072798021 0.81953418
-0.017480383 0.073864371 0.81852734
-0.011470568 0.074480876 0.81792068
-0.0054423511 0.074637443 0.81772387
0.00046273234 0.074322507 0.81794858
-0.0033677118 0.074582018 0.81775355
0.049284134 0.036569055 0.8511427
0.04865459 0.041209962 0.84701127
0.047155865 0.045708355 0.84301513
0.044887569 0.050012231 0.83919972
0.041939568 0.054071385 0.8356089
0.038395043 0.057845622 0.83227777
0.03433029 0.06130325 0.82923383
0.029815052 0.06441851 0.8264994
0.024913555 0.06716907 0.82409382
0.019686306 0.069533832 0.82203519
0.014193309 0.071490608 0.82034284
0.0085022263 0.073012672 0.81903994
0.0027435832 0.074056752 0.81816381
0.0065007089 0.073432177 0.81868494
0.046837337 0.027966598 0.85932082
0.04444458 0.023733504 0.8631174
0.04128775 0.01983026 0.86662716
0.037480906 0.016283471 0.8698253
0.033128239 0.013120252 0.87268668
0.028323725 0.010359786 0.8751933
0.023151578 0.008014773 0.87733299
0.017687527 0.0060938234 0.87909746
0.012000768 0.0046035349 0.88048005
0.0061565246 0.0035501805 0.88147461
0.00021995527 0.0029411879 0.88207388
-0.0057347934 0.002786526 0.88226831
-0.011567908 0.003097625 0.88204634
-0.0077841477 0.0028412808 0.88223892
-0.059794292 0.040390953 0.84925669
-0.059172422 0.035806604 0.85333782
-0.057691962 0.03136304 0.85728526
-0.055451307 0.027111616 0.86105418
-0.052539241 0.023101935 0.86460119
-0.049037915 0.0193737 0.86789173
-0.0450227 0.015958209 0.8708986
-0.040562496 0.012880918 0.87359965
-0.035720732 0.010163882 0.87597597
-0.030557193 0.0078279376 0.8780095
-0.025131142 0.0058950116 0.87968117
-0.01950942 0.0043914989 0.88096821
-0.013820961 0.0033601429 0.88183367
-0.017532295 0.0039771018 0.88131887
-0.058013722 0.049256593 0.84133595
-0.055620961 0.053489689 0.83753937
-0.052464135 0.057392932 0.83402961
-0.048657291 0.060939722 0.83083147
-0.044304624 0.06410294 0.82797009
-0.03950011 0.06686341 0.82546353
-0.034327962 0.069208421 0.82332379
-0.028863912 0.071129367 0.82155937
-0.023177152 0.072619662 0.82017678
-0.017332908 0.07367301 0.81918222
-0.011396339 0.074282005 0.81858289
-0.0054415907 0.074436665 0.81838852
0.00039152385 0.074125566 0.81861049
-0.0033922363 0.07438191 0.81841785
0.048617907 0.036832239 0.85140008
0.047996037 0.041416589 0.84731901
0.04651558 0.045860153 0.84337157
0.044274922 0.050111577 0.83960265
0.041362856 0.05412126 0.83605558
0.03786153 0.057849493 0.83276504
0.033846319 0.061264984 0.82975823
0.029386111 0.064342275 0.82705712
0.024544347 0.067059308 0.82468081
0.01938081 0.069395259 0.82264733
0.013954757 0.071328185 0.8209756
0.0083330348 0.072831698 0.81968856
0.0026445766 0.073863052 0.8188231
0.006355911 0.073246092 0.8193379
0.046176668 0.028277935 0.85940552
0.043814149 0.024098337 0.86315411
0.04069721 0.020244423 0.86661953
0.036938481 0.016742457 0.86977726
0.032640826 0.013619216 0.87260246
0.02789703 0.010893635 0.87507737
0.022790248 0.0085782586 0.87719005
0.01739525 0.0066815899 0.87893218
0.01178036 0.0052101333 0.8802973
0.0060099768 0.0041700928 0.88127929
0.00014843386 0.0035687929 0.88187099
-0.0057310583 0.0034160863 0.88206297
-0.011490453 0.0037232575 0.88184381
-0.0077545117 0.003470154 0.88203394
-0.059107352 0.04054527 0.84946859
-0.058493342 0.03601886 0.8534981
-0.057031587 0.031631451 0.85739565
-0.054819256 0.027433757 0.86111695
-0.051943991 0.023474751 0.86461914
-0.048486914 0.019793632 0.86786813
-0.044522446 0.016421305 0.87083691
-0.040118605 0.013382908 0.87350386
-0.035338033 0.010700208 0.87585014
-0.03023975 0.0083937878 0.87785798
-0.024882274 0.0064852857 0.87950855
-0.019331601 0.0050007752 0.88077933
-0.013715032 0.0039824578 0.88163382
-0.017379463 0.0045916205 0.88112557
-0.057349287 0.049298868 0.84164792
-0.054986767 0.053478464 0.83789933
-0.051869828 0.057332378 0.83443397
-0.0481111 0.060834344 0.83127624
-0.043813445 0.063957587 0.82845098
-0.039069649 0.066683166 0.82597607
-0.033962864 0.068998545 0.82386339
-0.028567867 0.07089521 0.82212126
-0.022952978 0.07236667 0.82075614
-0.017182594 0.073406711 0.81977415
-0.011321052 0.07400801 0.81918246
-0.0054415604 0.074160717 0.81899047
0.00031783446 0.073853545 0.81920964
-0.0034181066 0.074106649 0.8190195
0.047934733 0.037031531 0.85158485
0.047320724 0.041557945 0.84755534
0.045858972 0.04594535 0.84365779
0.043646637 0.050143044 0.83993649
0.040771373 0.054102052 0.8364343
0.037314296 0.057783172 0.83318537
0.033349827 0.061155498 0.83021653
0.028945986 0.064193897 0.82754958
0.024165414 0.066876598 0.8252033
0.019067131 0.069183014 0.82319546
0.013709656 0.071091518 0.82154489
0.0081589818 0.072576024 0.82027411
0.0025424133 0.073594347 0.81941962
0.0062068435 0.07298518 0.81992787
0.045504425 0.028546326 0.85943758
0.04317265 0.024421124 0.86313736
0.040096272 0.020617366 0.86655772
0.036386468 0.017160974 0.86967432
0.032144733 0.01407838 0.87246275
0.027462672 0.011388267 0.87490547
0.022422351 0.0091030262 0.87699068
0.01709757 0.0072310367 0.87871015
0.011555751 0.0057787304 0.88005751
0.0058604633 0.0047522257 0.88102669
7.5203083e-05 0.0041587534 0.88161069
-0.0057277726 0.0040080324 0.88180017
-0.011412214 0.0043112049 0.88158387
-0.0077248928 0.0040613962 0.88177156
-0.058409426 0.040654015 0.84963
-0.057803407 0.036186509 0.85360706
-0.056360669 0.031856202 0.85745388
-0.054177135 0.027713137 0.86112672
-0.051339284 0.023805654 0.86458337
-0.047927197 0.020172438 0.86779004
-0.04401432 0.016844001 0.87072021
-0.0396678 0.013845144 0.87335247
-0.034949441 0.011197357 0.87566823
-0.029917507 0.0089209527 0.8776499
-0.024629753 0.0070372908 0.87927902
-0.019151317 0.0055720978 0.88053322
-0.013607843 0.0045670322 0.88137662
-0.017224584 0.005168268 0.88087493
-0.056674238 0.049293693 0.84191114
-0.054342467 0.053418893 0.8382113
-0.051266089 0.057222653 0.834791
-0.047556281 0.060679045 0.83167434
-0.043314546 0.063761637 0.82888591
-0.038632486 0.066451751 0.8264432
-0.033592165 0.068736993 0.82435805
-0.028267385 0.070608981 0.82263857
-0.022725567 0.072061285 0.82129121
-0.017030278 0.073087789 0.82032198
-0.011245019 0.073681265 0.81973797
-0.0054420428 0.073831983 0.81954855
0.00024239917 0.073528811 0.81976485
-0.0034449224 0.073778622 0.81957716
0.047239613 0.037186004 0.85171872
0.04663359 0.041653506 0.84774166
0.045190856 0.045983817 0.84389478
0.043007318 0.05012688 0.84022194
0.040169466 0.054034363 0.83676529
0.03675738 0.05766758 0.83355868
0.032844506 0.060996018 0.83062845
0.028497985 0.063994877 0.82799619
0.023779625 0.066642664 0.82568043
0.018747691 0.068919063 0.82369882
0.013459938 0.070802726 0.8220697
0.0079815015 0.07226792 0.82081544
0.0024380272 0.073272988 0.81997204
0.0060547683 0.072671749 0.82047373
0.044823725 0.028783696 0.85943162
0.042523067 0.02471354 0.86308205
0.039487749 0.020960541 0.86645675
0.035827439 0.017550273 0.86953175
0.031642314 0.014508813 0.87228298
0.027022732 0.011854598 0.8746931
0.022049669 0.0095998496 0.87675047
0.016795941 0.0077528437 0.878447
0.011328074 0.0063199173 0.87977636
0.0057087867 0.00530711 0.88073266
7.2832989e-07 0.0047215573 0.88130885
-0.0057248129 0.0045728469 0.88149577
-0.0113334 0.0048719728 0.88128239
-0.0076952833 0.004625496 0.88146758
-0.057703465 0.040729813 0.84975487
-0.057105534 0.036321927 0.85367888
-0.055682056 0.032049403 0.85747439
-0.053527649 0.027961623 0.86109823
-0.050727673 0.024106283 0.86450875
-0.047361117 0.020521551 0.86767262
-0.043500461 0.017237527 0.87056375
-0.039211933 0.01427869 0.87316084
-0.034556538 0.011666236 0.87544566
-0.029591752 0.0094202086 0.87740093
-0.024374561 0.0075616832 0.87900829
-0.018969228 0.0061160414 0.88024575
-0.013499729 0.0051243859 0.88107789
-0.017068207 0.0057175974 0.88058293
-0.055991434 0.049254201 0.84213901
-0.053690776 0.053324357 0.83848858
-0.050655458 0.057077356 0.83511394
-0.046995148 0.060487628 0.83203888
-0.042810023 0.063529089 0.82928765
-0.038190439 0.066183299 0.82687753
-0.033217378 0.068438046 0.82482016
-0.027963649 0.070285052 0.82312369
-0.022495782 0.071717978 0.82179427
-0.016876495 0.072730787 0.82083797
-0.011168436 0.073316343 0.82026178
-0.0054428955 0.073465049 0.82007486
0.00016569198 0.073165923 0.8202883
-0.0034724246 0.073412403 0.82010305
0.046535756 0.037308082 0.85181576
0.045937825 0.041715972 0.84789175
0.044514351 0.045988496 0.84409624
0.042359941 0.050076276 0.8404724
0.039559964 0.053931616 0.83706188
0.036193412 0.057516348 0.83389801
0.032332752 0.06080037 0.83100694
0.028044224 0.063759208 0.82840979
0.023388829 0.066371664 0.82612497
0.018424045 0.068617687 0.82416975
0.013206854 0.070476212 0.8225624
0.0078015211 0.071921855 0.82132488
0.002332021 0.072913513 0.82049274
0.0059004994 0.072320305 0.8209877
0.044136699 0.028998183 0.85939759
0.041867435 0.024983564 0.86299819
0.038873535 0.021281775 0.86632681
0.035263173 0.017918041 0.86935991
0.031135151 0.014918081 0.87207359
0.026578609 0.012300084 0.8744508
0.021673404 0.010076107 0.8764801
0.016491363 0.0082542989 0.87815344
0.011098105 0.0068409233 0.87946469
0.0055554933 0.0058419369 0.88040793
-7.4678617e-05 0.0052643735 0.88097632
-0.005722092 0.0051176944 0.88116068
-0.011254149 0.005412742 0.88095015
-0.0076656751 0.0051696259 0.88113284
-0.056991488 0.040781293 0.84985286
-0.056401711 0.036433551 0.85372335
-0.05499766 0.032219328 0.85746706
-0.052872654 0.028187327 0.86104149
-0.05011088 0.024384592 0.86440545
-0.046790265 0.020848775 0.86752611
-0.042982284 0.017609566 0.87037778
-0.038752276 0.0146911 0.87293947
-0.034160405 0.012114291 0.87519312
-0.029263364 0.0098989122 0.87712169
-0.024117362 0.0080657452 0.87870711
-0.018785788 0.0066398317 0.87992769
-0.013390918 0.0056617111 0.88074851
-0.016910706 0.0062468252 0.88026029
-0.055302817 0.049189366 0.84234095
-0.053033549 0.053203981 0.83874029
-0.050039649 0.056905773 0.83541173
-0.046429288 0.060269509 0.83237863
-0.042301267 0.063269466 0.82966495
-0.037744723 0.065887466 0.82728767
-0.032839518 0.068111442 0.82525843
-0.027657477 0.069933251 0.82358503
-0.02226422 0.071346626 0.82227379
-0.016721608 0.072345614 0.82133055
-0.011091436 0.072923176 0.82076222
-0.0054440224 0.073069856 0.8205778
8.8034714e-05 0.072774805 0.82078832
-0.003500439 0.073017925 0.8206057
0.045825373 0.037406255 0.85188562
0.045235597 0.041753996 0.84801519
0.043831546 0.04596822 0.84427148
0.04170654 0.050000221 0.84069705
0.038944766 0.053802956 0.83733308
0.03562415 0.057338774 0.83421236
0.03181617 0.060577981 0.83136076
0.027586162 0.063496448 0.82879907
0.022994291 0.066073261 0.82654542
0.01809725 0.068288639 0.82461685
0.012951247 0.070121802 0.82303143
0.0076196729 0.071547717 0.82181078
0.0022248037 0.072525837 0.82099003
0.0057445904 0.07194072 0.82147825
0.043444838 0.029195566 0.85934246
0.041207176 0.025236864 0.86289293
0.038254969 0.02158663 0.86617523
0.034694891 0.018269744 0.86916608
0.030624365 0.015311565 0.87184197
0.026131282 0.012730031 0.8741861
0.021294395 0.010537026 0.87618709
0.016184527 0.0087405918 0.87783718
0.010866384 0.0073469039 0.87913013
0.0054009664 0.0063618305 0.88006026
-0.00015079259 0.00579231 0.88062066
-0.0057195514 0.0056476737 0.88080251
-0.011174561 0.005938611 0.88059491
-0.0076360651 0.0056988834 0.88077503
-0.056274895 0.040814571 0.8499307
-0.055693336 0.03652738 0.85374731
-0.054308835 0.032371849 0.85743886
-0.052213423 0.028396005 0.86096346
-0.049490117 0.024646232 0.86428058
-0.046215747 0.02115966 0.86735785
-0.042460803 0.017965565 0.87016976
-0.038289711 0.015087744 0.87269574
-0.033761792 0.012546827 0.87491804
-0.028932953 0.010362302 0.87681973
-0.02385862 0.0085546654 0.8783831
-0.018601302 0.0071486114 0.8795867
-0.01328157 0.0061841127 0.88039601
-0.016752334 0.0067610801 0.87991464
-0.054609742 0.049105536 0.8425234
-0.052372083 0.053064242 0.83897293
-0.049419876 0.056714475 0.83569068
-0.045859799 0.060031362 0.83269984
-0.041789271 0.06298954 0.83002394
-0.037296187 0.06557107 0.82767981
-0.0324593 0.067764081 0.82567877
-0.027349431 0.069560513 0.82402873
-0.022031289 0.070954204 0.82273573
-0.016565872 0.071939275 0.82180566
-0.011014112 0.072508797 0.82124519
-0.0054453542 0.072653428 0.8210634
9.6554932e-06 0.07236249 0.821271
-0.0035288401 0.07260222 0.82109088
0.045109991 0.037486535 0.85193515
0.044528428 0.041773722 0.8481186
0.043143928 0.045929257 0.84442705
0.041048519 0.049905099 0.84090239
0.038325213 0.053654872 0.83758527
0.035050843 0.057141442 0.83450806
0.031295896 0.060335539 0.83169615
0.027124804 0.063213363 0.82917011
0.022596885 0.065754279 0.82694787
0.017768048 0.067938805 0.82504618
0.012693715 0.069746442 0.82348281
0.0074363966 0.071152493 0.82227921
0.0021166645 0.072116993 0.82146984
0.0055874293 0.071540028 0.82195127
0.042749189 0.02938007 0.85927147
0.040543303 0.025477573 0.86277157
0.037633013 0.021879166 0.86600721
0.034123484 0.018609375 0.86895561
0.03011075 0.015693199 0.87159348
0.025681462 0.013148318 0.87390435
0.020913245 0.010986447 0.87587696
0.015875932 0.0092155226 0.87750357
0.010633299 0.0078416225 0.87877822
0.0052454802 0.0068705357 0.87969506
-0.00022745167 0.0063091032 0.88024759
-0.0057171453 0.0061665182 0.88042682
-0.011094702 0.006453326 0.88022214
-0.0076064481 0.0062169977 0.8803997
-0.055554684 0.040834103 0.84999335
-0.054981384 0.036607783 0.85375571
-0.053616539 0.032511253 0.85739487
-0.051550884 0.028591862 0.86086947
-0.048866242 0.024895329 0.8641395
-0.045638364 0.021458261 0.86717302
-0.041936729 0.018309513 0.86994505
-0.037824862 0.015472556 0.87243515
-0.03336123 0.012967716 0.87462592
-0.028600955 0.010814207 0.87650061
-0.023598671 0.0090322383 0.87804174
-0.018415995 0.0076461448 0.87922823
-0.013171795 0.0066953418 0.8800261
-0.016593281 0.0072641131 0.87955153
-0.053913176 0.049007352 0.84269124
-0.05170729 0.052909847 0.83919114
-0.048796996 0.056508254 0.8359555
-0.045287471 0.059778046 0.8330071
-0.041274738 0.062694222 0.83036923
-0.036845446 0.065239102 0.82805836
-0.032077231 0.067400977 0.82608575
-0.027039917 0.069171898 0.82445914
-0.021797284 0.0705458 0.82318449
-0.016409466 0.071516886 0.82226765
-0.010936534 0.072078317 0.82171512
-0.0054468405 0.072220907 0.82153589
-6.9283895e-05 0.071934097 0.82174057
-0.0035575377 0.072170421 0.82156295
0.044390701 0.037553318 0.85196936
0.043817401 0.041779637 0.848207
0.042452555 0.045876168 0.84456784
0.040386897 0.049795561 0.84109324
0.037702255 0.053492092 0.83782321
0.03447438 0.05692916 0.83478969
0.030772744 0.060077909 0.83201766
0.026660874 0.062914863 0.82952756
0.022197247 0.065419704 0.82733679
0.017436968 0.067573212 0.8254621
0.012434685 0.069355182 0.82392097
0.0072520096 0.070741273 0.82273448
0.0020078092 0.071692079 0.82193661
0.0054292954 0.071123309 0.82241118
0.042050533 0.029554799 0.85918838
0.039876543 0.025708744 0.86263782
0.037008349 0.02216238 0.86582667
0.033549577 0.018939879 0.86873239
0.029594876 0.016065879 0.87133217
0.025229648 0.013557805 0.8736096
0.020530399 0.011427201 0.87555367
0.015565937 0.0096818889 0.87715679
0.010399127 0.0083278595 0.87841296
0.0050892341 0.0073708161 0.87931657
-0.00030454478 0.0068175034 0.87986106
-0.0057148412 0.0066769817 0.88003772
-0.011014624 0.0069596395 0.87983602
-0.007576819 0.0067267348 0.88001102
-0.054831591 0.040843174 0.85004443
-0.054266576 0.036677979 0.85375237
-0.052921474 0.032640699 0.85733891
-0.050885692 0.02877799 0.86076325
-0.048239876 0.025134919 0.86398596
-0.045058683 0.021747561 0.86697567
-0.041410591 0.018644355 0.86970752
-0.037358187 0.015848428 0.87216169
-0.032959115 0.013379814 0.87432075
-0.028267687 0.011257451 0.87616831
-0.023337748 0.0095012542 0.87768716
-0.01823003 0.0081352089 0.87885654
-0.013061676 0.0071981549 0.87964284
-0.016433677 0.0077587059 0.87917513
-0.053213824 0.048898216 0.84284788
-0.051039834 0.052744269 0.83939844
-0.048171636 0.056290634 0.8362096
-0.044712868 0.059513137 0.83330387
-0.040758163 0.062387135 0.83070409
-0.036392935 0.064895213 0.82842666
-0.031693686 0.06702581 0.82648259
-0.026729224 0.068771124 0.82487953
-0.021562414 0.070125155 0.8236233
-0.016252521 0.071082197 0.82271969
-0.010858743 0.071635514 0.8221752
-0.0054484461 0.071776032 0.82199854
-0.00014866366 0.071493372 0.82220024
-0.0035864685 0.071726277 0.82202524
0.043668304 0.037609842 0.85199183
0.043103289 0.041775037 0.84828389
0.041758187 0.045812316 0.84469736
0.039722405 0.049675025 0.84127307
0.037076589 0.053318094 0.83805031
0.033895396 0.056705453 0.83506066
0.030247303 0.05980866 0.83232874
0.026194898 0.062604591 0.82987458
0.021795826 0.0650732 0.82771558
0.0171044 0.067195565 0.82586801
0.012174461 0.068951763 0.82434911
0.007066743 0.070317805 0.82317978
0.0018983887 0.071254857 0.82239342
0.0052703894 0.070694312 0.82286119
0.041349433 0.029722115 0.85909599
0.039207458 0.025932692 0.86249465
0.036381491 0.022438549 0.86563659
0.032973647 0.019263497 0.86849952
0.029077183 0.016431816 0.87106097
0.024776231 0.01396067 0.8733049
0.020146172 0.011861443 0.8752203
0.01525481 0.010141828 0.87679982
0.010164082 0.0088077346 0.87803751
0.0049323724 0.0078647835 0.87892783
-0.00038198248 0.0073196185 0.87946433
-0.0057126149 0.0071811653 0.87963837
-0.010934359 0.0074596624 0.87943965
-0.0075471755 0.007230184 0.87961209
-0.054106139 0.040844273 0.85008669
-0.053549446 0.036740411 0.8537401
-0.052224148 0.032762576 0.85727376
-0.05021834 0.028956743 0.86064768
-0.047611486 0.02536732 0.86382294
-0.044477135 0.022029836 0.8667686
-0.040882755 0.018972326 0.86946028
-0.036890022 0.016217567 0.87187827
-0.032555725 0.013785301 0.87400556
-0.027933376 0.011694188 0.87582588
-0.023076031 0.0099638514 0.87732238
-0.018043522 0.0086179208 0.87847453
-0.01295127 0.0076946658 0.87924927
-0.01627362 0.0082469601 0.87878847
-0.052512191 0.048780706 0.84299612
-0.050370213 0.052570131 0.83959746
-0.047544248 0.056064274 0.83645558
-0.044136405 0.059239328 0.83359265
-0.040239941 0.062071007 0.83103114
-0.035938989 0.064542152 0.82878727
-0.03130893 0.066641383 0.82687181
-0.026417568 0.068360992 0.82529235
-0.02132684 0.069695085 0.82405466
-0.01609513 0.070638038 0.82316434
-0.010780774 0.071183205 0.82262784
-0.0054501421 0.071321659 0.8224538
-0.00022839742 0.071043164 0.82265252
-0.0036155814 0.071272641 0.82248008
0.042943384 0.03765855 0.85200542
0.042386688 0.041762412 0.84835207
0.04106139 0.045740247 0.84481835
0.039055586 0.049546078 0.84144449
0.036448728 0.053135503 0.83826917
0.033314381 0.056472987 0.83532357
0.029719997 0.059530497 0.83263189
0.025727265 0.062285256 0.83021384
0.021392969 0.064717524 0.82808661
0.01677062 0.066808634 0.82626623
0.011913274 0.068538971 0.82476974
0.0068807648 0.069884904 0.82361764
0.001788513 0.070808157 0.8228429
0.0051108627 0.070255861 0.8233037
0.0406463 0.029883802 0.85899651
0.038536426 0.026151169 0.86234426
0.035752814 0.022709388 0.86543906
0.032396045 0.019581921 0.86825913
0.028557971 0.016792677 0.8707822
0.024321476 0.014358566 0.87299246
0.01976081 0.012290798 0.87487918
0.01494275 0.010596953 0.87643504
0.0099283131 0.0092828553 0.87765419
0.0047750096 0.0083540352 0.87853116
-0.00045970344 0.0078170402 0.87905961
-0.0057104463 0.0076806634 0.87923104
-0.010853936 0.0079549849 0.87903529
-0.0075175138 0.0077289473 0.87920511
-0.053378716 0.040839277 0.85012227
-0.052830368 0.036796916 0.85372084
-0.051524933 0.032878697 0.85720164
-0.049549188 0.0291299 0.86052495
-0.046981398 0.025594268 0.86365265
-0.043894023 0.022306804 0.86655414
-0.040353511 0.019295113 0.86920547
-0.036420614 0.016581638 0.87158728
-0.032151271 0.014185825 0.87368262
-0.027598197 0.012126051 0.8754757
-0.022813646 0.010421646 0.87694979
-0.017856557 0.0090958867 0.87808466
-0.012840619 0.008186467 0.87884778
-0.016113179 0.0087304851 0.87839383
-0.051808655 0.048656769 0.84313798
-0.049698781 0.052389402 0.83979023
-0.04691517 0.055831183 0.83669543
-0.0435584 0.05895865 0.83387536
-0.039720327 0.061747894 0.83135229
-0.03548383 0.064182006 0.82914203
-0.030923164 0.066249773 0.82725531
-0.026105106 0.067943618 0.82569945
-0.021090668 0.069257714 0.8244803
-0.015937364 0.070186533 0.82360333
-0.010702652 0.070723534 0.82307488
-0.0054519088 0.070859909 0.82290345
-0.00030841897 0.070585586 0.8230992
-0.003644841 0.070811622 0.82292938
0.042216361 0.037701294 0.85201222
0.041668013 0.041743655 0.84841365
0.040362578 0.045661878 0.84493285
0.038386833 0.049410671 0.84160954
0.035819042 0.052946303 0.83848184
0.032731667 0.056233767 0.83558035
0.029191155 0.05924546 0.83292902
0.025258258 0.061958935 0.83054721
0.020988917 0.064354748 0.82845187
0.016435841 0.06641452 0.82665879
0.011651291 0.06811893 0.8251847
0.0066942018 0.069444686 0.82404983
0.0016782648 0.070354104 0.82328671
0.0049508237 0.069810085 0.82374066
0.039941452 0.030041216 0.85889161
0.037863757 0.026365507 0.86218828
0.035122596 0.022976218 0.86523587
0.031817015 0.019896448 0.86801291
0.028037477 0.017149739 0.87049752
0.023865592 0.01475275 0.87267411
0.019374477 0.012716518 0.87453204
0.014629899 0.011048505 0.87606418
0.009691935 0.0097544482 0.87726468
0.0046172226 0.0088397944 0.87812829
-0.00053765747 0.0083109858 0.8786487
-0.0057083238 0.008176689 0.8788175
-0.010773371 0.0084468285 0.87862474
-0.0074878316 0.0082242386 0.87879199
-0.052649621 0.040829614 0.85015267
-0.052109636 0.036848903 0.85369641
-0.050824109 0.032990437 0.85712409
-0.048878491 0.029298812 0.86039674
-0.046349864 0.0258171 0.86347669
-0.043309573 0.022579772 0.86633396
-0.039823052 0.019614013 0.86894488
-0.035950139 0.016941918 0.87129033
-0.031745911 0.014582645 0.87335372
-0.02726227 0.012554284 0.87511945
-0.022550687 0.01087587 0.87657106
-0.017669197 0.0095703295 0.87768865
-0.012729757 0.0086747799 0.87844014
-0.015952406 0.0092105027 0.87799311
-0.051103506 0.048527885 0.84327489
-0.049025808 0.052203592 0.83997822
-0.046284646 0.055592883 0.83693057
-0.042979069 0.058672652 0.83415353
-0.039199527 0.06141936 0.83166897
-0.035027646 0.063816346 0.82949239
-0.030536527 0.065852582 0.82763445
-0.025791951 0.067520596 0.82610232
-0.020853985 0.06881465 0.82490176
-0.015779274 0.069729306 0.82403821
-0.010624394 0.070258111 0.8235178
-0.0054537272 0.070392407 0.823349
-0.00038868006 0.070122272 0.8235417
-0.0036742194 0.070344858 0.82337451
0.041487571 0.037739486 0.85201383
0.040947583 0.0417202 0.84847009
0.039662056 0.045578666 0.84504241
0.037716441 0.049270287 0.84176975
0.035187814 0.052751999 0.8386898
0.032147523 0.055989329 0.83583254
0.028661001 0.058955088 0.83322161
0.024788089 0.061627179 0.83087617
0.020583857 0.063986458 0.82881278
0.016100219 0.066014819 0.82704705
0.011388636 0.067693233 0.82559544
0.0065071452 0.068998769 0.82447785
0.0015677054 0.069894321 0.82372636
0.004790355 0.069358595 0.82417339
0.039235104 0.030195413 0.85878247
0.037189648 0.026576748 0.862028
0.034491029 0.023240058 0.86502832
0.031236751 0.020208081 0.86776227
0.027515866 0.017504001 0.87020832
0.023408722 0.01514421 0.87235111
0.018987304 0.013139576 0.8741802
0.014316358 0.011497452 0.87568855
0.009455028 0.010223474 0.87687045
0.00445907 0.0093230158 0.87772065
-0.00061581098 0.0088024167 0.87823296
-0.0057062334 0.0086702025 0.87839913
-0.010692677 0.0089361481 0.87820941
-0.0074581257 0.0087170117 0.87837404
-0.051919047 0.040816385 0.8501792
-0.05138744 0.036897451 0.85366791
-0.050121862 0.033098862 0.85704237
-0.048206445 0.029464532 0.86026424
-0.045717057 0.026036851 0.86329645
-0.042723946 0.022849763 0.86610937
-0.039291535 0.019930027 0.86867976
-0.035478722 0.017299406 0.87098879
-0.031339742 0.014976743 0.87302017
-0.026925683 0.01297986 0.87475848
-0.02228722 0.011327496 0.87618756
-0.017481485 0.010042215 0.87728781
-0.012618701 0.0091605624 0.87802762
-0.015791338 0.0096879695 0.87758756
-0.050396923 0.048395187 0.84340811
-0.04835147 0.052013848 0.84016263
-0.045652848 0.055350538 0.83716232
-0.042398572 0.058382519 0.83442837
-0.038677689 0.061086595 0.83198231
-0.034570545 0.063446388 0.82983953
-0.030149126 0.065451019 0.82801038
-0.02547818 0.067093149 0.82650208
-0.02061685 0.068367124 0.82532012
-0.015620892 0.069267578 0.82446992
-0.010546011 0.06978818 0.82395762
-0.0054555885 0.069920398 0.82379144
-0.00046914586 0.06965445 0.82398123
-0.0037036967 0.069873586 0.82381654
0.040757224 0.037774213 0.85201144
0.040225618 0.041693147 0.84852272
0.03896004 0.045491733 0.84514821
0.037044622 0.049126066 0.84192634
0.034555234 0.052553747 0.83889419
0.031562123 0.055740833 0.83608127
0.028129714 0.058660571 0.83351088
0.024316901 0.061291192 0.83120185
0.020177919 0.063613854 0.82917047
0.015763862 0.065610737 0.8274321
0.011125397 0.067263104 0.82600302
0.006319663 0.068548381 0.82490283
0.0014568785 0.069430038 0.82416296
0.0046295165 0.068902627 0.82460308
0.038527418 0.030347196 0.85867012
0.036514267 0.026785681 0.86186439
0.033858266 0.023501687 0.86481732
0.030655378 0.020517591 0.86750811
0.026993258 0.017856218 0.86991549
0.022950979 0.015533696 0.87202442
0.018599391 0.013560721 0.87382472
0.014002211 0.011944529 0.87530917
0.0092176516 0.010690673 0.87647247
0.0043005967 0.0098044341 0.8773092
-0.00069413835 0.0092920568 0.87781346
-0.0057041687 0.0091619324 0.87797701
-0.010611861 0.0094236797 0.87779027
-0.0074283932 0.0092080012 0.87795228
