# .PCD v0.7 - Point Cloud Data file format
VERSION 0.7
FIELDS x y z rgba
SIZE 4 4 4 4
TYPE F F F U
COUNT 1 1 1 1
WIDTH 1024
HEIGHT 1
VIEWPOINT 0 0 0 1 0 0 0
POINTS 1024
DATA ascii
0.014065782 0.012726183 0.76900005 4291593984
0.015445444 0.01275928 0.77100003 4291659776
0.016832076 0.012792379 0.77300006 4291987456
0.01820216 0.012808928 0.77400005 4292053504
0.019600987 0.012842026 0.77600002 4291987456
0.020952778 0.012842026 0.77600002 4292250880
0.02230457 0.012842026 0.77600002 4292318208
0.023778303 0.012908221 0.78000003 4292515584
0.025137061 0.012908221 0.78000003 4292581632
0.026495824 0.012908221 0.78000003 4292647424
0.028033137 0.012990966 0.78500003 4292844288
0.032503981 0.013139907 0.79400003 4293568264
0.033972487 0.013173006 0.79600006 4293568021
0.035359122 0.013173006 0.79600006 4293962779
0.036745753 0.013173006 0.79600006 4293700645
0.038276099 0.013222652 0.79900002 4294753076
-0.046218749 0.014486475 0.79200006 4291920896
-0.044725854 0.014449891 0.79000002 4292052736
-0.043239933 0.014413309 0.78800005 4291264768
-0.041814104 0.014395018 0.78700006 4291198976
-0.040340371 0.014358437 0.78500003 4291264000
-0.038873605 0.014321854 0.78300005 4291264000
-0.03750962 0.014321854 0.78300005 4291133184
-0.036053307 0.014285273 0.78100002 4292054272
-0.034648385 0.014266982 0.78000003 4290545227
-0.033118907 0.014193818 0.77600002 4287913507
-0.031685241 0.014157237 0.77400005 4284105481
-0.030336933 0.014157237 0.77400005 4279631872
-0.028801359 0.014065782 0.76900005 4278190080
-0.027461763 0.014065782 0.76900005 4278190080
-0.026122164 0.014065782 0.76900005 4278190080
-0.024718111 0.014029198 0.76700002 4278190080
-0.023381997 0.014029198 0.76700002 4280942592
-0.022045882 0.014029198 0.76700002 4282649095
-0.020709768 0.014029198 0.76700002 4286200322
-0.019373653 0.014029198 0.76700002 4287253267
-0.018014025 0.014010907 0.76600003 4286075455
-0.016679652 0.014010907 0.76600003 4285746490
-0.015345279 0.014010907 0.76600003 4280822820
-0.014010907 0.014010907 0.76600003 4278190592
-0.012643438 0.013974326 0.76400006 4279109135
-0.01131255 0.013974326 0.76400006 4279174929
-0.0099816611 0.013974326 0.76400006 4278716183
-0.0086507732 0.013974326 0.76400006 4278190080
-0.0073007224 0.013937743 0.76200002 4280418304
-0.0059733186 0.013937743 0.76200002 4287257183
-0.0046581086 0.013974326 0.76400006 4285683516
-0.0033272204 0.013974326 0.76400006 4278845440
-0.0019963323 0.013974326 0.76400006 4278190080
-0.00066544407 0.013974326 0.76400006 4278847233
0.00066544407 0.013974326 0.76400006 4279042838
0.0019963323 0.013974326 0.76400006 4278190080
0.0033359304 0.014010907 0.76600003 4282908672
0.0046703028 0.014010907 0.76600003 4290865508
0.0060046744 0.014010907 0.76600003 4291002624
0.0073390468 0.014010907 0.76600003 4291134209
0.0087073883 0.014065782 0.76900005 4291199744
0.010046986 0.014065782 0.76900005 4291199744
0.011416198 0.014102362 0.77100003 4291264768
0.01275928 0.014102362 0.77100003 4291527936
0.014102362 0.014102362 0.77100003 4291593472
0.015485511 0.014138945 0.77300006 4291856384
0.016853852 0.014157237 0.77400005 4291987456
0.01820216 0.014157237 0.77400005 4292119296
0.019600987 0.014193818 0.77600002 4292119296
0.021006782 0.0142304 0.77800006 4292250880
0.022362057 0.0142304 0.77800006 4292383488
0.023778303 0.014266982 0.78000003 4292646400
0.025169291 0.014285273 0.78100002 4292581632
0.026597731 0.014321854 0.78300005 4292844800
0.028033137 0.014358437 0.78500003 4292910848
0.032503981 0.014523054 0.79400003 4293568000
0.033972487 0.014559639 0.79600006 4293436421
0.035359122 0.014559639 0.79600006 4293896972
0.036745753 0.014559639 0.79600006 4293700372
0.038276099 0.014614511 0.79900002 4294687523
-0.046218749 0.015866138 0.79200006 4288897290
-0.044725854 0.015826071 0.79000002 4291134252
-0.043239933 0.015786005 0.78800005 4291264768
-0.041867234 0.015786005 0.78800005 4291198976
-0.040340371 0.015725907 0.78500003 4291198976
-0.038873605 0.015685841 0.78300005 4291133184
-0.03750962 0.015685841 0.78300005 4291067392
-0.036053307 0.015645776 0.78100002 4291067392
-0.034648385 0.015625741 0.78000003 4290608128
-0.033118907 0.015545608 0.77600002 4291595014
-0.031685241 0.015505545 0.77400005 4288377933
-0.030336933 0.015505545 0.77400005 4286404143
-0.028951174 0.015485511 0.77300006 4282462262
-0.027604608 0.015485511 0.77300006 4278779904
-0.0261901 0.015445444 0.77100003 4278190082
-0.024782566 0.015405378 0.76900005 4278190083
-0.023442967 0.015405378 0.76900005 4279762947
-0.022103371 0.015405378 0.76900005 4279894020
-0.020763772 0.015405378 0.76900005 4280745984
-0.019424174 0.015405378 0.76900005 4280877056
-0.018084574 0.015405378 0.76900005 4280156171
-0.016701426 0.015365313 0.76700002 4279894024
-0.015365313 0.015365313 0.76700002 4278583296
-0.014010907 0.015345279 0.76600003 4278452224
-0.012676535 0.015345279 0.76600003 4278517766
-0.01131255 0.015305214 0.76400006 4278714378
-0.0099816611 0.015305214 0.76400006 4278255639
-0.0086507732 0.015305214 0.76400006 4278190085
-0.0073198848 0.015305214 0.76400006 4280025088
-0.0059889969 0.015305214 0.76400006 4286665303
-0.0046703028 0.015345279 0.76600003 4285617152
-0.0033359304 0.015345279 0.76600003 4279238656
-0.0020015582 0.015345279 0.76600003 4278190080
-0.00066718605 0.015345279 0.76600003 4278847233
0.00066718605 0.015345279 0.76600003 4279174929
0.0020015582 0.015345279 0.76600003 4278190080
0.0033402853 0.015365313 0.76700002 4283105280
0.0046763993 0.015365313 0.76700002 4290666848
0.0060125138 0.015365313 0.76700002 4291462144
0.0073677897 0.015405378 0.76900005 4291659520
0.0087300343 0.015445444 0.77100003 4291527680
0.010073116 0.015445444 0.77100003 4291330048
0.011416198 0.015445444 0.77100003 4291198976
0.01275928 0.015445444 0.77100003 4291462144
0.014138945 0.015485511 0.77300006 4291593472
0.015485511 0.015485511 0.77300006 4291724800
0.016853852 0.015505545 0.77400005 4291790336
0.018249193 0.015545608 0.77600002 4292119040
0.019600987 0.015545608 0.77600002 4292119296
0.021006782 0.015585676 0.77800006 4292316928
0.022419542 0.015625741 0.78000003 4292186624
0.023808787 0.015645776 0.78100002 4292515584
0.025169291 0.015645776 0.78100002 4292713472
0.026665669 0.015725907 0.78500003 4292713472
0.028033137 0.015725907 0.78500003 4292713472
0.032503981 0.015906204 0.79400003 4293633792
0.034057844 0.015986335 0.79800004 4293567744
0.035447963 0.015986335 0.79800004 4293896965
0.036884241 0.016006369 0.79900002 4293700113
-0.046218749 0.017245801 0.79200006 4287057152
-0.044725854 0.017202251 0.79000002 4290412834
-0.043239933 0.017158702 0.78800005 4291331584
-0.041867234 0.017158702 0.78800005 4291002624
-0.040340371 0.017093375 0.78500003 4291198976
-0.038972899 0.017093375 0.78500003 4291133184
-0.03750962 0.017049827 0.78300005 4291067392
-0.036053307 0.017006276 0.78100002 4291067392
-0.034648385 0.016984502 0.78000003 4291001344
-0.033204265 0.016940951 0.77800006 4291527680
-0.031767115 0.016897403 0.77600002 4290609725
-0.030415324 0.016897403 0.77600002 4289293865
-0.028951174 0.016832076 0.77300006 4286865946
-0.027604608 0.016832076 0.77300006 4282589440
-0.026258042 0.016832076 0.77300006 4280090880
-0.024847019 0.016788527 0.77100003 4278910976
-0.023503937 0.016788527 0.77100003 4278190080
-0.022160854 0.016788527 0.77100003 4278190080
-0.020817773 0.016788527 0.77100003 4278190080
-0.019474691 0.016788527 0.77100003 4278190080
-0.01813161 0.016788527 0.77100003 4278190080
-0.016744979 0.016744979 0.76900005 4278190080
-0.015405378 0.016744979 0.76900005 4278190080
-0.014029198 0.016701426 0.76700002 4278190080
-0.012693084 0.016701426 0.76700002 4278190080
-0.011342163 0.016679652 0.76600003 4278190080
-0.010007791 0.016679652 0.76600003 4278190080
-0.0086734183 0.016679652 0.76600003 4278190080
-0.0073390468 0.016679652 0.76600003 4278779904
-0.0060046744 0.016679652 0.76600003 4285617748
-0.0046703028 0.016679652 0.76600003 4285553153
-0.0033402853 0.016701426 0.76700002 4279042048
-0.0020041713 0.016701426 0.76700002 4278190080
-0.00066805707 0.016701426 0.76700002 4278649347
0.00066718605 0.016679652 0.76600003 4279174929
0.0020015582 0.016679652 0.76600003 4278190080
0.0033489955 0.016744979 0.76900005 4283367424
0.0046885936 0.016744979 0.76900005 4291061091
0.0060281917 0.016744979 0.76900005 4290937382
0.0073869512 0.016788527 0.77100003 4291529262
0.0087300343 0.016788527 0.77100003 4291396352
0.010099247 0.016832076 0.77300006 4291198976
0.011445812 0.016832076 0.77300006 4291264000
0.012792379 0.016832076 0.77300006 4291593216
0.014138945 0.016832076 0.77300006 4291528192
0.015505545 0.016853852 0.77400005 4291528192
0.016853852 0.016853852 0.77400005 4291724288
0.018249193 0.016897403 0.77600002 4292119040
0.019651504 0.016940951 0.77800006 4291988992
0.021006782 0.016940951 0.77800006 4292120832
0.022419542 0.016984502 0.78000003 4292317440
0.023808787 0.017006276 0.78100002 4292515072
0.025298197 0.017093375 0.78500003 4292778496
0.026665669 0.017093375 0.78500003 4292778496
0.028033137 0.017093375 0.78500003 4292449280
0.029512968 0.017158702 0.78800005 4292317696
0.032503981 0.017289352 0.79400003 4293830916
0.034057844 0.017376453 0.79800004 4293633284
0.035447963 0.017376453 0.79800004 4293896713
0.036884241 0.017398227 0.79900002 4293634068
0.038276099 0.017398227 0.79900002 4294489377
-0.046218749 0.018625466 0.79200006 4286401024
-0.044725854 0.018578431 0.79000002 4290019621
-0.043239933 0.018531399 0.78800005 4291397376
-0.041867234 0.018531399 0.78800005 4291397376
-0.040443148 0.018507883 0.78700006 4291461888
-0.038972899 0.018460847 0.78500003 4291264768
-0.03750962 0.018413812 0.78300005 4291198976
-0.036053307 0.018366778 0.78100002 4291067392
-0.034648385 0.018343262 0.78000003 4290935552
-0.033204265 0.018296229 0.77800006 4291001344
-0.031848989 0.018296229 0.77800006 4290805248
-0.030415324 0.018249193 0.77600002 4291002624
-0.028988626 0.01820216 0.77400005 4289954832
-0.027640317 0.01820216 0.77400005 4290020625
-0.026292009 0.01820216 0.77400005 4288971028
-0.024911474 0.018178644 0.77300006 4286668288
-0.023564909 0.018178644 0.77300006 4286012160
-0.022218343 0.018178644 0.77300006 4284827904
-0.020871775 0.018178644 0.77300006 4284499200
-0.019474691 0.01813161 0.77100003 4284104448
-0.01813161 0.01813161 0.77100003 4284628224
-0.016788527 0.01813161 0.77100003 4284956928
-0.015445444 0.01813161 0.77100003 4285155328
-0.014065782 0.018084574 0.76900005 4285352960
-0.012726183 0.018084574 0.76900005 4284169732
-0.01135697 0.018037539 0.76700002 4283051008
-0.010007791 0.018014025 0.76600003 4282853120
-0.0086734183 0.018014025 0.76600003 4281603072
-0.0073390468 0.018014025 0.76600003 4283439360
-0.0060046744 0.018014025 0.76600003 4287650364
-0.0046885936 0.018084574 0.76900005 4285486848
-0.0033577052 0.01813161 0.77100003 4279238656
-0.0020093974 0.018084574 0.76900005 4278190080
-0.0006697991 0.018084574 0.76900005 4278780934
0.0006697991 0.018084574 0.76900005 4279109383
0.0020146233 0.01813161 0.77100003 4278452224
0.0033577052 0.01813161 0.77100003 4281925632
0.0047007874 0.01813161 0.77100003 4284752154
0.0060438695 0.01813161 0.77100003 4286921472
0.0074061137 0.018178644 0.77300006 4287974144
0.0087526804 0.018178644 0.77300006 4289682432
0.010099247 0.018178644 0.77300006 4292182806
0.011445812 0.018178644 0.77300006 4291527424
0.012792379 0.018178644 0.77300006 4291724800
0.014157237 0.01820216 0.77400005 4291593984
0.015545608 0.018249193 0.77600002 4291528192
0.016897403 0.018249193 0.77600002 4291855104
0.018296229 0.018296229 0.77800006 4292052736
0.019651504 0.018296229 0.77800006 4291923200
0.021060782 0.018343262 0.78000003 4292317952
0.022448285 0.018366778 0.78100002 4292383488
0.023869758 0.018413812 0.78300005 4292646400
0.025298197 0.018460847 0.78500003 4292648192
0.026665669 0.018460847 0.78500003 4292648192
0.02810456 0.018507883 0.78700006 4291594760
0.029512968 0.018531399 0.78800005 4290673920
0.032503981 0.0186725 0.79400003 4293830961
0.034057844 0.018766569 0.79800004 4293568527
0.035447963 0.018766569 0.79800004 4293765906
0.036884241 0.018790085 0.79900002 4293634081
0.038276099 0.018790085 0.79900002 4294160425
-0.044725854 0.019954611 0.79000002 4289294097
-0.043349672 0.019954611 0.79000002 4290803968
-0.041973494 0.019954611 0.79000002 4292054018
-0.040494539 0.019904094 0.78800005 4291659567
-0.039072197 0.019878836 0.78700006 4291199016
-0.037605431 0.019828318 0.78500003 4291396096
-0.036053307 0.01972728 0.78100002 4291133184
-0.034648385 0.019702023 0.78000003 4291000832
-0.033204265 0.019651504 0.77800006 4291066624
-0.031848989 0.019651504 0.77800006 4291066624
-0.030493714 0.019651504 0.77800006 4291263744
-0.02906353 0.019600987 0.77600002 4291199752
-0.02771174 0.019600987 0.77600002 4291792146
-0.026359946 0.019600987 0.77600002 4290740789
-0.024943702 0.019550469 0.77400005 4290740789
-0.023595393 0.019550469 0.77400005 4288575509
-0.022218343 0.019525209 0.77300006 4287062016
-0.020871775 0.019525209 0.77300006 4286730752
-0.019525209 0.019525209 0.77300006 4286533632
-0.01813161 0.019474691 0.77100003 4286728704
-0.016788527 0.019474691 0.77100003 4287123456
-0.015445444 0.019474691 0.77100003 4287780864
-0.014102362 0.019474691 0.77100003 4287978240
-0.01275928 0.019474691 0.77100003 4287127296
-0.011386584 0.019424174 0.76900005 4286403584
-0.010046986 0.019424174 0.76900005 4285156096
-0.0087073883 0.019424174 0.76900005 4285156096
-0.0073677897 0.019424174 0.76900005 4285018880
-0.0060281917 0.019424174 0.76900005 4287255825
-0.0047007874 0.019474691 0.77100003 4285618474
-0.0033577052 0.019474691 0.77100003 4280026112
-0.0020146233 0.019474691 0.77100003 4278190080
-0.00067154109 0.019474691 0.77100003 4278781184
0.00067154109 0.019474691 0.77100003 4280093713
0.0020146233 0.019474691 0.77100003 4279962384
0.0033577052 0.019474691 0.77100003 4280092160
0.0047007874 0.019474691 0.77100003 4278779904
0.0060595479 0.019525209 0.77300006 4280614912
0.0074061137 0.019525209 0.77300006 4283703580
0.0087640025 0.019550469 0.77400005 4288630016
0.010112311 0.019550469 0.77400005 4290472202
0.01146062 0.019550469 0.77400005 4291985664
0.012808928 0.019550469 0.77400005 4292248832
0.014157237 0.019550469 0.77400005 4291659776
0.015545608 0.019600987 0.77600002 4291725824
0.016940951 0.019651504 0.77800006 4291857152
0.018296229 0.019651504 0.77800006 4291857152
0.019702023 0.019702023 0.78000003 4291857152
0.021087782 0.01972728 0.78100002 4292383488
0.022505773 0.019777799 0.78300005 4292253696
0.023869758 0.019777799 0.78300005 4292780032
0.025298197 0.019828318 0.78500003 4292648997
0.026733607 0.019878836 0.78700006 4291596309
0.02810456 0.019878836 0.78700006 4290609920
0.029512968 0.019904094 0.78800005 4290215168
0.031120831 0.020055648 0.79400003 4291266048
0.032503981 0.020055648 0.79400003 4293634581
0.033972487 0.020106167 0.79600006 4293437184
0.035492383 0.020181943 0.79900002 4293897728
-0.044839084 0.021384794 0.79200006 4283244032
-0.043349672 0.021330791 0.79000002 4287572992
-0.041973494 0.021330791 0.79000002 4291849519
-0.040597312 0.021330791 0.79000002 4290737961
-0.039072197 0.02124979 0.78700006 4290211617
-0.037605431 0.021195788 0.78500003 4290936320
-0.036145635 0.021141784 0.78300005 4291265024
-0.034692805 0.021087782 0.78100002 4291132672
-0.033289623 0.021060782 0.78000003 4290935040
-0.03193086 0.021060782 0.78000003 4290868992
-0.030493714 0.021006782 0.77800006 4290934784
-0.029138438 0.021006782 0.77800006 4290803968
-0.02771174 0.020952778 0.77600002 4290803968
-0.026359946 0.020952778 0.77600002 4290476032
-0.024943702 0.020898776 0.77400005 4290607872
-0.023595393 0.020898776 0.77400005 4290281728
-0.02230457 0.020952778 0.77600002 4290084352
-0.020952778 0.020952778 0.77600002 4290150400
-0.019550469 0.020898776 0.77400005 4290413568
-0.018178644 0.020871775 0.77300006 4290281984
-0.016832076 0.020871775 0.77300006 4290150656
-0.015485511 0.020871775 0.77300006 4290281472
-0.014102362 0.020817773 0.77100003 4290281472
-0.01275928 0.020817773 0.77100003 4290085120
-0.011416198 0.020817773 0.77100003 4290809088
-0.010073116 0.020817773 0.77100003 4289431040
-0.0087300343 0.020817773 0.77100003 4287062528
-0.0073869512 0.020817773 0.77100003 4285480448
-0.0060438695 0.020817773 0.77100003 4282454272
-0.0047007874 0.020817773 0.77100003 4282455325
-0.0033577052 0.020817773 0.77100003 4282060567
-0.0020146233 0.020817773 0.77100003 4279632399
-0.00067154109 0.020817773 0.77100003 4279632399
0.00067154109 0.020817773 0.77100003 4279830542
0.0020146233 0.020817773 0.77100003 4280159507
0.0033664154 0.020871775 0.77300006 4279697939
0.0047129816 0.020871775 0.77300006 4278321152
0.0060595479 0.020871775 0.77300006 4280090624
0.0074156951 0.020898776 0.77400005 4283442722
0.0087866485 0.020952778 0.77600002 4286199808
0.010138441 0.020952778 0.77600002 4286726144
0.011490233 0.020952778 0.77600002 4289023488
0.012842026 0.020952778 0.77600002 4292378913
0.0142304 0.021006782 0.77800006 4291987456
0.015585676 0.021006782 0.77800006 4291987456
0.016940951 0.021006782 0.77800006 4291987456
0.018343262 0.021060782 0.78000003 4292053504
0.01972728 0.021087782 0.78100002 4291988992
0.021141784 0.021141784 0.78300005 4292383744
0.022505773 0.021141784 0.78300005 4292383488
0.023930727 0.021195788 0.78500003 4292975616
0.025298197 0.021195788 0.78500003 4291270144
0.026733607 0.02124979 0.78700006 4286598912
0.028140271 0.021276791 0.78800005 4286791168
0.031120831 0.021438796 0.79400003 4291858213
0.032585856 0.0214928 0.79600006 4293371453
0.033972487 0.0214928 0.79600006 4293501952
0.035492383 0.021573801 0.79900002 4293962496
-0.043459423 0.022764459 0.79200006 4285136896
-0.042079758 0.022764459 0.79200006 4291252810
-0.040597312 0.022706972 0.79000002 4289229630
-0.039072197 0.022620745 0.78700006 4288571701
-0.037605431 0.022563256 0.78500003 4290146062
-0.036145635 0.022505773 0.78300005 4291330593
-0.034692805 0.022448285 0.78100002 4291396352
-0.033332303 0.022448285 0.78100002 4290935808
-0.03193086 0.022419542 0.78000003 4290738176
-0.030493714 0.022362057 0.77800006 4290738176
-0.029138438 0.022362057 0.77800006 4290738176
-0.027783163 0.022362057 0.77800006 4290738176
-0.026427886 0.022362057 0.77800006 4290738176
-0.025072608 0.022362057 0.77800006 4290803968
-0.023717333 0.022362057 0.77800006 4291001088
-0.022362057 0.022362057 0.77800006 4291001088
-0.021006782 0.022362057 0.77800006 4290936320
-0.019600987 0.02230457 0.77600002 4291133696
-0.01820216 0.022247085 0.77400005 4290936320
-0.016853852 0.022247085 0.77400005 4290870528
-0.015485511 0.022218343 0.77300006 4290870272
-0.014138945 0.022218343 0.77300006 4290738688
-0.012792379 0.022218343 0.77300006 4290804736
-0.011445812 0.022218343 0.77300006 4291659776
-0.010073116 0.022160854 0.77100003 4290085166
-0.0087300343 0.022160854 0.77100003 4287518983
-0.0073869512 0.022160854 0.77100003 4285153536
-0.0060438695 0.022160854 0.77100003 4280614912
-0.0047007874 0.022160854 0.77100003 4279960576
-0.0033577052 0.022160854 0.77100003 4281079303
-0.0020146233 0.022160854 0.77100003 4280688138
-0.00067154109 0.022160854 0.77100003 4279240704
0.00067154109 0.022160854 0.77100003 4279304192
0.0020198494 0.022218343 0.77300006 4278976512
0.0033664154 0.022218343 0.77300006 4278779904
0.0047312723 0.02230457 0.77600002 4278190080
0.0060830647 0.02230457 0.77600002 4278190080
0.0074348566 0.02230457 0.77600002 4281215527
0.0087866485 0.02230457 0.77600002 4284954624
0.010164572 0.022362057 0.77800006 4285744128
0.011519847 0.022362057 0.77800006 4287711232
0.012875124 0.022362057 0.77800006 4291461672
0.014266982 0.022419542 0.78000003 4291987456
0.015625741 0.022419542 0.78000003 4291724544
0.016984502 0.022419542 0.78000003 4291593472
0.018343262 0.022419542 0.78000003 4292054016
0.019777799 0.022505773 0.78300005 4292120576
0.021195788 0.022563256 0.78500003 4291725824
0.022563256 0.022563256 0.78500003 4291723776
0.023930727 0.022563256 0.78500003 4292579072
0.025362652 0.022620745 0.78700006 4290020151
0.026767576 0.022649487 0.78800005 4282059264
0.02821169 0.022706972 0.79000002 4284417280
0.02966278 0.022764459 0.79200006 4290601803
0.031199224 0.022879431 0.79600006 4292383522
0.032585856 0.022879431 0.79600006 4293568053
0.033972487 0.022879431 0.79600006 4293173504
-0.042079758 0.024144122 0.79200006 4287249933
-0.040597312 0.024083152 0.79000002 4286726144
-0.039121844 0.024022182 0.78800005 4285936896
-0.037701242 0.023991698 0.78700006 4286726150
-0.036237955 0.023930727 0.78500003 4287844632
-0.034781646 0.023869758 0.78300005 4289420032
-0.033417664 0.023869758 0.78300005 4291525657
-0.031971801 0.023808787 0.78100002 4291066624
-0.030572103 0.023778303 0.78000003 4290868992
-0.029213343 0.023778303 0.78000003 4290868992
-0.027783163 0.023717333 0.77800006 4290803200
-0.026427886 0.023717333 0.77800006 4290672384
-0.025072608 0.023717333 0.77800006 4290672384
-0.023717333 0.023717333 0.77800006 4290606336
-0.022362057 0.023717333 0.77800006 4290606336
-0.021006782 0.023717333 0.77800006 4290475520
-0.019600987 0.023656361 0.77600002 4290475520
-0.018249193 0.023656361 0.77600002 4290409728
-0.016853852 0.023595393 0.77400005 4290343936
-0.015505545 0.023595393 0.77400005 4290474496
-0.014138945 0.023564909 0.77300006 4290343168
-0.012792379 0.023564909 0.77300006 4290409728
-0.011445812 0.023564909 0.77300006 4290870272
-0.010099247 0.023564909 0.77300006 4289820928
-0.0087300343 0.023503937 0.77100003 4287715840
-0.0073869512 0.023503937 0.77100003 4284762112
-0.0060438695 0.023503937 0.77100003 4279566336
-0.0047007874 0.023503937 0.77100003 4278977024
-0.0033577052 0.023503937 0.77100003 4279832320
-0.0020146233 0.023503937 0.77100003 4280225024
-0.00067154109 0.023503937 0.77100003 4279435776
0.00067154109 0.023503937 0.77100003 4280877056
0.0020198494 0.023564909 0.77300006 4281729797
0.0033664154 0.023564909 0.77300006 4283175936
0.0047312723 0.023656361 0.77600002 4284821000
0.0060830647 0.023656361 0.77600002 4285938688
0.0074348566 0.023656361 0.77600002 4288373267
0.0087866485 0.023656361 0.77600002 4289954304
0.010164572 0.023717333 0.77800006 4290283264
0.011519847 0.023717333 0.77800006 4291003392
0.012908221 0.023778303 0.78000003 4291595520
0.014266982 0.023778303 0.78000003 4291987456
0.015625741 0.023778303 0.78000003 4291790336
0.017006276 0.023808787 0.78100002 4291857157
0.018413812 0.023869758 0.78300005 4292844052
0.019828318 0.023930727 0.78500003 4291859717
0.021195788 0.023930727 0.78500003 4288438784
0.022563256 0.023930727 0.78500003 4288105216
0.023991698 0.023991698 0.78700006 4288960512
0.025394879 0.024022182 0.78800005 4287455232
0.026835512 0.024083152 0.79000002 4283639296
0.028283117 0.024144122 0.79200006 4284688640
0.02966278 0.024144122 0.79200006 4289688632
0.031199224 0.024266064 0.79600006 4291531520
0.032585856 0.024266064 0.79600006 4292057856
-0.040597312 0.025459332 0.79000002 4285606656
-0.039121844 0.025394879 0.78800005 4286132992
-0.037701242 0.025362652 0.78700006 4285481472
-0.036237955 0.025298197 0.78500003 4284560384
-0.034781646 0.025233746 0.78300005 4288566016
-0.033417664 0.025233746 0.78300005 4291263512
-0.032053676 0.025233746 0.78300005 4291394816
-0.030611297 0.025169291 0.78100002 4291065600
-0.029250795 0.025169291 0.78100002 4290934272
-0.027854582 0.025137061 0.78000003 4290934272
-0.026495824 0.025137061 0.78000003 4290738176
-0.025137061 0.025137061 0.78000003 4290738176
-0.023778303 0.025137061 0.78000003 4290541312
-0.022419542 0.025137061 0.78000003 4290409728
-0.021006782 0.025072608 0.77800006 4290474752
-0.019651504 0.025072608 0.77800006 4290606336
-0.018296229 0.025072608 0.77800006 4290540544
-0.016897403 0.025008155 0.77600002 4290540544
-0.015545608 0.025008155 0.77600002 4290540544
-0.014157237 0.024943702 0.77400005 4290474752
-0.012808928 0.024943702 0.77400005 4290409728
-0.01146062 0.024943702 0.77400005 4290870272
-0.010099247 0.024911474 0.77300006 4289821696
-0.0087526804 0.024911474 0.77300006 4287518976
-0.0074061137 0.024911474 0.77300006 4284499968
-0.0060595479 0.024911474 0.77300006 4279369728
-0.0047129816 0.024911474 0.77300006 4278910976
-0.0033664154 0.024911474 0.77300006 4279697408
-0.0020198494 0.024911474 0.77300006 4280221696
-0.00067328312 0.024911474 0.77300006 4281207296
0.00067328312 0.024911474 0.77300006 4283572480
0.0020224622 0.024943702 0.77400005 4284625408
0.0033881904 0.025072608 0.77800006 4286135552
0.0047434666 0.025072608 0.77800006 4285872640
0.0060987426 0.025072608 0.77800006 4289155840
0.007454019 0.025072608 0.77800006 4290932233
0.0088092946 0.025072608 0.77800006 4291461376
0.010164572 0.025072608 0.77800006 4291987968
0.011549461 0.025137061 0.78000003 4291463680
0.012908221 0.025137061 0.78000003 4291595264
0.014285273 0.025169291 0.78100002 4291725824
0.015645776 0.025169291 0.78100002 4292054784
0.017049827 0.025233746 0.78300005 4292185646
0.018460847 0.025298197 0.78500003 4292646197
0.019878836 0.025362652 0.78700006 4291532358
0.02124979 0.025362652 0.78700006 4286597888
0.022620745 0.025362652 0.78700006 4285341952
0.024022182 0.025394879 0.78800005 4287184137
0.025459332 0.025459332 0.79000002 4286668290
0.026903452 0.025523787 0.79200006 4284168192
0.028354537 0.02558824 0.79400003 4284954624
0.029737685 0.02558824 0.79400003 4289625908
0.031199224 0.025652695 0.79600006 4290677504
-0.04378866 0.027107265 0.79800004 4288506368
-0.039121844 0.026767576 0.78800005 4286138115
-0.037701242 0.026733607 0.78700006 4285679391
-0.036237955 0.026665669 0.78500003 4284100102
-0.034870487 0.026665669 0.78500003 4287910656
-0.033417664 0.026597731 0.78300005 4290476308
-0.032053676 0.026597731 0.78300005 4290868992
-0.030689687 0.026597731 0.78300005 4290868992
-0.029250795 0.026529793 0.78100002 4291066624
-0.027890293 0.026529793 0.78100002 4291066624
-0.026529793 0.026529793 0.78100002 4290804736
-0.025137061 0.026495824 0.78000003 4290672896
-0.023778303 0.026495824 0.78000003 4290541312
-0.022419542 0.026495824 0.78000003 4290409728
-0.021006782 0.026427886 0.77800006 4290540544
-0.019651504 0.026427886 0.77800006 4290540544
-0.018296229 0.026427886 0.77800006 4290605824
-0.016897403 0.026359946 0.77600002 4290605824
-0.015545608 0.026359946 0.77600002 4290605824
-0.014193818 0.026359946 0.77600002 4290605824
-0.012842026 0.026359946 0.77600002 4290606336
-0.011490233 0.026359946 0.77600002 4290737920
-0.010112311 0.026292009 0.77400005 4289952512
-0.0087640025 0.026292009 0.77400005 4288505088
-0.0074156951 0.026292009 0.77400005 4286205440
-0.0060595479 0.026258042 0.77300006 4286337024
-0.0047129816 0.026258042 0.77300006 4285551104
-0.0033664154 0.026258042 0.77300006 4284630016
-0.0020198494 0.026258042 0.77300006 4286401792
-0.00067328312 0.026258042 0.77300006 4289165079
0.00067415409 0.026292009 0.77400005 4289756946
0.0020224622 0.026292009 0.77400005 4290415133
0.0033881904 0.026427886 0.77800006 4290545664
0.0047434666 0.026427886 0.77800006 4290742784
0.0060987426 0.026427886 0.77800006 4291003392
0.0074731805 0.026495824 0.78000003 4291266560
0.0088319406 0.026495824 0.78000003 4291593472
0.010190701 0.026495824 0.78000003 4291593472
0.011549461 0.026495824 0.78000003 4291593984
0.012924771 0.026529793 0.78100002 4292054528
0.014321854 0.026597731 0.78300005 4291858176
0.015685841 0.026597731 0.78300005 4291660544
0.017093375 0.026665669 0.78500003 4289755170
0.018460847 0.026665669 0.78500003 4286794240
0.019878836 0.026733607 0.78700006 4286664448
0.02124979 0.026733607 0.78700006 4286664448
0.022620745 0.026733607 0.78700006 4286072329
0.024022182 0.026767576 0.78800005 4286138123
0.025523787 0.026903452 0.79200006 4287720462
0.026903452 0.026903452 0.79200006 4288049426
0.028354537 0.026971389 0.79400003 4289163542
0.029812593 0.027039329 0.79600006 4290808624
0.031277612 0.027107265 0.79800004 4291463944
-0.045235388 0.028533094 0.79900002 4290870288
-0.04378866 0.028497381 0.79800004 4290279168
-0.042292282 0.02842596 0.79600006 4289687040
-0.039121844 0.028140271 0.78800005 4285679104
-0.037701242 0.02810456 0.78700006 4285481216
-0.036237955 0.028033137 0.78500003 4285217792
-0.034870487 0.028033137 0.78500003 4286925568
-0.033503018 0.028033137 0.78500003 4288438790
-0.032135546 0.028033137 0.78500003 4289420544
-0.030689687 0.027961716 0.78300005 4290604803
-0.029325703 0.027961716 0.78300005 4290934528
-0.027890293 0.027890293 0.78100002 4291460864
-0.026529793 0.027890293 0.78100002 4291002368
-0.025169291 0.027890293 0.78100002 4290804736
-0.023778303 0.027854582 0.78000003 4290541312
-0.022419542 0.027854582 0.78000003 4290475520
-0.021060782 0.027854582 0.78000003 4290540544
-0.019651504 0.027783163 0.77800006 4290540544
-0.018296229 0.027783163 0.77800006 4290605824
-0.016940951 0.027783163 0.77800006 4290671616
-0.015585676 0.027783163 0.77800006 4290671616
-0.0142304 0.027783163 0.77800006 4290671616
-0.012842026 0.02771174 0.77600002 4290736640
-0.011490233 0.02771174 0.77600002 4290802432
-0.010112311 0.027640317 0.77400005 4290083072
-0.0087640025 0.027640317 0.77400005 4288767232
-0.0074156951 0.027640317 0.77400005 4287976448
-0.0060673868 0.027640317 0.77400005 4288436992
-0.0047190785 0.027640317 0.77400005 4288177417
-0.0033707705 0.027640317 0.77400005 4286729984
-0.0020224622 0.027640317 0.77400005 4288105216
-0.00067415409 0.027640317 0.77400005 4291460642
0.00067589607 0.02771174 0.77600002 4291068446
0.0020276881 0.02771174 0.77600002 4291331617
0.0033881904 0.027783163 0.77800006 4291266816
0.0047556604 0.027854582 0.78000003 4291332864
0.0061144209 0.027854582 0.78000003 4291068672
0.0074731805 0.027854582 0.78000003 4291002880
0.0088319406 0.027854582 0.78000003 4291133698
0.010190701 0.027854582 0.78000003 4291133698
0.011564268 0.027890293 0.78100002 4291395364
0.012924771 0.027890293 0.78100002 4291855915
0.014321854 0.027961716 0.78300005 4291397933
0.015725907 0.028033137 0.78500003 4291595055
0.017093375 0.028033137 0.78500003 4287788051
0.018507883 0.02810456 0.78700006 4282919424
0.019904094 0.028140271 0.78800005 4282780416
0.021276791 0.028140271 0.78800005 4286201632
0.022649487 0.028140271 0.78800005 4285876992
0.024083152 0.02821169 0.79000002 4285548032
0.025523787 0.028283117 0.79200006 4288438528
0.026971389 0.028354537 0.79400003 4290280714
0.02842596 0.02842596 0.79600006 4291002405
0.029812593 0.02842596 0.79600006 4291594542
0.031277612 0.028497381 0.79800004 4292118784
0.032790542 0.028604515 0.80100006 4293763591
0.038850959 0.028961625 0.81100005 4294028810
0.040363014 0.029033044 0.81300002 4293832478
0.041779261 0.029033044 0.81300002 4294095650
-0.054659612 0.030524198 0.81500006 4292186402
-0.053109229 0.03044929 0.81300002 4292186624
-0.045235388 0.029924951 0.79900002 4291791616
-0.04378866 0.029887499 0.79800004 4290938368
-0.042292282 0.029812593 0.79600006 4291398662
-0.037749145 0.029512968 0.78800005 4285942272
-0.036330286 0.029475516 0.78700006 4284955392
-0.034959335 0.029475516 0.78700006 4285084160
-0.033503018 0.029400608 0.78500003 4283110400
-0.032135546 0.029400608 0.78500003 4286066176
-0.030689687 0.029325703 0.78300005 4286526720
-0.029325703 0.029325703 0.78300005 4287841792
-0.027961716 0.029325703 0.78300005 4289420806
-0.026597731 0.029325703 0.78300005 4290343936
-0.025169291 0.029250795 0.78100002 4290672640
-0.023808787 0.029250795 0.78100002 4290804480
-0.022419542 0.029213343 0.78000003 4290738688
-0.021060782 0.029213343 0.78000003 4290738688
-0.019702023 0.029213343 0.78000003 4290541312
-0.018343262 0.029213343 0.78000003 4290672384
-0.016940951 0.029138438 0.77800006 4290540544
-0.015585676 0.029138438 0.77800006 4290606336
-0.0142304 0.029138438 0.77800006 4290540544
-0.012875124 0.029138438 0.77800006 4290606336
-0.011519847 0.029138438 0.77800006 4290672128
-0.010138441 0.02906353 0.77600002 4290410240
-0.0087640025 0.028988626 0.77400005 4289949696
-0.0074156951 0.028988626 0.77400005 4288239376
-0.0060673868 0.028988626 0.77400005 4287778825
-0.0047190785 0.028988626 0.77400005 4288832768
-0.0033707705 0.028988626 0.77400005 4289753856
-0.0020276881 0.02906353 0.77600002 4290277888
-0.00067589607 0.02906353 0.77600002 4290870016
0.00067589607 0.02906353 0.77600002 4291002112
0.0020329142 0.029138438 0.77800006 4291133440
0.0033969004 0.029213343 0.78000003 4291002368
0.0047556604 0.029213343 0.78000003 4291199488
0.0061144209 0.029213343 0.78000003 4291198976
0.0074731805 0.029213343 0.78000003 4291067392
0.0088319406 0.029213343 0.78000003 4289092608
0.010203766 0.029250795 0.78100002 4286724096
0.011564268 0.029250795 0.78100002 4287514880
0.012957868 0.029325703 0.78300005 4288304392
0.014358437 0.029400608 0.78500003 4287581952
0.015765974 0.029475516 0.78700006 4286924032
0.017136928 0.029475516 0.78700006 4285482496
0.018531399 0.029512968 0.78800005 4284430080
0.019954611 0.029587872 0.79000002 4285217280
0.021330791 0.029587872 0.79000002 4288704036
0.022764459 0.02966278 0.79200006 4289297408
0.024144122 0.02966278 0.79200006 4288902912
0.025652695 0.029812593 0.79600006 4289096704
0.027039329 0.029812593 0.79600006 4289557248
0.028497381 0.029887499 0.79800004 4290870083
0.029924951 0.029924951 0.79900002 4293106789
0.031316809 0.029924951 0.79900002 4292910336
0.032872412 0.030074764 0.80300003 4293173248
0.037345868 0.030299481 0.80900002 4293436421
0.038850959 0.030374385 0.81100005 4293963021
0.040363014 0.03044929 0.81300002 4293831713
0.041779261 0.03044929 0.81300002 4294226470
0.043195508 0.03044929 0.81300002 4294291760
-0.054793745 0.03202232 0.81700003 4292382999
-0.053109229 0.031865541 0.81300002 4292054530
-0.051692985 0.031865541 0.81300002 4291725824
-0.046743963 0.031395197 0.80100006 4291593984
-0.045235388 0.031316809 0.79900002 4291593984
-0.04384353 0.031316809 0.79900002 4291331328
-0.042398542 0.031277612 0.79800004 4292054784
-0.040905651 0.031199224 0.79600006 4290741532
-0.037844952 0.03096405 0.79000002 4287060736
-0.03637645 0.030885665 0.78800005 4285086976
-0.034959335 0.030846467 0.78700006 4283969536
-0.03358838 0.030846467 0.78700006 4283706624
-0.032135546 0.030768078 0.78500003 4283972608
-0.030768078 0.030768078 0.78500003 4283643648
-0.029400608 0.030768078 0.78500003 4285213184
-0.027961716 0.030689687 0.78300005 4286989577
-0.026597731 0.030689687 0.78300005 4288631808
-0.025233746 0.030689687 0.78300005 4290737168
-0.023808787 0.030611297 0.78100002 4290147877
-0.022448285 0.030611297 0.78100002 4290410793
-0.021060782 0.030572103 0.78000003 4290870562
-0.019702023 0.030572103 0.78000003 4290475804
-0.018343262 0.030572103 0.78000003 4290541312
-0.016940951 0.030493714 0.77800006 4290278144
-0.015585676 0.030493714 0.77800006 4290473984
-0.0142304 0.030493714 0.77800006 4290802944
-0.012875124 0.030493714 0.77800006 4290476032
-0.011519847 0.030493714 0.77800006 4290541824
-0.010138441 0.030415324 0.77600002 4290608384
-0.0087866485 0.030415324 0.77600002 4289489920
-0.0074348566 0.030415324 0.77600002 4288898560
-0.0060830647 0.030415324 0.77600002 4288372224
-0.0047312723 0.030415324 0.77600002 4289225728
-0.0033794802 0.030415324 0.77600002 4290607363
-0.0020329142 0.030493714 0.77800006 4291067136
-0.00067763811 0.030493714 0.77800006 4291198720
0.00067763811 0.030493714 0.77800006 4291133457
0.0020381403 0.030572103 0.78000003 4291067664
0.0033969004 0.030572103 0.78000003 4291001608
0.0047556604 0.030572103 0.78000003 4291001608
0.0061222594 0.030611297 0.78100002 4291395616
0.007482762 0.030611297 0.78100002 4291790118
0.0088432636 0.030611297 0.78100002 4287847936
0.010203766 0.030611297 0.78100002 4284624128
0.011593882 0.030689687 0.78300005 4284822784
0.012990966 0.030768078 0.78500003 4285414912
0.014395018 0.030846467 0.78700006 4286073600
0.015786005 0.030885665 0.78800005 4285678848
0.017158702 0.030885665 0.78800005 4282847488
0.018578431 0.03096405 0.79000002 4284032000
0.020005131 0.031042445 0.79200006 4285937152
0.021384794 0.031042445 0.79200006 4290806073
0.022821944 0.031120831 0.79400003 4290545699
0.024205092 0.031120831 0.79400003 4289361425
0.025652695 0.031199224 0.79600006 4289489920
0.027107265 0.031277612 0.79800004 4290082048
0.028497381 0.031277612 0.79800004 4291594496
0.029924951 0.031316809 0.79900002 4293436686
0.031395197 0.031395197 0.80100006 4292976128
0.032872412 0.031473588 0.80300003 4293305088
0.037438195 0.03178715 0.81100005 4293435392
0.038850959 0.03178715 0.81100005 4293895939
0.040363014 0.031865541 0.81300002 4293765134
0.041779261 0.031865541 0.81300002 4294291478
0.043195508 0.031865541 0.81300002 4294225957
0.044721503 0.031943928 0.81500006 4294488873
-0.054793745 0.033445533 0.81700003 4292186903
-0.053239882 0.033363659 0.81500006 4292054530
-0.051692985 0.033281785 0.81300002 4291791616
-0.045348618 0.032790542 0.80100006 4291462912
-0.04384353 0.032708667 0.79900002 4291264768
-0.042398542 0.03266773 0.79800004 4291462144
-0.040905651 0.032585856 0.79600006 4291003392
-0.03637645 0.032258362 0.78800005 4290479616
-0.035003752 0.032258362 0.78800005 4287983647
-0.03358838 0.032217424 0.78700006 4285154560
-0.032217424 0.032217424 0.78700006 4284434966
-0.030846467 0.032217424 0.78700006 4283842829
-0.029400608 0.032135546 0.78500003 4283833866
-0.028033137 0.032135546 0.78500003 4283307522
-0.026665669 0.032135546 0.78500003 4285344000
-0.025298197 0.032135546 0.78500003 4285278208
-0.023930727 0.032135546 0.78500003 4285804288
-0.022563256 0.032135546 0.78500003 4286396160
-0.021087782 0.031971801 0.78100002 4286528000
-0.01972728 0.031971801 0.78100002 4287580679
-0.018343262 0.03193086 0.78000003 4288236032
-0.016984502 0.03193086 0.78000003 4290670612
-0.015625741 0.03193086 0.78000003 4290738688
-0.014266982 0.03193086 0.78000003 4290541568
-0.012875124 0.031848989 0.77800006 4290541312
-0.011519847 0.031848989 0.77800006 4290870272
-0.010164572 0.031848989 0.77800006 4289165056
-0.0088092946 0.031848989 0.77800006 4283704320
-0.007454019 0.031848989 0.77800006 4285342217
-0.0060987426 0.031848989 0.77800006 4288894783
-0.0047434666 0.031848989 0.77800006 4289160704
-0.0033881904 0.031848989 0.77800006 4289489664
-0.0020329142 0.031848989 0.77800006 4290213376
-0.00067763811 0.031848989 0.77800006 4290279168
0.00067938009 0.03193086 0.78000003 4290083072
0.0020381403 0.03193086 0.78000003 4289556736
0.0033969004 0.03193086 0.78000003 4287447057
0.0047617573 0.031971801 0.78100002 4285473536
0.0061222594 0.031971801 0.78100002 4287184128
0.007482762 0.031971801 0.78100002 4289026314
0.0088432636 0.031971801 0.78100002 4286600960
0.010229897 0.032053676 0.78300005 4280549376
0.011623496 0.032135546 0.78500003 4280616704
0.013024065 0.032217424 0.78700006 4282590475
0.014413309 0.032258362 0.78800005 4284363292
0.015826071 0.032340232 0.79000002 4287126598
0.017202251 0.032340232 0.79000002 4286798080
0.018625466 0.032422107 0.79200006 4286337536
0.020005131 0.032422107 0.79200006 4287321116
0.021384794 0.032422107 0.79200006 4289952835
0.022821944 0.032503981 0.79400003 4289820416
0.024205092 0.032503981 0.79400003 4289031168
0.025652695 0.032585856 0.79600006 4290147328
0.027107265 0.03266773 0.79800004 4293108255
0.028497381 0.03266773 0.79800004 4292583168
0.029924951 0.032708667 0.79900002 4292780288
0.031395197 0.032790542 0.80100006 4292910336
0.032872412 0.032872412 0.80300003 4293304832
0.037438195 0.03319991 0.81100005 4293370115
0.038946766 0.033281785 0.81300002 4293764873
0.040462308 0.033363659 0.81500006 4293634068
0.041882042 0.033363659 0.81500006 4294094619
0.043301772 0.033363659 0.81500006 4294225676
0.044721503 0.033363659 0.81500006 4294620433
-0.054793745 0.034868747 0.81700003 4292251663
-0.053239882 0.034783389 0.81500006 4291922944
-0.051692985 0.034698032 0.81300002 4291922944
-0.04384353 0.034100525 0.79900002 4291462144
-0.042451672 0.034100525 0.79900002 4291396352
-0.041008424 0.034057844 0.79800004 4291396352
-0.039519019 0.033972487 0.79600006 4291659776
-0.036561102 0.033801772 0.79200006 4292120345
-0.035092592 0.033716414 0.79000002 4290086459
-0.033716414 0.033716414 0.79000002 4287323153
-0.032258362 0.033631057 0.78800005 4284434944
-0.030885665 0.033631057 0.78800005 4282987520
-0.029512968 0.033631057 0.78800005 4282845440
-0.02810456 0.03358838 0.78700006 4284424709
-0.026733607 0.03358838 0.78700006 4283774976
-0.025362652 0.03358838 0.78700006 4281274880
-0.023991698 0.03358838 0.78700006 4282062592
-0.022620745 0.03358838 0.78700006 4283444226
-0.021195788 0.033503018 0.78500003 4284167168
-0.019777799 0.033417664 0.78300005 4283114496
-0.018413812 0.033417664 0.78300005 4286328832
-0.017006276 0.033332303 0.78100002 4290868532
-0.015645776 0.033332303 0.78100002 4291002641
-0.014266982 0.033289623 0.78000003 4290344711
-0.012908221 0.033289623 0.78000003 4290738176
-0.011549461 0.033289623 0.78000003 4291395840
-0.010190701 0.033289623 0.78000003 4288246784
-0.0088319406 0.033289623 0.78000003 4280549376
-0.0074731805 0.033289623 0.78000003 4283502592
-0.0061144209 0.033289623 0.78000003 4288766013
-0.0047556604 0.033289623 0.78000003 4288439040
-0.0033969004 0.033289623 0.78000003 4288241664
-0.0020381403 0.033289623 0.78000003 4288504576
-0.00067938009 0.033289623 0.78000003 4288833537
0.00067938009 0.033289623 0.78000003 4289030437
0.0020381403 0.033289623 0.78000003 4288635679
0.0033969004 0.033289623 0.78000003 4285482496
0.0047617573 0.033332303 0.78100002 4284232704
0.0061222594 0.033332303 0.78100002 4284427776
0.007482762 0.033332303 0.78100002 4286862354
0.0088432636 0.033332303 0.78100002 4285486848
0.010229897 0.033417664 0.78300005 4279631872
0.011623496 0.033503018 0.78500003 4279042816
0.013040613 0.033631057 0.78800005 4281279757
0.014449891 0.033716414 0.79000002 4283770880
0.015866138 0.033801772 0.79200006 4287389221
0.017245801 0.033801772 0.79200006 4287915264
0.018625466 0.033801772 0.79200006 4287717888
0.020005131 0.033801772 0.79200006 4289096960
0.021438796 0.033887129 0.79400003 4289557504
0.022821944 0.033887129 0.79400003 4289161984
0.024266064 0.033972487 0.79600006 4288964608
0.025717149 0.034057844 0.79800004 4291528192
0.027107265 0.034057844 0.79800004 4293370380
0.028533094 0.034100525 0.79900002 4292910592
0.029924951 0.034100525 0.79900002 4292844800
0.031395197 0.034185886 0.80100006 4292910336
0.032872412 0.03427124 0.80300003 4293173248
0.037438195 0.034612674 0.81100005 4293304576
0.038946766 0.034698032 0.81300002 4293765123
0.040462308 0.034783389 0.81500006 4293634059
0.041882042 0.034783389 0.81500006 4294094354
0.043301772 0.034783389 0.81500006 4294094858
0.044721503 0.034783389 0.81500006 4294489615
-0.053239882 0.03620312 0.81500006 4292054272
-0.051692985 0.036114275 0.81300002 4291856896
-0.045461852 0.035670068 0.80300003 4291331328
-0.043953281 0.035581224 0.80100006 4291264768
-0.042451672 0.035492383 0.79900002 4291264768
-0.041008424 0.035447963 0.79800004 4291264768
-0.039618313 0.035447963 0.79800004 4291264768
-0.038036574 0.035270277 0.79400003 4291001344
-0.035181437 0.035181437 0.79200006 4290740480
-0.033716414 0.035092592 0.79000002 4291003904
-0.032340232 0.035092592 0.79000002 4289231384
-0.030885665 0.035003752 0.78800005 4287652608
-0.029512968 0.035003752 0.78800005 4288768523
-0.028140271 0.035003752 0.78800005 4290084383
-0.026767576 0.035003752 0.78800005 4287260928
-0.025459332 0.035092592 0.79000002 4280025088
-0.024022182 0.035003752 0.78800005 4282000640
-0.022649487 0.035003752 0.78800005 4283842829
-0.021276791 0.035003752 0.78800005 4283243520
-0.019878836 0.034959335 0.78700006 4281730304
-0.018413812 0.034781646 0.78300005 4286855424
-0.017006276 0.034692805 0.78100002 4291263794
-0.015645776 0.034692805 0.78100002 4290739457
-0.014285273 0.034692805 0.78100002 4289818368
-0.012908221 0.034648385 0.78000003 4289753088
-0.011549461 0.034648385 0.78000003 4290542848
-0.010190701 0.034648385 0.78000003 4288509440
-0.0088432636 0.034692805 0.78100002 4283245824
-0.0075019244 0.034781646 0.78300005 4284491267
-0.0061379378 0.034781646 0.78300005 4287386159
-0.0047617573 0.034692805 0.78100002 4286528000
-0.0034012555 0.034692805 0.78100002 4286133248
-0.0020407531 0.034692805 0.78100002 4285215232
-0.00068025105 0.034692805 0.78100002 4283702016
0.00068025105 0.034692805 0.78100002 4284755968
0.0020381403 0.034648385 0.78000003 4283703040
0.0033969004 0.034648385 0.78000003 4283966976
0.0047617573 0.034692805 0.78100002 4288572214
0.0061222594 0.034692805 0.78100002 4286799893
0.007482762 0.034692805 0.78100002 4287194395
0.0088432636 0.034692805 0.78100002 4285880597
0.010256026 0.034870487 0.78500003 4283183104
0.013073711 0.035092592 0.79000002 4288511302
0.014486475 0.035181437 0.79200006 4289034496
0.015866138 0.035181437 0.79200006 4289429248
0.017289352 0.035270277 0.79400003 4288835093
0.0186725 0.035270277 0.79400003 4288111626
0.020055648 0.035270277 0.79400003 4289555712
0.021438796 0.035270277 0.79400003 4291463948
0.022879431 0.035359122 0.79600006 4292056832
0.024327034 0.035447963 0.79800004 4292385792
0.025749376 0.035492383 0.79900002 4292254720
0.027141234 0.035492383 0.79900002 4292583424
0.028533094 0.035492383 0.79900002 4292844288
0.029999856 0.035581224 0.80100006 4292975872
0.031473588 0.035670068 0.80300003 4292976128
0.032872412 0.035670068 0.80300003 4293107456
0.037530523 0.036114275 0.81300002 4293370624
0.039042581 0.03620312 0.81500006 4293765377
0.040462308 0.03620312 0.81500006 4293634309
0.041882042 0.03620312 0.81500006 4294028810
0.043301772 0.03620312 0.81500006 4294160384
0.044611752 0.036114275 0.81300002 4294620928
-0.045461852 0.037068892 0.80300003 4291462912
-0.043953281 0.036976568 0.80100006 4291264768
-0.042451672 0.036884241 0.79900002 4291264768
-0.041059814 0.036884241 0.79900002 4291264768
-0.039618313 0.036838077 0.79800004 4291264768
-0.038228195 0.036838077 0.79800004 4290935296
-0.036653426 0.036653426 0.79400003 4290935296
-0.035270277 0.036653426 0.79400003 4291066880
-0.033801772 0.036561102 0.79200006 4291593217
-0.032422107 0.036561102 0.79200006 4291265311
-0.03096405 0.036468774 0.79000002 4290936346
-0.029587872 0.036468774 0.79000002 4291067153
-0.028140271 0.03637645 0.78800005 4291790619
-0.026767576 0.03637645 0.78800005 4288050206
-0.025459332 0.036468774 0.79000002 4283444736
-0.024083152 0.036468774 0.79000002 4283774976
-0.022649487 0.03637645 0.78800005 4283840768
-0.021276791 0.03637645 0.78800005 4282254336
-0.019904094 0.03637645 0.78800005 4281925632
-0.018507883 0.036330286 0.78700006 4287249920
-0.017049827 0.036145635 0.78300005 4291329069
-0.015685841 0.036145635 0.78300005 4290280960
-0.014285273 0.036053307 0.78100002 4288241152
-0.012924771 0.036053307 0.78100002 4288567552
-0.011564268 0.036053307 0.78100002 4289422848
-0.010203766 0.036053307 0.78100002 4288310577
-0.0088885557 0.036237955 0.78500003 4283770880
-0.0075402479 0.036330286 0.78700006 4284688128
-0.0061536157 0.036237955 0.78500003 4285937929
-0.0047861454 0.036237955 0.78500003 4285608704
-0.0034186754 0.036237955 0.78500003 4285345792
-0.0020512051 0.036237955 0.78500003 4283445248
-0.00068199309 0.036145635 0.78300005 4282524160
0.00068025105 0.036053307 0.78100002 4283317504
0.0020381403 0.036007144 0.78000003 4281606912
0.0033969004 0.036007144 0.78000003 4281794560
0.0047617573 0.036053307 0.78100002 4286332465
0.0061379378 0.036145635 0.78300005 4286074624
0.0075019244 0.036145635 0.78300005 4286929920
0.0088659106 0.036145635 0.78300005 4286472704
0.010256026 0.036237955 0.78500003 4286538752
0.013073711 0.036468774 0.79000002 4290346296
0.014486475 0.036561102 0.79200006 4290150144
0.015906204 0.036653426 0.79400003 4289229056
0.017289352 0.036653426 0.79400003 4288505088
0.0186725 0.036653426 0.79400003 4288636672
0.020055648 0.036653426 0.79400003 4291131648
0.0214928 0.036745753 0.79600006 4292776713
0.022879431 0.036745753 0.79600006 4292580864
0.024327034 0.036838077 0.79800004 4292712451
0.025749376 0.036884241 0.79900002 4292646656
0.027141234 0.036884241 0.79900002 4292778496
0.028604515 0.036976568 0.80100006 4292646656
0.029999856 0.036976568 0.80100006 4292975872
