# .PCD v0.7 - Point Cloud Data file format
VERSION 0.7
FIELDS x y z rgba
SIZE 4 4 4 4
TYPE F F F U
COUNT 1 1 1 1
WIDTH 1022
HEIGHT 1
VIEWPOINT 0 0 0 1 0 0 0
POINTS 1022
DATA ascii
0.063250288 -0.049349122 0.79800004 4283236628
0.064640403 -0.049349122 0.79800004 4284416000
0.066030517 -0.049349122 0.79800004 4289545019
0.067420632 -0.049349122 0.79800004 4287652188
0.068810754 -0.049349122 0.79800004 4286467658
0.070200868 -0.049349122 0.79800004 4286529330
0.071590982 -0.049349122 0.79800004 4287516225
0.072981097 -0.049349122 0.79800004 4287780706
0.074371211 -0.049349122 0.79800004 4284162091
0.075761326 -0.049349122 0.79800004 4286320640
0.077151448 -0.049349122 0.79800004 4290136627
0.078639984 -0.049410962 0.79900002 4288042058
0.080031842 -0.049410962 0.79900002 4289489504
0.0814237 -0.049410962 0.79900002 4290017906
0.083022863 -0.049534649 0.80100006 4290939008
0.0844182 -0.049534649 0.80100006 4291273118
0.086027808 -0.049658328 0.80300003 4291996841
0.08742664 -0.049658328 0.80300003 4292064428
0.088825457 -0.049658328 0.80300003 4291011740
0.090449005 -0.049782015 0.80500007 4290289026
0.092307717 -0.050029375 0.80900002 4288841579
0.093716994 -0.050029375 0.80900002 4286216867
0.095361449 -0.050153058 0.81100005 4281413978
0.097012863 -0.050276738 0.81300002 4282463375
0.035082139 -0.049401384 0.82200003 4287724198
0.036514066 -0.049401384 0.82200003 4284368755
0.03794599 -0.049401384 0.82200003 4283454871
0.039138388 -0.049100887 0.81700003 4284244644
0.040561602 -0.049100887 0.81700003 4287725441
0.041779261 -0.04886049 0.81300002 4288646543
0.043089248 -0.048740294 0.81100005 4289954650
0.044392262 -0.048620094 0.80900002 4292586370
0.045801535 -0.048620094 0.80900002 4291798433
0.046977393 -0.048379704 0.80500007 4286600530
0.0482595 -0.0482595 0.80300003 4285736473
0.049534649 -0.048139308 0.80100006 4290210141
0.05092999 -0.048139308 0.80100006 4288834680
0.052325331 -0.048139308 0.80100006 4284163377
0.053720675 -0.048139308 0.80100006 4286659397
0.055116016 -0.048139308 0.80100006 4287317327
0.056511357 -0.048139308 0.80100006 4286592039
0.057762112 -0.048019104 0.79900002 4285408022
0.05915397 -0.048019104 0.79900002 4285603336
0.060545828 -0.048019104 0.79900002 4285998094
0.06186017 -0.047959007 0.79800004 4286328370
0.063250288 -0.047959007 0.79800004 4284091408
0.064640403 -0.047959007 0.79800004 4285072906
0.066030517 -0.047959007 0.79800004 4287573296
0.067420632 -0.047959007 0.79800004 4286131477
0.068810754 -0.047959007 0.79800004 4285670926
0.070288837 -0.048019104 0.79900002 4286263623
0.071680695 -0.048019104 0.79900002 4286395210
0.073072553 -0.048019104 0.79900002 4286263623
0.074464411 -0.048019104 0.79900002 4282449933
0.075856268 -0.048019104 0.79900002 4285666355
0.077248126 -0.048019104 0.79900002 4290995589
0.078639984 -0.048019104 0.79900002 4289557119
0.080031842 -0.048019104 0.79900002 4291662495
0.081627518 -0.048139308 0.80100006 4291270051
0.083022863 -0.048139308 0.80100006 4291138209
0.0844182 -0.048139308 0.80100006 4291273354
0.086027808 -0.0482595 0.80300003 4291997077
0.08742664 -0.0482595 0.80300003 4291669391
0.088825457 -0.0482595 0.80300003 4291143047
0.090673722 -0.048499897 0.80700004 4290290833
0.092307717 -0.048620094 0.80900002 4288119665
0.093948685 -0.048740294 0.81100005 4284180909
0.095596619 -0.04886049 0.81300002 4280891259
0.09725152 -0.048980691 0.81500006 4282793364
0.036514066 -0.047969457 0.82200003 4283385181
0.03794599 -0.047969457 0.82200003 4282799758
0.039186295 -0.04773603 0.81800002 4282931344
0.040561602 -0.047677673 0.81700003 4287132551
0.041882042 -0.04756096 0.81500006 4288579998
0.043195508 -0.047444243 0.81300002 4289494361
0.044392262 -0.04721082 0.80900002 4291994751
0.045801535 -0.04721082 0.80900002 4291471278
0.046977393 -0.046977393 0.80500007 4286602340
0.048379704 -0.046977393 0.80500007 4286456832
0.049534649 -0.046743963 0.80100006 4289878309
0.05092999 -0.046743963 0.80100006 4288437868
0.052325331 -0.046743963 0.80100006 4286529871
0.053854804 -0.046860676 0.80300003 4287449424
0.055116016 -0.046743963 0.80100006 4287712853
0.056511357 -0.046743963 0.80100006 4286396975
0.057906698 -0.046743963 0.80100006 4284818199
0.05915397 -0.046627246 0.79900002 4285472279
0.060545828 -0.046627246 0.79900002 4287709241
0.061937686 -0.046627246 0.79900002 4287187292
0.06332954 -0.046627246 0.79900002 4284292400
0.064721398 -0.046627246 0.79900002 4286254102
0.066113256 -0.046627246 0.79900002 4287635755
0.067505121 -0.046627246 0.79900002 4285995520
0.068896979 -0.046627246 0.79900002 4287377155
0.070288837 -0.046627246 0.79900002 4287647323
0.071680695 -0.046627246 0.79900002 4288042081
0.073072553 -0.046627246 0.79900002 4287648116
0.074464411 -0.046627246 0.79900002 4283700792
0.075856268 -0.046627246 0.79900002 4285404424
0.077441491 -0.046743963 0.80100006 4290470485
0.078836836 -0.046743963 0.80100006 4288965496
0.080232173 -0.046743963 0.80100006 4290807700
0.081627518 -0.046743963 0.80100006 4290679936
0.083022863 -0.046743963 0.80100006 4290548350
0.084628977 -0.046860676 0.80300003 4290482834
0.086027808 -0.046860676 0.80300003 4291535523
0.08742664 -0.046860676 0.80300003 4291077772
0.089046694 -0.046977393 0.80500007 4291275150
0.090673722 -0.047094107 0.80700004 4290423201
0.092307717 -0.04721082 0.80900002 4286409828
0.093948685 -0.047327533 0.81100005 4284244892
0.095596619 -0.047444243 0.81300002 4281547122
0.09725152 -0.04756096 0.81500006 4283186323
0.0351675 -0.046650767 0.82400006 4286541985
0.036602907 -0.046650767 0.82400006 4283647092
0.038038317 -0.046650767 0.82400006 4282800278
0.039377917 -0.046537533 0.82200003 4282668436
0.040561602 -0.04625446 0.81700003 4285620119
0.041882042 -0.04614123 0.81500006 4288580548
0.043195508 -0.046027999 0.81300002 4289430887
0.044392262 -0.045801535 0.80900002 4290286195
0.045801535 -0.045801535 0.80900002 4290811295
0.047094107 -0.045688309 0.80700004 4289166726
0.048379704 -0.045575082 0.80500007 4287516518
0.049782015 -0.045575082 0.80500007 4287516518
0.051057156 -0.045461852 0.80300003 4287779943
0.05245598 -0.045461852 0.80300003 4287122012
0.053854804 -0.045461852 0.80300003 4287516253
0.055253632 -0.045461852 0.80300003 4287516253
0.056511357 -0.045348618 0.80100006 4286264121
0.057906698 -0.045348618 0.80100006 4285211433
0.059302043 -0.045348618 0.80100006 4285670204
0.060697384 -0.045348618 0.80100006 4287709786
0.061937686 -0.045235388 0.79900002 4287253612
0.06332954 -0.045235388 0.79900002 4284227134
0.064721398 -0.045235388 0.79900002 4286122307
0.066113256 -0.045235388 0.79900002 4288556648
0.067505121 -0.045235388 0.79900002 4286918916
0.068896979 -0.045235388 0.79900002 4288103191
0.070464782 -0.045348618 0.80100006 4287845736
0.07186012 -0.045348618 0.80100006 4290082698
0.073255464 -0.045348618 0.80100006 4289887381
0.074650809 -0.045348618 0.80100006 4288045177
0.076046146 -0.045348618 0.80100006 4287978060
0.077441491 -0.045348618 0.80100006 4289491299
0.078836836 -0.045348618 0.80100006 4288503911
0.080232173 -0.045348618 0.80100006 4286201412
0.081627518 -0.045348618 0.80100006 4286789965
0.08323016 -0.045461852 0.80300003 4291000717
0.084628977 -0.045461852 0.80300003 4291141530
0.08624208 -0.045575082 0.80500007 4291273372
0.087644391 -0.045575082 0.80500007 4290682233
0.089267932 -0.045688309 0.80700004 4290616439
0.090898439 -0.045801535 0.80900002 4289175185
0.09253592 -0.045914773 0.81100005 4285688156
0.094180368 -0.046027999 0.81300002 4283590055
0.095831789 -0.04614123 0.81500006 4281221251
0.09725152 -0.04614123 0.81500006 4282728850
0.098913379 -0.04625446 0.81700003 4292729343
0.0351675 -0.045215357 0.82400006 4286280347
0.036602907 -0.045215357 0.82400006 4283451248
0.038038317 -0.045215357 0.82400006 4282800274
0.039377917 -0.04510561 0.82200003 4282537101
0.040611248 -0.044886116 0.81800002 4285161351
0.041882042 -0.044721503 0.81500006 4288122036
0.043195508 -0.044611752 0.81300002 4289366136
0.044392262 -0.044392262 0.80900002 4289431929
0.045801535 -0.044392262 0.80900002 4290351237
0.047094107 -0.044282518 0.80700004 4290285443
0.048499897 -0.044282518 0.80700004 4289231245
0.049782015 -0.044172771 0.80500007 4287454835
0.051057156 -0.044063024 0.80300003 4287124309
0.05245598 -0.044063024 0.80300003 4286663758
0.053854804 -0.044063024 0.80300003 4287318621
0.055253632 -0.044063024 0.80300003 4287187292
0.056511357 -0.043953281 0.80100006 4286198580
0.057906698 -0.043953281 0.80100006 4286330166
0.059302043 -0.043953281 0.80100006 4286134570
0.060697384 -0.043953281 0.80100006 4287976774
0.062092725 -0.043953281 0.80100006 4287716209
0.063488074 -0.043953281 0.80100006 4284689732
0.064883411 -0.043953281 0.80100006 4286519341
0.066278756 -0.043953281 0.80100006 4288887889
0.0676741 -0.043953281 0.80100006 4287247968
0.069069438 -0.043953281 0.80100006 4287510883
0.070464782 -0.043953281 0.80100006 4287517790
0.07186012 -0.043953281 0.80100006 4289622910
0.073255464 -0.043953281 0.80100006 4289624473
0.074650809 -0.043953281 0.80100006 4287782525
0.076046146 -0.043953281 0.80100006 4288370506
0.077441491 -0.043953281 0.80100006 4289028179
0.078836836 -0.043953281 0.80100006 4288241997
0.080232173 -0.043953281 0.80100006 4286268207
0.081831329 -0.044063024 0.80300003 4285937418
0.08323016 -0.044063024 0.80300003 4291529823
0.084628977 -0.044063024 0.80300003 4291076520
0.08624208 -0.044172771 0.80500007 4290813092
0.087862134 -0.044282518 0.80700004 4290090627
0.089489162 -0.044392262 0.80900002 4290419592
0.090898439 -0.044392262 0.80900002 4288189344
0.09253592 -0.044502009 0.81100005 4284965743
0.094180368 -0.044611752 0.81300002 4283326883
0.095831789 -0.044721503 0.81500006 4281353093
0.09725152 -0.044721503 0.81500006 4282730649
0.099034451 -0.044886116 0.81800002 4293060095
0.035252858 -0.043886211 0.82600003 4286081951
0.036602907 -0.043779951 0.82400006 4283581817
0.038038317 -0.043779951 0.82400006 4282997904
0.039377917 -0.043673687 0.82200003 4282931855
0.040611248 -0.043461163 0.81800002 4284900743
0.041984819 -0.043408033 0.81700003 4287137706
0.043195508 -0.043195508 0.81300002 4288972673
0.044502009 -0.043089248 0.81100005 4288446329
0.045801535 -0.042982981 0.80900002 4289364058
0.04721082 -0.042982981 0.80900002 4291601020
0.048499897 -0.04287672 0.80700004 4290812569
0.049782015 -0.04277046 0.80500007 4288180592
0.051057156 -0.042664196 0.80300003 4287847251
0.05245598 -0.042664196 0.80300003 4287320907
0.053854804 -0.042664196 0.80300003 4287518304
0.055253632 -0.042664196 0.80300003 4286991959
0.056511357 -0.042557936 0.80100006 4287451466
0.057906698 -0.042557936 0.80100006 4287845967
0.059302043 -0.042557936 0.80100006 4287648313
0.060697384 -0.042557936 0.80100006 4288174658
0.062092725 -0.042557936 0.80100006 4288043614
0.063488074 -0.042557936 0.80100006 4285280308
0.064883411 -0.042557936 0.80100006 4287578184
0.066278756 -0.042557936 0.80100006 4291920523
0.0676741 -0.042557936 0.80100006 4290149004
0.069069438 -0.042557936 0.80100006 4287254112
0.070464782 -0.042557936 0.80100006 4287581530
0.07186012 -0.042557936 0.80100006 4289686906
0.073255464 -0.042557936 0.80100006 4288834915
0.074650809 -0.042557936 0.80100006 4284295199
0.076046146 -0.042557936 0.80100006 4286655774
0.077634849 -0.042664196 0.80300003 4286589981
0.07903368 -0.042664196 0.80300003 4286394415
0.080432504 -0.042664196 0.80300003 4289618272
0.081831329 -0.042664196 0.80300003 4288572550
0.08323016 -0.042664196 0.80300003 4291599028
0.084839769 -0.04277046 0.80500007 4290945182
0.08624208 -0.04277046 0.80500007 4289629322
0.087862134 -0.04287672 0.80700004 4289367172
0.089489162 -0.042982981 0.80900002 4289367172
0.091123156 -0.043089248 0.81100005 4287663752
0.092764124 -0.043195508 0.81300002 4284966495
0.094412051 -0.043301772 0.81500006 4283524780
0.095831789 -0.043301772 0.81500006 4281287818
0.09725152 -0.043301772 0.81500006 4283452573
0.099034451 -0.043461163 0.81800002 4294374143
0.035252858 -0.042447317 0.82600003 4286081949
0.036691751 -0.042447317 0.82600003 4283844987
0.038038317 -0.042344544 0.82400006 4283063184
0.039377917 -0.042241763 0.82200003 4283194514
0.040710542 -0.042138986 0.82000005 4284639120
0.042036206 -0.042036206 0.81800002 4286612910
0.043301772 -0.041882042 0.81500006 4288448144
0.044502009 -0.041676484 0.81100005 4288382351
0.045914773 -0.041676484 0.81100005 4289035097
0.04721082 -0.041573707 0.80900002 4291140217
0.048499897 -0.041470926 0.80700004 4291010473
0.049905695 -0.041470926 0.80700004 4288773767
0.051057156 -0.041265372 0.80300003 4288637800
0.05245598 -0.041265372 0.80300003 4288308835
0.053988941 -0.041368149 0.80500007 4287520378
0.055253632 -0.041265372 0.80300003 4286138725
0.056652457 -0.041265372 0.80300003 4287317032
0.058051284 -0.041265372 0.80300003 4287054116
0.059450112 -0.041265372 0.80300003 4287117622
0.060848936 -0.041265372 0.80300003 4288762191
0.062247764 -0.041265372 0.80300003 4287714661
0.063488074 -0.041162595 0.80100006 4284754233
0.064883411 -0.041162595 0.80100006 4287712069
0.066278756 -0.041162595 0.80100006 4290804340
0.0676741 -0.041162595 0.80100006 4289755804
0.069069438 -0.041162595 0.80100006 4286729583
0.070464782 -0.041162595 0.80100006 4287578923
0.07186012 -0.041162595 0.80100006 4289223747
0.073255464 -0.041162595 0.80100006 4287913311
0.0748372 -0.041265372 0.80300003 4285215799
0.076236024 -0.041265372 0.80300003 4287053639
0.077634849 -0.041265372 0.80300003 4285869365
0.07903368 -0.041265372 0.80300003 4286192896
0.080432504 -0.041265372 0.80300003 4291193402
0.081831329 -0.041265372 0.80300003 4289560447
0.08323016 -0.041265372 0.80300003 4291205528
0.084839769 -0.041368149 0.80500007 4290682244
0.086456336 -0.041470926 0.80700004 4289892984
0.087862134 -0.041470926 0.80700004 4289106058
0.0897104 -0.041676484 0.81100005 4287658612
0.091347881 -0.041779261 0.81300002 4285822611
0.092992328 -0.041882042 0.81500006 4284769923
0.094412051 -0.041882042 0.81500006 4283524258
0.096066959 -0.041984819 0.81700003 4281024380
0.097490169 -0.041984819 0.81700003 4283913124
0.098913379 -0.041984819 0.81700003 4294967295
0.1003366 -0.041984819 0.81700003 4294967295
0.035252858 -0.041008424 0.82600003 4285819813
0.036691751 -0.041008424 0.82600003 4283911816
0.038038317 -0.040909134 0.82400006 4282800274
0.039473727 -0.040909134 0.82400006 4282800274
0.040710542 -0.040710542 0.82000005 4283456144
0.042036206 -0.040611248 0.81800002 4285824692
0.043408033 -0.040561602 0.81700003 4288842650
0.044611752 -0.040363014 0.81300002 4289697959
0.045914773 -0.04026372 0.81100005 4289365623
0.047327533 -0.04026372 0.81100005 4289365623
0.048620094 -0.040164426 0.80900002 4289694086
0.050029375 -0.040164426 0.80900002 4289101692
0.051057156 -0.039866548 0.80300003 4287722092
0.05245598 -0.039866548 0.80300003 4287261541
0.053988941 -0.039965838 0.80500007 4287061637
0.055253632 -0.039866548 0.80300003 4285022310
0.056652457 -0.039866548 0.80300003 4285800960
0.058051284 -0.039866548 0.80300003 4286656000
0.059450112 -0.039866548 0.80300003 4286393913
0.060848936 -0.039866548 0.80300003 4286130484
0.062247764 -0.039866548 0.80300003 4286460503
0.063646592 -0.039866548 0.80300003 4284354870
0.064883411 -0.03976725 0.80100006 4286923811
0.066278756 -0.03976725 0.80100006 4289687117
0.067843072 -0.039866548 0.80300003 4289292371
0.069069438 -0.03976725 0.80100006 4285476377
0.070464782 -0.03976725 0.80100006 4286390542
0.07186012 -0.03976725 0.80100006 4288561454
0.073438369 -0.039866548 0.80300003 4287121477
0.0748372 -0.039866548 0.80300003 4286398010
0.076236024 -0.039866548 0.80300003 4287252593
0.077634849 -0.039866548 0.80300003 4286528869
0.07903368 -0.039866548 0.80300003 4286659663
0.080432504 -0.039866548 0.80300003 4290344070
0.082035147 -0.039965838 0.80500007 4289430144
0.083644755 -0.040065132 0.80700004 4289824902
0.085261323 -0.040164426 0.80900002 4289367112
0.086670607 -0.040164426 0.80900002 4290025043
0.088297635 -0.04026372 0.81100005 4288516240
0.0897104 -0.04026372 0.81100005 4285555298
0.091347881 -0.040363014 0.81300002 4284181659
0.092992328 -0.040462308 0.81500006 4284708003
0.094412051 -0.040462308 0.81500006 4283789220
0.096066959 -0.040561602 0.81700003 4280894328
0.097490169 -0.040561602 0.81700003 4286015418
0.098913379 -0.040561602 0.81700003 4294967295
0.035338216 -0.039665345 0.82800007 4286019488
0.036780596 -0.039665345 0.82800007 4283453561
0.038130645 -0.039569534 0.82600003 4282472077
0.039473727 -0.039473727 0.82400006 4282340490
0.040809836 -0.039377917 0.82200003 4283059069
0.042138986 -0.039282106 0.82000005 4285230237
0.043408033 -0.039138388 0.81700003 4288644766
0.044721503 -0.039042581 0.81500006 4289368746
0.046027999 -0.038946766 0.81300002 4288973959
0.047327533 -0.038850959 0.81100005 4288710530
0.048620094 -0.038755149 0.80900002 4288908417
0.050029375 -0.038755149 0.80900002 4288316024
0.051184323 -0.038563531 0.80500007 4286804318
0.05258663 -0.038563531 0.80500007 4285883216
0.054123074 -0.038659338 0.80700004 4286077561
0.055391252 -0.038563531 0.80500007 4284301150
0.056793559 -0.038563531 0.80500007 4285400832
0.05819587 -0.038563531 0.80500007 4288164118
0.059450112 -0.038467716 0.80300003 4287186761
0.060848936 -0.038467716 0.80300003 4287252554
0.062247764 -0.038467716 0.80300003 4286925149
0.063646592 -0.038467716 0.80300003 4283306534
0.065045416 -0.038467716 0.80300003 4286850854
0.066444241 -0.038467716 0.80300003 4289811540
0.067843072 -0.038467716 0.80300003 4288764760
0.069241896 -0.038467716 0.80300003 4286264625
0.07064072 -0.038467716 0.80300003 4286323200
0.072039545 -0.038467716 0.80300003 4289152283
0.073438369 -0.038467716 0.80300003 4287384415
0.0748372 -0.038467716 0.80300003 4287187292
0.07642591 -0.038563531 0.80500007 4288042860
0.077828221 -0.038563531 0.80500007 4288306289
0.079230525 -0.038563531 0.80500007 4288308851
0.080632836 -0.038563531 0.80500007 4289887883
0.082238957 -0.038659338 0.80700004 4289826174
0.083644755 -0.038659338 0.80700004 4289234037
0.085261323 -0.038755149 0.80900002 4289037153
0.086670607 -0.038755149 0.80900002 4289761133
0.088297635 -0.038850959 0.81100005 4288122790
0.0897104 -0.038850959 0.81100005 4284898933
0.091347881 -0.038946766 0.81300002 4283655833
0.092992328 -0.039042581 0.81500006 4284774313
0.094643742 -0.039138388 0.81700003 4283658143
0.096066959 -0.039138388 0.81700003 4280960886
0.097490169 -0.039138388 0.81700003 4287986884
0.098913379 -0.039138388 0.81700003 4294967295
0.035338216 -0.038222969 0.82800007 4286085031
0.036780596 -0.038222969 0.82800007 4283190139
0.038130645 -0.038130645 0.82600003 4281816722
0.039473727 -0.038038317 0.82400006 4281882515
0.040909134 -0.038038317 0.82400006 4282732418
0.042138986 -0.037853666 0.82000005 4282995591
0.043461163 -0.037761338 0.81800002 4286411389
0.044721503 -0.03762285 0.81500006 4287003782
0.046027999 -0.037530523 0.81300002 4287723151
0.047444243 -0.037530523 0.81300002 4288381081
0.048740294 -0.037438195 0.81100005 4288774517
0.050029375 -0.037345868 0.80900002 4289235068
0.051438648 -0.037345868 0.80900002 4288053359
0.05271728 -0.037253547 0.80700004 4288053359
0.054123074 -0.037253547 0.80700004 4287854721
0.055528868 -0.037253547 0.80700004 4284499278
0.056934666 -0.037253547 0.80700004 4284748581
0.05819587 -0.03716122 0.80500007 4288104281
0.059598181 -0.03716122 0.80500007 4287122760
0.060848936 -0.037068892 0.80300003 4287122760
0.062247764 -0.037068892 0.80300003 4286991203
0.063646592 -0.037068892 0.80300003 4283504431
0.065045416 -0.037068892 0.80300003 4285071408
0.066444241 -0.037068892 0.80300003 4284809261
0.067843072 -0.037068892 0.80300003 4286651940
0.069414355 -0.03716122 0.80500007 4287507249
0.070816666 -0.03716122 0.80500007 4286852651
0.072218977 -0.03716122 0.80500007 4289484372
0.073621288 -0.03716122 0.80500007 4287848325
0.075023599 -0.03716122 0.80500007 4286927479
0.07642591 -0.03716122 0.80500007 4287782503
0.077828221 -0.03716122 0.80500007 4291466910
0.079230525 -0.03716122 0.80500007 4290878635
0.080833167 -0.037253547 0.80700004 4290220961
0.082238957 -0.037253547 0.80700004 4289169275
0.083852053 -0.037345868 0.80900002 4289169275
0.085261323 -0.037345868 0.80900002 4288186492
0.086884871 -0.037438195 0.81100005 4287199596
0.088297635 -0.037438195 0.81100005 4284771497
0.08993163 -0.037530523 0.81300002 4284113567
0.091572598 -0.03762285 0.81500006 4284115366
0.093220524 -0.037715174 0.81700003 4285168054
0.094643742 -0.037715174 0.81700003 4284250273
0.096066959 -0.037715174 0.81700003 4283789722
0.097490169 -0.037715174 0.81700003 4289108181
0.098913379 -0.037715174 0.81700003 4294967295
0.038130645 -0.036691751 0.82600003 4281883021
0.039473727 -0.036602907 0.82400006 4281948815
0.040809836 -0.036514066 0.82200003 4282472331
0.042138986 -0.036425225 0.82000005 4282866832
0.043461163 -0.036336381 0.81800002 4283851399
0.044721503 -0.03620312 0.81500006 4283917448
0.04614123 -0.03620312 0.81500006 4287131514
0.047444243 -0.036114275 0.81300002 4288447374
0.048740294 -0.036025438 0.81100005 4289101692
0.050153058 -0.036025438 0.81100005 4289167742
0.051438648 -0.035936594 0.80900002 4289498738
0.05271728 -0.03584775 0.80700004 4290025082
0.054123074 -0.03584775 0.80700004 4289696423
0.055666488 -0.035936594 0.80900002 4285617514
0.057075761 -0.035936594 0.80900002 4284551936
0.058485042 -0.035936594 0.80900002 4287709995
0.059746251 -0.03584775 0.80700004 4286990409
0.061152048 -0.03584775 0.80700004 4287319373
0.062402803 -0.035758913 0.80500007 4287255647
0.063805111 -0.035758913 0.80500007 4284952892
0.065207422 -0.035758913 0.80500007 4286062885
0.066609733 -0.035758913 0.80500007 4285997092
0.068012044 -0.035758913 0.80500007 4286390038
0.069414355 -0.035758913 0.80500007 4288166449
0.070816666 -0.035758913 0.80500007 4287122233
0.072218977 -0.035758913 0.80500007 4289030230
0.073621288 -0.035758913 0.80500007 4288050556
0.075023599 -0.035758913 0.80500007 4287261039
0.07642591 -0.035758913 0.80500007 4287722088
0.078021578 -0.03584775 0.80700004 4290354065
0.079427369 -0.03584775 0.80700004 4290550937
0.080833167 -0.03584775 0.80700004 4289761678
0.082442768 -0.035936594 0.80900002 4288776568
0.083852053 -0.035936594 0.80900002 4289105277
0.085472107 -0.036025438 0.81100005 4287728795
0.086884871 -0.036025438 0.81100005 4285294454
0.088515379 -0.036114275 0.81300002 4283589790
0.090152867 -0.03620312 0.81500006 4284181927
0.091572598 -0.03620312 0.81500006 4284445852
0.093220524 -0.036291961 0.81700003 4284774561
0.094643742 -0.036291961 0.81700003 4284445848
0.096066959 -0.036291961 0.81700003 4284511898
0.097490169 -0.036291961 0.81700003 4291143901
0.098913379 -0.036291961 0.81700003 4294967295
0.038130645 -0.035252858 0.82600003 4281422480
0.039473727 -0.0351675 0.82400006 4281883031
0.040809836 -0.035082139 0.82200003 4283062680
0.042138986 -0.034996785 0.82000005 4284312747
0.043567427 -0.034996785 0.82000005 4283457942
0.044831246 -0.034868747 0.81700003 4282010240
0.04614123 -0.034783389 0.81500006 4284438391
0.04756096 -0.034783389 0.81500006 4287201697
0.04886049 -0.034698032 0.81300002 4288709004
0.050276738 -0.034698032 0.81300002 4288709004
0.051438648 -0.034527313 0.80900002 4289234021
0.052847929 -0.034527313 0.80900002 4290089330
0.054257207 -0.034527313 0.80900002 4289893277
0.055804104 -0.034612674 0.81100005 4288577417
0.057075761 -0.034527313 0.80900002 4287260272
0.058485042 -0.034527313 0.80900002 4286471012
0.05989432 -0.034527313 0.80900002 4286929494
0.061303601 -0.034527313 0.80900002 4286995287
0.062557839 -0.034441959 0.80700004 4286995289
0.063963637 -0.034441959 0.80700004 4286863703
0.065369427 -0.034441959 0.80700004 4288047700
0.066775218 -0.034441959 0.80700004 4288179286
0.068181023 -0.034441959 0.80700004 4288572257
0.069586813 -0.034441959 0.80700004 4288835686
0.070992604 -0.034441959 0.80700004 4288180333
0.072398394 -0.034441959 0.80700004 4288903800
0.073804192 -0.034441959 0.80700004 4289103984
0.07520999 -0.034441959 0.80700004 4289038191
0.076615781 -0.034441959 0.80700004 4289234818
0.078021578 -0.034441959 0.80700004 4289958285
0.079427369 -0.034441959 0.80700004 4289301613
0.081033491 -0.034527313 0.80900002 4289104234
0.082442768 -0.034527313 0.80900002 4288449150
0.083852053 -0.034527313 0.80900002 4287330412
0.085472107 -0.034612674 0.81100005 4285166757
0.086884871 -0.034612674 0.81100005 4284706206
0.088515379 -0.034698032 0.81300002 4284773548
0.090152867 -0.034783389 0.81500006 4286089408
0.091797315 -0.034868747 0.81700003 4286221216
0.093220524 -0.034868747 0.81700003 4285497494
0.094643742 -0.034868747 0.81700003 4284511907
0.096066959 -0.034868747 0.81700003 4286419904
0.097490169 -0.034868747 0.81700003 4290752500
0.039569534 -0.033813965 0.82600003 4283124108
0.040909134 -0.033732094 0.82400006 4282929799
0.042241763 -0.033650219 0.82200003 4284179610
0.043673687 -0.033650219 0.82200003 4283261331
0.044886116 -0.033486467 0.81800002 4281682043
0.04625446 -0.033445533 0.81700003 4281945188
0.047677673 -0.033445533 0.81700003 4284511114
0.048980691 -0.033363659 0.81500006 4288118411
0.050400425 -0.033363659 0.81500006 4288447376
0.051565818 -0.03319991 0.81100005 4289429883
0.052978583 -0.03319991 0.81100005 4289956227
0.054391343 -0.03319991 0.81100005 4289694865
0.055804104 -0.03319991 0.81100005 4289300107
0.057216868 -0.03319991 0.81100005 4288841087
0.058629628 -0.03319991 0.81100005 4287722862
0.05989432 -0.033118036 0.80900002 4286605413
0.061303601 -0.033118036 0.80900002 4286868328
0.062712878 -0.033118036 0.80900002 4287327334
0.064122155 -0.033118036 0.80900002 4287458921
0.065369427 -0.033036161 0.80700004 4287590759
0.066775218 -0.033036161 0.80700004 4288051310
0.068181023 -0.033036161 0.80700004 4288183409
0.069586813 -0.033036161 0.80700004 4287788908
0.070992604 -0.033036161 0.80700004 4287262321
0.072398394 -0.033036161 0.80700004 4288249216
0.073804192 -0.033036161 0.80700004 4289300091
0.07520999 -0.033036161 0.80700004 4289431677
0.076805659 -0.033118036 0.80900002 4289958525
0.078214936 -0.033118036 0.80900002 4289826939
0.079624213 -0.033118036 0.80900002 4289168775
0.081033491 -0.033118036 0.80900002 4289563277
0.082442768 -0.033118036 0.80900002 4287794831
0.08405935 -0.03319991 0.81100005 4285820785
0.085472107 -0.03319991 0.81100005 4283591829
0.086884871 -0.03319991 0.81100005 4283788951
0.088515379 -0.033281785 0.81300002 4284576414
0.090374097 -0.033445533 0.81700003 4287208391
0.091797315 -0.033445533 0.81700003 4287339961
0.09333463 -0.033486467 0.81800002 4285168792
0.094759576 -0.033486467 0.81800002 4284181909
0.096184537 -0.033486467 0.81800002 4288590296
0.042344544 -0.032296684 0.82400006 4282803088
0.043673687 -0.032218292 0.82200003 4283195284
0.044995867 -0.032139905 0.82000005 4281616251
0.046311073 -0.032061514 0.81800002 4281223288
0.047677673 -0.03202232 0.81700003 4281749632
0.048980691 -0.031943928 0.81500006 4284832897
0.050400425 -0.031943928 0.81500006 4286872737
0.051692985 -0.031865541 0.81300002 4288380554
0.052978583 -0.03178715 0.81100005 4288972434
0.054391343 -0.03178715 0.81100005 4289299841
0.055941723 -0.031865541 0.81300002 4289694599
0.057216868 -0.03178715 0.81100005 4289302662
0.058629628 -0.03178715 0.81100005 4289170820
0.060042392 -0.03178715 0.81100005 4289039752
0.061455157 -0.03178715 0.81100005 4289039752
0.062867917 -0.03178715 0.81100005 4289170820
0.064122155 -0.031708755 0.80900002 4289236613
0.065531433 -0.031708755 0.80900002 4289630089
0.06694071 -0.031708755 0.80900002 4290090640
0.068349987 -0.031708755 0.80900002 4289565576
0.069759272 -0.031708755 0.80900002 4289302660
0.071168542 -0.031708755 0.80900002 4289368212
0.072577827 -0.031708755 0.80900002 4289631384
0.073987097 -0.031708755 0.80900002 4289367674
0.075396381 -0.031708755 0.80900002 4289104245
0.076805659 -0.031708755 0.80900002 4289563753
0.078214936 -0.031708755 0.80900002 4289892719
0.079821065 -0.03178715 0.81100005 4289368478
0.081233829 -0.03178715 0.81100005 4288907927
0.082646593 -0.03178715 0.81100005 4287728782
0.08405935 -0.03178715 0.81100005 4286741887
0.085472107 -0.03178715 0.81100005 4285956261
0.087099135 -0.031865541 0.81300002 4285495711
0.088515379 -0.031865541 0.81300002 4286086049
0.090374097 -0.03202232 0.81700003 4288849355
0.091909669 -0.032061514 0.81800002 4288521657
0.09333463 -0.032061514 0.81800002 4286087316
0.034387086 -0.031460524 0.84000003 4288780441
0.043779951 -0.030861277 0.82400006 4282800776
0.04510561 -0.030786369 0.82200003 4281879674
0.046424307 -0.030711465 0.82000005 4280044400
0.047677673 -0.030599104 0.81700003 4280241522
0.048980691 -0.030524198 0.81500006 4281420640
0.050400425 -0.030524198 0.81500006 4284315788
0.051692985 -0.03044929 0.81300002 4287395969
0.053109229 -0.03044929 0.81300002 4288119949
0.054525476 -0.03044929 0.81300002 4288709508
0.055941723 -0.03044929 0.81300002 4289170059
0.057357971 -0.03044929 0.81300002 4289170822
0.058629628 -0.030374385 0.81100005 4289302408
0.060042392 -0.030374385 0.81100005 4289433487
0.061455157 -0.030374385 0.81100005 4289236365
0.062867917 -0.030374385 0.81100005 4289367172
0.064280674 -0.030374385 0.81100005 4289695880
0.065693438 -0.030374385 0.81100005 4289500053
0.06694071 -0.030299481 0.80900002 4289763224
0.068349987 -0.030299481 0.80900002 4289697929
0.069759272 -0.030299481 0.80900002 4289237378
0.071168542 -0.030299481 0.80900002 4289303175
0.072577827 -0.030299481 0.80900002 4289171333
0.073987097 -0.030299481 0.80900002 4289105279
0.075396381 -0.030299481 0.80900002 4288842107
0.076995537 -0.030374385 0.81100005 4289037172
0.078408301 -0.030374385 0.81100005 4289958273
0.079821065 -0.030374385 0.81100005 4289041312
0.081233829 -0.030374385 0.81100005 4288120210
0.082646593 -0.030374385 0.81100005 4287465107
0.08426664 -0.03044929 0.81300002 4287728280
0.085682891 -0.03044929 0.81300002 4287334319
0.087313406 -0.030524198 0.81500006 4286413217
0.088950887 -0.030599104 0.81700003 4286741921
0.090374097 -0.030599104 0.81700003 4289110469
0.091909669 -0.030636556 0.81800002 4288455616
0.031572882 -0.030104378 0.84300005 4294967295
0.033041388 -0.030104378 0.84300005 4294967295
0.034509894 -0.030104378 0.84300005 4288714648
0.035850361 -0.029997244 0.84000003 4286669952
0.037313644 -0.029997244 0.84000003 4288709278
0.04510561 -0.029354444 0.82200003 4284706971
0.046424307 -0.029283024 0.82000005 4285689739
0.047677673 -0.029175891 0.81700003 4285755789
0.049100887 -0.029175891 0.81700003 4286214280
0.050400425 -0.029104467 0.81500006 4286214280
0.051820152 -0.029104467 0.81500006 4287658627
0.053239882 -0.029104467 0.81500006 4287921800
0.054659612 -0.029104467 0.81500006 4288643460
0.056079339 -0.029104467 0.81500006 4289367183
0.057357971 -0.029033044 0.81300002 4289366918
0.058774214 -0.029033044 0.81300002 4289366918
0.060190462 -0.029033044 0.81300002 4289302158
0.061606709 -0.029033044 0.81300002 4289170572
0.062867917 -0.028961625 0.81100005 4289171074
0.064280674 -0.028961625 0.81100005 4289499782
0.065693438 -0.028961625 0.81100005 4289631384
0.067106202 -0.028961625 0.81100005 4289631384
0.068518966 -0.028961625 0.81100005 4289696119
0.069931723 -0.028961625 0.81100005 4288643431
0.071344487 -0.028961625 0.81100005 4288577126
0.072757252 -0.028961625 0.81100005 4288774249
0.074170016 -0.028961625 0.81100005 4289300343
0.07558278 -0.028961625 0.81100005 4289366136
0.076995537 -0.028961625 0.81100005 4289299839
0.078408301 -0.028961625 0.81100005 4289497475
0.079821065 -0.028961625 0.81100005 4288907666
0.081434153 -0.029033044 0.81300002 4288381065
0.082850397 -0.029033044 0.81300002 4288382364
0.08426664 -0.029033044 0.81300002 4289895603
0.085893676 -0.029104467 0.81500006 4289109151
0.087313406 -0.029104467 0.81500006 4287398790
0.088950887 -0.029175891 0.81700003 4287333547
0.090484716 -0.029211601 0.81800002 4288649664
0.092134394 -0.029283024 0.82000005 4287928235
0.03164779 -0.028703809 0.84500003 4294967295
0.033041388 -0.028635871 0.84300005 4294967295
0.034509894 -0.028635871 0.84300005 4289109405
0.035978403 -0.028635871 0.84300005 4285293698
0.037446909 -0.028635871 0.84300005 4286149264
0.038776923 -0.028533963 0.84000003 4287664778
0.046650767 -0.027990459 0.82400006 4287462546
0.047969457 -0.027922522 0.82200003 4287725461
0.049100887 -0.027752675 0.81700003 4288249227
0.050524104 -0.027752675 0.81700003 4288117898
0.051820152 -0.027684739 0.81500006 4288183423
0.053239882 -0.027684739 0.81500006 4288051836
0.054659612 -0.027684739 0.81500006 4288510579
0.056079339 -0.027684739 0.81500006 4289365632
0.057499073 -0.027684739 0.81500006 4289038970
0.058918804 -0.027684739 0.81500006 4289170557
0.060190462 -0.027616799 0.81300002 4289171335
0.061606709 -0.027616799 0.81300002 4289040006
0.063022956 -0.027616799 0.81300002 4289171074
0.0644392 -0.027616799 0.81300002 4289302660
0.065855443 -0.027616799 0.81300002 4289761676
0.067106202 -0.027548863 0.81100005 4289630089
0.068518966 -0.027548863 0.81100005 4289301111
0.069931723 -0.027548863 0.81100005 4288445545
0.071344487 -0.027548863 0.81100005 4288576352
0.072757252 -0.027548863 0.81100005 4288839781
0.074170016 -0.027548863 0.81100005 4289234037
0.075769171 -0.027616799 0.81300002 4288905072
0.077185415 -0.027616799 0.81300002 4288510827
0.078601658 -0.027616799 0.81300002 4288510827
0.080017909 -0.027616799 0.81300002 4288446581
0.081634484 -0.027684739 0.81500006 4288380788
0.083258025 -0.027752675 0.81700003 4288512628
0.084681243 -0.027752675 0.81700003 4290354576
0.086104453 -0.027752675 0.81700003 4289240499
0.08752767 -0.027752675 0.81700003 4287530137
0.089059755 -0.027786644 0.81800002 4287333801
0.090484716 -0.027786644 0.81800002 4287991731
0.03164779 -0.027231818 0.84500003 4294967295
0.033119779 -0.027231818 0.84500003 4294967295
0.034591768 -0.027231818 0.84500003 4290226088
0.036063761 -0.027231818 0.84500003 4286804143
0.037535749 -0.027231818 0.84500003 4283119735
0.038915414 -0.027167365 0.84300005 4284112524
0.046763994 -0.026619505 0.82600003 4289961106
0.048086174 -0.026555052 0.82400006 4288776575
0.049401384 -0.026490597 0.82200003 4288182909
0.050709628 -0.026426144 0.82000005 4288446081
0.051947318 -0.026329461 0.81700003 4288378741
0.053370528 -0.026329461 0.81700003 4287523432
0.054793745 -0.026329461 0.81700003 4287653722
0.056216955 -0.026329461 0.81700003 4288245602
0.057640173 -0.026329461 0.81700003 4288312420
0.058918804 -0.026265008 0.81500006 4289167728
0.060338531 -0.026265008 0.81500006 4289234800
0.061758265 -0.026265008 0.81500006 4289103471
0.063177995 -0.026265008 0.81500006 4288905335
0.064597726 -0.026265008 0.81500006 4288839542
0.066017456 -0.026265008 0.81500006 4289101933
0.067271687 -0.026200553 0.81300002 4288904554
0.068687938 -0.026200553 0.81300002 4288575326
0.07027664 -0.026265008 0.81500006 4287851602
0.071696371 -0.026265008 0.81500006 4287717711
0.073116109 -0.026265008 0.81500006 4287717711
0.074535832 -0.026265008 0.81500006 4287651142
0.07595557 -0.026265008 0.81500006 4287387969
0.077375293 -0.026265008 0.81500006 4287520057
0.078795023 -0.026265008 0.81500006 4287849022
0.080214761 -0.026265008 0.81500006 4287914832
0.081634484 -0.026265008 0.81500006 4288375382
0.083258025 -0.026329461 0.81700003 4287916610
0.084681243 -0.026329461 0.81700003 4289758814
0.086104453 -0.026329461 0.81700003 4288317087
0.08752767 -0.026329461 0.81700003 4287856536
0.089059755 -0.026361689 0.81800002 4287268778
0.090705954 -0.026426144 0.82000005 4287334571
0.03164779 -0.025759827 0.84500003 4294967295
0.033119779 -0.025759827 0.84500003 4294966008
0.034591768 -0.025759827 0.84500003 4290225057
0.036063761 -0.025759827 0.84500003 4289368228
0.037535749 -0.025759827 0.84500003 4284236374
0.038915414 -0.025698857 0.84300005 4284301411
0.045544595 -0.025302552 0.83000004 4291141291
0.046877228 -0.025241584 0.82800007 4290615699
0.048202887 -0.025180614 0.82600003 4288312944
0.04952158 -0.025119644 0.82400006 4288245856
0.050833307 -0.025058672 0.82200003 4287916891
0.052138068 -0.024997704 0.82000005 4287982153
0.053370528 -0.024906248 0.81700003 4287192893
0.054793745 -0.024906248 0.81700003 4287389001
0.056216955 -0.024906248 0.81700003 4288310102
0.057640173 -0.024906248 0.81700003 4288049232
0.05906339 -0.024906248 0.81700003 4288970334
0.060338531 -0.024845278 0.81500006 4288905835
0.061758265 -0.024845278 0.81500006 4288511077
0.063177995 -0.024845278 0.81500006 4288772704
0.064597726 -0.024845278 0.81500006 4289299048
0.066017456 -0.024845278 0.81500006 4289626492
0.067437179 -0.024845278 0.81500006 4288639597
0.068856917 -0.024845278 0.81500006 4288835404
0.07027664 -0.024845278 0.81500006 4287716666
0.071696371 -0.024845278 0.81500006 4287584810
0.073116109 -0.024845278 0.81500006 4287584810
0.074535832 -0.024845278 0.81500006 4287386168
0.07595557 -0.024845278 0.81500006 4287452217
0.077565171 -0.024906248 0.81700003 4287714870
0.078988388 -0.024906248 0.81700003 4288241214
0.080411606 -0.024906248 0.81700003 4288765747
0.081834815 -0.024906248 0.81700003 4288568369
0.083258025 -0.024906248 0.81700003 4287978780
0.084681243 -0.024906248 0.81700003 4290347328
0.086104453 -0.024906248 0.81700003 4287988619
0.087634802 -0.024936732 0.81800002 4288449170
0.089059755 -0.024936732 0.81800002 4288256186
0.03319817 -0.024345325 0.84700006 4294961119
0.034673642 -0.024345325 0.84700006 4289630858
0.036149118 -0.024345325 0.84700006 4289170579
0.03762459 -0.024345325 0.84700006 4287789182
0.038915414 -0.024230352 0.84300005 4283913626
0.044204999 -0.023914179 0.83200002 4291076016
0.045544595 -0.023856692 0.83000004 4290483879
0.046877228 -0.023799207 0.82800007 4290220137
0.048202887 -0.02374172 0.82600003 4288246347
0.049641781 -0.02374172 0.82600003 4288376136
0.050956991 -0.023684235 0.82400006 4286797104
0.052265231 -0.023626748 0.82200003 4287322135
0.053435855 -0.023511777 0.81800002 4287651101
0.054860808 -0.023511777 0.81800002 4287586132
0.056285769 -0.023511777 0.81800002 4288441441
0.057710726 -0.023511777 0.81800002 4288507999
0.059135683 -0.023511777 0.81800002 4289165930
0.0604866 -0.023483032 0.81700003 4288772700
0.061909813 -0.023483032 0.81700003 4288575578
0.063333035 -0.023483032 0.81700003 4288838236
0.064756244 -0.023483032 0.81700003 4289956460
0.066179454 -0.023483032 0.81700003 4289824387
0.067602672 -0.023483032 0.81700003 4287587681
0.069025882 -0.023483032 0.81700003 4287255352
0.070449099 -0.023483032 0.81700003 4287255352
0.071872316 -0.023483032 0.81700003 4287453210
0.073295526 -0.023483032 0.81700003 4287781919
0.074718744 -0.023483032 0.81700003 4287781700
0.076141961 -0.023483032 0.81700003 4287715907
0.077565171 -0.023483032 0.81700003 4287978060
0.078988388 -0.023483032 0.81700003 4287978060
0.080411606 -0.023483032 0.81700003 4288370989
0.081834815 -0.023483032 0.81700003 4288370989
0.083258025 -0.023483032 0.81700003 4287847755
0.084784888 -0.023511777 0.81800002 4290347889
0.086209849 -0.023511777 0.81800002 4289239177
0.087634802 -0.023511777 0.81800002 4289897107
0.089059755 -0.023511777 0.81800002 4288978878
0.036234476 -0.022923851 0.84900004 4288644726
0.03762459 -0.02286985 0.84700006 4288973690
0.039007738 -0.022815848 0.84500003 4285232300
0.042858429 -0.022518838 0.83400005 4288780452
0.044311259 -0.022518838 0.83400005 4290551458
0.045654338 -0.022464834 0.83200002 4290222236
0.046990458 -0.022410832 0.83000004 4289825142
0.048319604 -0.022356832 0.82800007 4288838247
0.049761977 -0.022356832 0.82800007 4289360980
0.051080674 -0.022302829 0.82600003 4288703050
0.052392401 -0.022248827 0.82400006 4288702812
0.053697154 -0.022194823 0.82200003 4288439896
0.055129081 -0.022194823 0.82200003 4288309571
0.056423388 -0.022140823 0.82000005 4288638793
0.057710726 -0.02208682 0.81800002 4289231206
0.059135683 -0.02208682 0.81800002 4289165413
0.060560632 -0.02208682 0.81800002 4288902994
0.06198559 -0.02208682 0.81800002 4288639821
0.06341055 -0.02208682 0.81800002 4288901710
0.064835504 -0.02208682 0.81800002 4289954398
0.066260464 -0.02208682 0.81800002 4289626483
0.06768541 -0.02208682 0.81800002 4287192141
0.069110371 -0.02208682 0.81800002 4286992416
0.070535332 -0.02208682 0.81800002 4287452967
0.071872316 -0.022059821 0.81700003 4287781158
0.073295526 -0.022059821 0.81700003 4288175659
0.074718744 -0.022059821 0.81700003 4288306479
0.076141961 -0.022059821 0.81700003 4288372273
0.077565171 -0.022059821 0.81700003 4288701765
0.078988388 -0.022059821 0.81700003 4288570179
0.080510028 -0.02208682 0.81800002 4288503622
0.081934974 -0.02208682 0.81800002 4289292882
0.083359934 -0.02208682 0.81800002 4288837243
0.084784888 -0.02208682 0.81800002 4290218896
0.086209849 -0.02208682 0.81800002 4289240492
0.087849073 -0.022140823 0.82000005 4289240492
0.036234476 -0.021444893 0.84900004 4287199832
0.037713435 -0.021444893 0.84900004 4289305209
0.042961206 -0.021116527 0.83600003 4286213507
0.044311259 -0.021066008 0.83400005 4288575587
0.045654338 -0.021015489 0.83200002 4289233773
0.046990458 -0.020964973 0.83000004 4289756517
0.048319604 -0.020914454 0.82800007 4289427552
0.049761977 -0.020914454 0.82800007 4289296998
0.051080674 -0.020863935 0.82600003 4290810493
0.052392401 -0.020813419 0.82400006 4290219146
0.053827807 -0.020813419 0.82400006 4288903287
0.055263218 -0.020813419 0.82400006 4288309323
0.056561004 -0.0207629 0.82200003 4289098840
0.057851829 -0.020712381 0.82000005 4289166193
0.059280269 -0.020712381 0.82000005 4288837228
0.060560632 -0.020661863 0.81800002 4288835917
0.06198559 -0.020661863 0.81800002 4287585850
0.06341055 -0.020661863 0.81800002 4288701754
0.064835504 -0.020661863 0.81800002 4289622856
0.066260464 -0.020661863 0.81800002 4289294910
0.06768541 -0.020661863 0.81800002 4287781671
0.069110371 -0.020661863 0.81800002 4288373319
0.070535332 -0.020661863 0.81800002 4288570699
0.071960285 -0.020661863 0.81800002 4288966461
0.073385246 -0.020661863 0.81800002 4289163583
0.074810192 -0.020661863 0.81800002 4288900404
0.076235153 -0.020661863 0.81800002 4289097527
0.077660106 -0.020661863 0.81800002 4289228876
0.079085067 -0.020661863 0.81800002 4290413407
0.080510028 -0.020661863 0.81800002 4290613609
0.081934974 -0.020661863 0.81800002 4291534711
0.083359934 -0.020661863 0.81800002 4289170863
0.084992193 -0.020712381 0.82000005 4288381347
0.086420633 -0.020712381 0.82000005 4285820589
0.044417519 -0.019660214 0.83600003 4286929231
0.045764089 -0.01961318 0.83400005 4287850333
0.047103684 -0.019566147 0.83200002 4289490256
0.048436318 -0.019519113 0.83000004 4289490256
0.049761977 -0.019472079 0.82800007 4289296734
0.051204357 -0.019472079 0.82800007 4290217836
0.052519564 -0.019425044 0.82600003 4289825170
0.053958453 -0.019425044 0.82600003 4287982966
0.055397347 -0.019425044 0.82600003 4287585319
0.056698628 -0.01937801 0.82400006 4288769849
0.057992928 -0.019330975 0.82200003 4289560440
0.059280269 -0.019283943 0.82000005 4289099889
0.060708709 -0.019283943 0.82000005 4289033049
0.062137146 -0.019283943 0.82000005 4288111947
0.063565589 -0.019283943 0.82000005 4288765765
0.06499403 -0.019283943 0.82000005 4288831559
0.066422462 -0.019283943 0.82000005 4288766531
0.067850903 -0.019283943 0.82000005 4288634688
0.06927935 -0.019283943 0.82000005 4288635472
0.070707791 -0.019283943 0.82000005 4289556574
0.072136231 -0.019283943 0.82000005 4288901990
0.073385246 -0.019236907 0.81800002 4288375646
0.074810192 -0.019236907 0.81800002 4288045870
0.076235153 -0.019236907 0.81800002 4288440628
0.077660106 -0.019236907 0.81800002 4289229399
0.079278432 -0.019283943 0.82000005 4290873967
0.080706865 -0.019283943 0.82000005 4290615447
0.082135305 -0.019283943 0.82000005 4290286738
0.083563745 -0.019283943 0.82000005 4288123051
0.045764089 -0.018160351 0.83400005 4286930791
0.047103684 -0.018116802 0.83200002 4287716666
0.048436318 -0.018073253 0.83000004 4288769611
0.049882177 -0.018073253 0.83000004 4288967769
0.051328037 -0.018073253 0.83000004 4289691492
0.05264673 -0.018029701 0.82800007 4289363574
0.05408911 -0.018029701 0.82800007 4287850335
0.055531483 -0.018029701 0.82800007 4287387944
0.056836244 -0.017986152 0.82600003 4287979825
0.058275133 -0.017986152 0.82600003 4288046681
0.059569441 -0.017942604 0.82400006 4288244059
0.060856774 -0.017899051 0.82200003 4287716948
0.062288698 -0.017899051 0.82200003 4287519569
0.063720629 -0.017899051 0.82200003 4287188557
0.065152548 -0.017899051 0.82200003 4286859593
0.066584468 -0.017899051 0.82200003 4287057217
0.068016395 -0.017899051 0.82200003 4288241748
0.069448322 -0.017899051 0.82200003 4288242511
0.070880249 -0.017899051 0.82200003 4289427041
0.072136231 -0.017855503 0.82000005 4288967535
0.073564671 -0.017855503 0.82000005 4287520089
0.074993111 -0.017855503 0.82000005 4287715614
0.076421551 -0.017855503 0.82000005 4288241959
0.077849992 -0.017855503 0.82000005 4288902994
0.079278432 -0.017855503 0.82000005 4290350440
0.045764089 -0.016707525 0.83400005 4286602873
0.047103684 -0.016667457 0.83200002 4287586645
0.048436318 -0.016627392 0.83000004 4288573540
0.049882177 -0.016627392 0.83000004 4288638813
0.051328037 -0.016627392 0.83000004 4289165413
0.05264673 -0.016587328 0.82800007 4289166695
0.05408911 -0.016587328 0.82800007 4288179800
0.055531483 -0.016587328 0.82800007 4288177208
0.05697386 -0.016587328 0.82800007 4288308794
0.05841624 -0.016587328 0.82800007 4287915860
0.059714027 -0.016547261 0.82600003 4287652688
0.061004851 -0.016507195 0.82400006 4286665532
0.062440254 -0.016507195 0.82400006 4286665532
0.063875668 -0.016507195 0.82400006 4286467385
0.065311074 -0.016507195 0.82400006 4286204213
0.066584468 -0.016467128 0.82200003 4286138375
0.068016395 -0.016467128 0.82200003 4287322905
0.069448322 -0.016467128 0.82200003 4287322692
0.070880249 -0.016467128 0.82200003 4288375636
0.072312169 -0.016467128 0.82200003 4288770402
0.073744088 -0.016467128 0.82200003 4287454798
0.047216915 -0.015254697 0.83400005 4288445579
0.048436318 -0.015181531 0.83000004 4288182408
0.049882177 -0.015181531 0.83000004 4288705383
0.051328037 -0.015181531 0.83000004 4288244832
0.052773897 -0.015181531 0.83000004 4288506700
0.054219756 -0.015181531 0.83000004 4288769872
0.055665616 -0.015181531 0.83000004 4288770894
0.057111472 -0.015181531 0.83000004 4288968017
0.058557335 -0.015181531 0.83000004 4288245593
0.060003199 -0.015181531 0.83000004 4288114006
0.06115292 -0.015108367 0.82600003 4287785031
0.062591806 -0.015108367 0.82600003 4287455809
0.064030699 -0.015108367 0.82600003 4287519303
0.065469593 -0.015108367 0.82600003 4287058752
0.066908486 -0.015108367 0.82600003 4287124266
0.068347372 -0.015108367 0.82600003 4287716659
0.069786265 -0.015108367 0.82600003 4287650121
0.071225159 -0.015108367 0.82600003 4287387206
0.072664052 -0.015108367 0.82600003 4287584304
0.074282371 -0.01514495 0.82800007 4287913268
0.075724751 -0.01514495 0.82800007 4287322696
0.080245242 -0.015181531 0.83000004 4282919249
0.083337285 -0.015218113 0.83200002 4284241517
0.084990449 -0.015254697 0.83400005 4283783519
0.086650573 -0.015291276 0.83600003 4284178276
0.09471865 -0.015419315 0.84300005 4281751685
0.096415356 -0.015455897 0.84500003 4285633472
0.098119035 -0.015492478 0.84700006 4289831650
0.040767159 -0.0140832 0.85100001 4283260307
0.048553027 -0.01376877 0.83200002 4288249481
0.050002374 -0.01376877 0.83200002 4288706937
0.051328037 -0.013735672 0.83000004 4288114799
0.052773897 -0.013735672 0.83000004 4288571994
0.054219756 -0.013735672 0.83000004 4288966751
0.055665616 -0.013735672 0.83000004 4288771687
0.057249095 -0.01376877 0.83200002 4288705894
0.058698434 -0.01376877 0.83200002 4288179286
0.060147781 -0.01376877 0.83200002 4288113493
0.061597124 -0.01376877 0.83200002 4288375896
0.062894918 -0.013735672 0.83000004 4287849552
0.064340778 -0.013735672 0.83000004 4288176704
0.065786637 -0.013735672 0.83000004 4287584567
0.067232497 -0.013735672 0.83000004 4287780652
0.068512864 -0.013702574 0.82800007 4288438581
0.069955252 -0.013702574 0.82800007 4288045402
0.071397625 -0.013702574 0.82800007 4288045402
0.072839998 -0.013702574 0.82800007 4287846492
0.074461803 -0.013735672 0.83000004 4287780443
0.075907655 -0.013735672 0.83000004 4286732872
