# .PCD v0.7 - Point Cloud Data file format
VERSION 0.7
FIELDS x y z rgba
SIZE 4 4 4 4
TYPE F F F U
COUNT 1 1 1 1
WIDTH 1008
HEIGHT 1
VIEWPOINT 0 0 0 1 0 0 0
POINTS 1008
DATA ascii
0.0031660853 -0.046224847 0.72700006 4284748824
0.0044325194 -0.046224847 0.72700006 4284880410
0.0057067927 -0.046288431 0.72800004 4284614948
0.006994131 -0.046415593 0.73000002 4284483619
0.0082657905 -0.046415593 0.73000002 4284680492
0.0095505156 -0.046479177 0.73100001 4284614698
0.010823918 -0.046479177 0.73100001 4284680240
0.012130419 -0.046606343 0.73300004 4285272377
0.013407304 -0.046606343 0.73300004 4285142324
0.014684191 -0.046606343 0.73300004 4285142324
0.015961077 -0.046606343 0.73300004 4285144121
0.017237963 -0.046606343 0.73300004 4285407549
0.018565366 -0.04673351 0.73500001 4285805860
0.019845735 -0.04673351 0.73500001 4286068775
0.021126106 -0.04673351 0.73500001 4286066758
0.022406477 -0.04673351 0.73500001 4286593102
0.023719076 -0.046797093 0.73600006 4286395921
0.025001187 -0.046797093 0.73600006 4284948480
0.026354721 -0.04692426 0.73800004 4285012271
0.027640317 -0.04692426 0.73800004 4284683563
0.028925914 -0.04692426 0.73800004 4284552472
0.030211508 -0.04692426 0.73800004 4284881437
0.031497106 -0.04692426 0.73800004 4283574317
0.032827124 -0.046987843 0.73900002 4283574317
0.034114458 -0.046987843 0.73900002 4282135879
0.035401799 -0.046987843 0.73900002 4282990932
0.036689136 -0.046987843 0.73900002 4281354334
0.037976474 -0.046987843 0.73900002 4281091161
0.039263815 -0.046987843 0.73900002 4282664281
0.040660899 -0.047115009 0.74100006 4286085774
0.041951723 -0.047115009 0.74100006 4288186244
0.043242544 -0.047115009 0.74100006 4288383366
0.044713661 -0.047305755 0.74400002 4288118131
0.046009708 -0.047305755 0.74400002 4287591787
0.047432926 -0.047432926 0.74600005 4288380534
0.048732456 -0.047432926 0.74600005 4288841085
0.05003199 -0.047432926 0.74600005 4287200891
0.051331524 -0.047432926 0.74600005 4281805865
0.05263105 -0.047432926 0.74600005 4286079357
0.053930584 -0.047432926 0.74600005 4294967295
0.055304151 -0.047496505 0.74700004 4294967295
-0.034683224 -0.044772889 0.72400004 4286941342
-0.033422016 -0.044772889 0.72400004 4281678158
-0.032205228 -0.044834729 0.72500002 4278989131
-0.030942278 -0.044834729 0.72500002 4280107612
-0.029679328 -0.044834729 0.72500002 4280828503
-0.028416377 -0.044834729 0.72500002 4280762710
-0.027153427 -0.044834729 0.72500002 4280631376
-0.025961902 -0.044958413 0.72700006 4280631376
-0.024729436 -0.045020252 0.72800004 4280631376
-0.023429032 -0.044958413 0.72700006 4280762962
-0.022162598 -0.044958413 0.72700006 4280435794
-0.020896163 -0.044958413 0.72700006 4280370000
-0.019656731 -0.045020252 0.72800004 4280435028
-0.018388554 -0.045020252 0.72800004 4280500822
-0.017120378 -0.045020252 0.72800004 4280631630
-0.015852202 -0.045020252 0.72800004 4280762960
-0.014584026 -0.045020252 0.72800004 4280762710
-0.01331585 -0.045020252 0.72800004 4280762710
-0.012047674 -0.045020252 0.72800004 4281286222
-0.010779497 -0.045020252 0.72800004 4280694341
-0.0095113218 -0.045020252 0.72800004 4282461760
-0.0082431454 -0.045020252 0.72800004 4282395966
-0.0069749686 -0.045020252 0.72800004 4283702828
-0.0057224706 -0.045143936 0.73000002 4283570985
-0.0044508106 -0.045143936 0.73000002 4284814617
-0.0031791502 -0.045143936 0.73000002 4285077533
-0.0019074902 -0.045143936 0.73000002 4285011228
-0.00063583005 -0.045143936 0.73000002 4285011228
0.00063408806 -0.045020252 0.72800004 4285404201
0.0019022641 -0.045020252 0.72800004 4285469994
0.0031835053 -0.045205776 0.73100001 4284879377
0.0044569075 -0.045205776 0.73100001 4285208342
0.0057303095 -0.045205776 0.73100001 4285210918
0.0070037115 -0.045205776 0.73100001 4285539882
0.0082771135 -0.045205776 0.73100001 4285540664
0.0095766466 -0.045329459 0.73300004 4285014320
0.010853532 -0.045329459 0.73300004 4285273392
0.012130419 -0.045329459 0.73300004 4285865785
0.013407304 -0.045329459 0.73300004 4285603407
0.014684191 -0.045329459 0.73300004 4285800785
0.016004626 -0.045453139 0.73500001 4286134602
0.017284997 -0.045453139 0.73500001 4285674051
0.018565366 -0.045453139 0.73500001 4285608243
0.019872738 -0.045514982 0.73600006 4285608243
0.021154851 -0.045514982 0.73600006 4286198328
0.022436963 -0.045514982 0.73600006 4287053637
0.023783529 -0.045638662 0.73800004 4286857276
0.025069125 -0.045638662 0.73800004 4285475623
0.026354721 -0.045638662 0.73800004 4285011508
0.027640317 -0.045638662 0.73800004 4284879922
0.028925914 -0.045638662 0.73800004 4284684326
0.030211508 -0.045638662 0.73800004 4284684326
0.031539787 -0.045700502 0.73900002 4284423718
0.032827124 -0.045700502 0.73900002 4284489511
0.034114458 -0.045700502 0.73900002 4283050285
0.035401799 -0.045700502 0.73900002 4283708216
0.036788434 -0.045824189 0.74100006 4281548630
0.038079254 -0.045824189 0.74100006 4281746009
0.039476339 -0.045947868 0.74300003 4284372826
0.040770642 -0.045947868 0.74300003 4287991440
0.04206495 -0.045947868 0.74300003 4288711556
0.04341761 -0.046009708 0.74400002 4288119163
0.044833858 -0.046133392 0.74600005 4287987315
0.046133392 -0.046133392 0.74600005 4288118902
0.047432926 -0.046133392 0.74600005 4288381308
0.048797779 -0.046195231 0.74700004 4288644224
0.050099056 -0.046195231 0.74700004 4286283875
0.05140033 -0.046195231 0.74700004 4279704576
0.052701604 -0.046195231 0.74700004 4283780981
0.054002877 -0.046195231 0.74700004 4294967295
0.055304151 -0.046195231 0.74700004 4294967295
-0.032338493 -0.043752078 0.72800004 4279185488
-0.031070314 -0.043752078 0.72800004 4280172383
-0.029761203 -0.043691982 0.72700006 4280631380
-0.02849477 -0.043691982 0.72700006 4280762710
-0.027228335 -0.043691982 0.72700006 4280828755
-0.026069032 -0.043872274 0.73000002 4280762962
-0.024797373 -0.043872274 0.73000002 4280565837
-0.023461258 -0.043752078 0.72800004 4280828753
-0.022193084 -0.043752078 0.72800004 4280435794
-0.020924907 -0.043752078 0.72800004 4280370000
-0.019656731 -0.043752078 0.72800004 4280435794
-0.018439071 -0.043872274 0.73000002 4280435794
-0.017167412 -0.043872274 0.73000002 4280763463
-0.01589575 -0.043872274 0.73000002 4280763463
-0.014624092 -0.043872274 0.73000002 4281286226
-0.01335243 -0.043872274 0.73000002 4281286226
-0.012080772 -0.043872274 0.73000002 4282201924
-0.01080911 -0.043872274 0.73000002 4281675324
-0.009537451 -0.043872274 0.73000002 4283112498
-0.0082657905 -0.043872274 0.73000002 4282915120
-0.006994131 -0.043872274 0.73000002 4284026408
-0.0057303095 -0.043932371 0.73100001 4284289579
-0.0044569075 -0.043932371 0.73100001 4284946967
-0.0031835053 -0.043932371 0.73100001 4284946967
-0.0019153293 -0.044052571 0.73300004 4285142313
-0.0006384431 -0.044052571 0.73300004 4285010727
0.00063670106 -0.043932371 0.73100001 4286199069
0.0019101031 -0.043932371 0.73100001 4287120171
0.0031922155 -0.044052571 0.73300004 4285539871
0.0044691018 -0.044052571 0.73300004 4285474078
0.0057459874 -0.044052571 0.73300004 4285605664
0.007022874 -0.044052571 0.73300004 4285671457
0.0082997596 -0.044052571 0.73300004 4285605412
0.0095766466 -0.044052571 0.73300004 4285342240
0.010897954 -0.044232871 0.73600006 4285275711
0.012163516 -0.044172768 0.73500001 4287117915
0.013443886 -0.044172768 0.73500001 4286595405
0.01474429 -0.044232871 0.73600006 4284950323
0.016026402 -0.044232871 0.73600006 4284812860
0.017308515 -0.044232871 0.73600006 4284681273
0.018590627 -0.044232871 0.73600006 4284615698
0.019872738 -0.044232871 0.73600006 4284484369
0.021154851 -0.044232871 0.73600006 4285868323
0.022497933 -0.044353064 0.73800004 4286197031
0.023783529 -0.044353064 0.73800004 4285934116
0.025103094 -0.044413164 0.73900002 4285934116
0.026390431 -0.044413164 0.73900002 4285408063
0.027677769 -0.044413164 0.73900002 4284421167
0.028965108 -0.044413164 0.73900002 4284813611
0.030252445 -0.044413164 0.73900002 4284879661
0.031539787 -0.044413164 0.73900002 4284618778
0.032915968 -0.044533368 0.74100006 4284684828
0.034206789 -0.044533368 0.74100006 4282851868
0.035497613 -0.044533368 0.74100006 4283246370
0.036887724 -0.044653561 0.74300003 4282860629
0.038182031 -0.044653561 0.74300003 4286150279
0.039476339 -0.044653561 0.74300003 4288383607
0.040770642 -0.044653561 0.74300003 4288383607
0.042121563 -0.044713661 0.74400002 4288118381
0.043534327 -0.044833858 0.74600005 4288052588
0.044893958 -0.044893958 0.74700004 4288315515
0.046195231 -0.044893958 0.74700004 4289302410
0.047496505 -0.044893958 0.74700004 4288185992
0.048797779 -0.044893958 0.74700004 4285488222
0.050099056 -0.044893958 0.74700004 4282732877
0.051537946 -0.045014154 0.74900001 4278191104
0.052842703 -0.045014154 0.74900001 4285160847
0.054002877 -0.044893958 0.74700004 4294967295
-0.029802142 -0.042483903 0.72800004 4280761944
-0.028533963 -0.042483903 0.72800004 4280893531
-0.027340693 -0.042600613 0.73000002 4280567380
-0.026104743 -0.04265897 0.73100001 4280435794
-0.024831342 -0.04265897 0.73100001 4280436046
-0.023557939 -0.04265897 0.73100001 4280567632
-0.022284538 -0.04265897 0.73100001 4280632405
-0.021011135 -0.04265897 0.73100001 4280632405
-0.019737732 -0.04265897 0.73100001 4280567380
-0.018464329 -0.04265897 0.73100001 4280567380
-0.017190928 -0.04265897 0.73100001 4280828755
-0.015917527 -0.04265897 0.73100001 4280828755
-0.014684191 -0.042775687 0.73300004 4281154892
-0.013407304 -0.042775687 0.73300004 4280628548
-0.012130419 -0.042775687 0.73300004 4282984762
-0.010853532 -0.042775687 0.73300004 4282787127
-0.0095766466 -0.042775687 0.73300004 4284092453
-0.0082997596 -0.042775687 0.73300004 4284092453
-0.007022874 -0.042775687 0.73300004 4284549926
-0.0057459874 -0.042775687 0.73300004 4284549926
-0.0044691018 -0.042775687 0.73300004 4285275420
-0.0031922155 -0.042775687 0.73300004 4285341213
-0.0019153293 -0.042775687 0.73300004 4285605162
-0.00064018503 -0.0428924 0.73500001 4285934127
0.0006384431 -0.042775687 0.73300004 4286397756
0.0019153293 -0.042775687 0.73300004 4286463805
0.0031922155 -0.042775687 0.73300004 4285343523
0.0044812951 -0.0428924 0.73500001 4285014559
0.0057616658 -0.0428924 0.73500001 4285604372
0.0070516169 -0.042950757 0.73600006 4285735701
0.0083337296 -0.042950757 0.73600006 4285275420
0.0096158413 -0.042950757 0.73600006 4285077785
0.010927567 -0.04306747 0.73800004 4284555318
0.012213163 -0.04306747 0.73800004 4286529108
0.01349876 -0.04306747 0.73800004 4286203729
0.014784356 -0.04306747 0.73800004 4284427061
0.016069952 -0.04306747 0.73800004 4284483619
0.017355548 -0.04306747 0.73800004 4284220191
0.018641144 -0.04306747 0.73800004 4284614144
0.01992674 -0.04306747 0.73800004 4285074691
0.02124108 -0.043125827 0.73900002 4286064169
0.022528417 -0.043125827 0.73900002 4286261291
0.023815755 -0.043125827 0.73900002 4285407520
0.025103094 -0.043125827 0.73900002 4286130986
0.026461855 -0.043242544 0.74100006 4286661209
0.027752677 -0.043242544 0.74100006 4284424248
0.028965108 -0.043125827 0.73900002 4284943144
0.030252445 -0.043125827 0.73900002 4285403695
0.031625144 -0.043242544 0.74100006 4284880924
0.033004805 -0.043359257 0.74300003 4284815130
0.034299113 -0.043359257 0.74300003 4282653717
0.03559342 -0.043359257 0.74300003 4283048475
0.036937371 -0.04341761 0.74400002 4283713376
0.038233418 -0.04341761 0.74400002 4288187300
0.039529469 -0.04341761 0.74400002 4288580747
0.040825516 -0.04341761 0.74400002 4287922817
0.042234793 -0.043534327 0.74600005 4288183411
0.043534327 -0.043534327 0.74600005 4288380534
0.045014154 -0.043709397 0.74900001 4288577667
0.046318911 -0.043709397 0.74900001 4288972425
0.047623672 -0.043709397 0.74900001 4287661444
0.049059082 -0.043826111 0.75100005 4282990141
0.050367322 -0.043826111 0.75100005 4280954681
0.051675566 -0.043826111 0.75100005 4278191118
0.052983809 -0.043826111 0.75100005 4286604950
-0.028612353 -0.041328952 0.73000002 4280893531
-0.027340693 -0.041328952 0.73000002 4280567380
-0.026104743 -0.041385569 0.73100001 4280501587
-0.024831342 -0.041385569 0.73100001 4280828755
-0.023622394 -0.041498803 0.73300004 4280762962
-0.022345508 -0.041498803 0.73300004 4280827992
-0.021126106 -0.041612029 0.73500001 4280827992
-0.019845735 -0.041612029 0.73500001 4280828503
-0.018565366 -0.041612029 0.73500001 4280762710
-0.017284997 -0.041612029 0.73500001 4281091159
-0.016004626 -0.041612029 0.73500001 4280827988
-0.014724256 -0.041612029 0.73500001 4282005574
-0.013407304 -0.041498803 0.73300004 4281742146
-0.012130419 -0.041498803 0.73300004 4283245618
-0.010853532 -0.041498803 0.73300004 4282785067
-0.0095766466 -0.041498803 0.73300004 4284222989
-0.0082997596 -0.041498803 0.73300004 4284288782
-0.007022874 -0.041498803 0.73300004 4284680742
-0.0057459874 -0.041498803 0.73300004 4284483619
-0.0044691018 -0.041498803 0.73300004 4284613902
-0.0032009254 -0.041612029 0.73500001 4285206039
-0.001920555 -0.041612029 0.73500001 4285145375
-0.0006410561 -0.041668646 0.73600006 4285540132
0.00064018503 -0.041612029 0.73500001 4285341477
0.001920555 -0.041612029 0.73500001 4285275427
0.0032009254 -0.041612029 0.73500001 4285275933
0.0044873925 -0.041668646 0.73600006 4283894280
0.0057695047 -0.041668646 0.73600006 4284746507
0.0070516169 -0.041668646 0.73600006 4285009680
0.0083337296 -0.041668646 0.73600006 4285208619
0.0096419714 -0.041781873 0.73800004 4285274668
0.010927567 -0.041781873 0.73800004 4285014068
0.012213163 -0.041781873 0.73800004 4286856272
0.01349876 -0.041781873 0.73800004 4286332967
0.014784356 -0.041781873 0.73800004 4285148949
0.016069952 -0.041781873 0.73800004 4285802039
0.017379064 -0.041838486 0.73900002 4285604660
0.018666402 -0.041838486 0.73900002 4286266131
0.019953741 -0.041838486 0.73900002 4286792475
0.02124108 -0.041838486 0.73900002 4286792516
0.022528417 -0.041838486 0.73900002 4286792516
0.02388021 -0.041951723 0.74100006 4285737016
0.025171032 -0.041951723 0.74100006 4285999931
0.026461855 -0.041951723 0.74100006 4286463049
0.027752677 -0.041951723 0.74100006 4285015603
0.029121889 -0.04206495 0.74300003 4285076020
0.030416194 -0.04206495 0.74300003 4285076020
0.031753179 -0.042121563 0.74400002 4285011228
0.033049226 -0.042121563 0.74400002 4284879642
0.034345273 -0.042121563 0.74400002 4283504411
0.035641324 -0.042121563 0.74400002 4285478201
0.037036669 -0.042234793 0.74600005 4284959359
0.038336199 -0.042234793 0.74600005 4288775353
0.039635733 -0.042234793 0.74600005 4288578680
0.040935263 -0.042234793 0.74600005 4287921007
0.042234793 -0.042234793 0.74600005 4288248953
0.043592684 -0.04229141 0.74700004 4289301640
0.045014154 -0.04240464 0.74900001 4288513421
0.046442598 -0.042517871 0.75100005 4286144873
0.047750838 -0.042517871 0.75100005 4283650145
0.049124405 -0.042574484 0.75200003 4282663250
0.050434388 -0.042574484 0.75200003 4280368983
0.051744372 -0.042574484 0.75200003 4278195501
0.053054359 -0.042574484 0.75200003 4287132831
-0.03392981 -0.040331658 0.73500001 4282005572
-0.032649439 -0.040331658 0.73500001 4280436046
-0.031369068 -0.040331658 0.73500001 4280238923
-0.030088698 -0.040331658 0.73500001 4280761946
-0.028808327 -0.040331658 0.73500001 4280893533
-0.027527958 -0.040331658 0.73500001 4280828755
-0.0262833 -0.040386535 0.73600006 4280828755
-0.025001187 -0.040386535 0.73600006 4280762962
-0.023719076 -0.040386535 0.73600006 4280762962
-0.022436963 -0.040386535 0.73600006 4280631380
-0.021154851 -0.040386535 0.73600006 4280565587
-0.019872738 -0.040386535 0.73600006 4280565587
-0.018590627 -0.040386535 0.73600006 4280565587
-0.017308515 -0.040386535 0.73600006 4281286226
-0.016026402 -0.040386535 0.73600006 4281154640
-0.01474429 -0.040386535 0.73600006 4282593346
-0.013462178 -0.040386535 0.73600006 4282067002
-0.012163516 -0.040331658 0.73500001 4283702057
-0.010883146 -0.040331658 0.73500001 4283504679
-0.0096027758 -0.040331658 0.73500001 4284486420
-0.0083224056 -0.040331658 0.73500001 4284815128
-0.0070420355 -0.040331658 0.73500001 4285140791
-0.0057616658 -0.040331658 0.73500001 4284285482
-0.0044812951 -0.040331658 0.73500001 4284481802
-0.0032052805 -0.040386535 0.73600006 4284942353
-0.0019231683 -0.040386535 0.73600006 4284551427
-0.0006410561 -0.040386535 0.73600006 4284551427
0.0006410561 -0.040386535 0.73600006 4284612609
0.0019231683 -0.040386535 0.73600006 4286388764
0.0032052805 -0.040386535 0.73600006 4285541155
0.0044995868 -0.040496279 0.73800004 4284356880
0.0057851826 -0.040496279 0.73800004 4284878597
0.0070707784 -0.040496279 0.73800004 4285404941
0.0083563756 -0.040496279 0.73800004 4285932862
0.0096419714 -0.040496279 0.73800004 4285867069
0.010942374 -0.040551152 0.73900002 4285276978
0.012229712 -0.040551152 0.73900002 4286592582
0.01351705 -0.040551152 0.73900002 4286332465
0.014804387 -0.040551152 0.73900002 4285543205
0.016091727 -0.040551152 0.73900002 4286195498
0.017379064 -0.040551152 0.73900002 4286261291
0.018716922 -0.040660899 0.74100006 4286595907
0.020007744 -0.040660899 0.74100006 4286661700
0.021356052 -0.040770642 0.74300003 4286595655
0.022650357 -0.040770642 0.74300003 4286135104
0.023944663 -0.040770642 0.74300003 4285144877
0.025272937 -0.040825516 0.74400002 4285408049
0.026533276 -0.040770642 0.74300003 4286198600
0.027827581 -0.040770642 0.74300003 4285408828
0.029161081 -0.040825516 0.74400002 4285539369
0.030457132 -0.040825516 0.74400002 4284749854
0.031753179 -0.040825516 0.74400002 4285207324
0.033049226 -0.040825516 0.74400002 4285009945
0.034437601 -0.040935263 0.74600005 4284484873
0.035737135 -0.040935263 0.74600005 4287116337
0.037036669 -0.040935263 0.74600005 4286799471
0.038336199 -0.040935263 0.74600005 4288839311
0.039635733 -0.040935263 0.74600005 4288315515
0.040990133 -0.040990133 0.74700004 4288183673
0.04240464 -0.04109988 0.74900001 4288576384
0.043709397 -0.04109988 0.74900001 4289168521
0.045134354 -0.041209627 0.75100005 4288185992
0.046504438 -0.0412645 0.75200003 4284172362
0.047814421 -0.0412645 0.75200003 4282926926
0.049124405 -0.0412645 0.75200003 4282466375
0.050434388 -0.0412645 0.75200003 4279841104
0.051744372 -0.0412645 0.75200003 4278195251
0.053195458 -0.041374244 0.75400001 4287790754
-0.033975974 -0.039104421 0.73600006 4282531650
-0.032693859 -0.039104421 0.73600006 4280370252
-0.031411748 -0.039104421 0.73600006 4280238923
-0.030129636 -0.039104421 0.73600006 4280761946
-0.028847525 -0.039104421 0.73600006 4280893533
-0.027565412 -0.039104421 0.73600006 4280762962
-0.0262833 -0.039104421 0.73600006 4280828755
-0.025069125 -0.039210681 0.73800004 4280631376
-0.023783529 -0.039210681 0.73800004 4280631376
-0.022497933 -0.039210681 0.73800004 4280565583
-0.021154851 -0.039104421 0.73600006 4280565583
-0.019872738 -0.039104421 0.73600006 4280631376
-0.018641144 -0.039210681 0.73800004 4280631376
-0.017355548 -0.039210681 0.73800004 4281547854
-0.016069952 -0.039210681 0.73800004 4281218632
-0.014784356 -0.039210681 0.73800004 4282985012
-0.01349876 -0.039210681 0.73800004 4282656048
-0.012213163 -0.039210681 0.73800004 4284092970
-0.010897954 -0.039104421 0.73600006 4283961128
-0.0096158413 -0.039104421 0.73600006 4284615969
-0.0083563756 -0.039210681 0.73800004 4286787137
-0.0070516169 -0.039104421 0.73600006 4285602886
-0.0057695047 -0.039104421 0.73600006 4284550455
-0.0044873925 -0.039104421 0.73600006 4285537823
-0.0032139902 -0.039210681 0.73800004 4285866787
-0.0019283943 -0.039210681 0.73800004 4285670174
-0.00064279808 -0.039210681 0.73800004 4286262567
0.00064279808 -0.039210681 0.73800004 4286001206
0.0019283943 -0.039210681 0.73800004 4285935413
0.0032139902 -0.039210681 0.73800004 4285870371
0.0045056837 -0.039263815 0.73900002 4285804322
0.0057930215 -0.039263815 0.73900002 4285673760
0.0070803599 -0.039263815 0.73900002 4286002469
0.0083676977 -0.039263815 0.73900002 4285999948
0.009655036 -0.039263815 0.73900002 4285342017
0.010942374 -0.039263815 0.73900002 4285275427
0.012262811 -0.039370079 0.74100006 4285209634
0.013553632 -0.039370079 0.74100006 4285537584
0.014844455 -0.039370079 0.74100006 4285998135
0.016178826 -0.039476339 0.74300003 4285669924
0.017473133 -0.039476339 0.74300003 4285669924
0.018767439 -0.039476339 0.74300003 4285537584
0.020088745 -0.039529469 0.74400002 4285208619
0.021384794 -0.039529469 0.74400002 4285404201
0.022680841 -0.039529469 0.74400002 4285206823
0.023976889 -0.039529469 0.74400002 4285273118
0.025272937 -0.039529469 0.74400002 4285470496
0.026568986 -0.039529469 0.74400002 4285405484
0.027865034 -0.039529469 0.74400002 4285273642
0.029161081 -0.039529469 0.74400002 4285273624
0.030457132 -0.039529469 0.74400002 4285141781
0.031838536 -0.039635733 0.74600005 4285404953
0.03313807 -0.039635733 0.74600005 4285075988
0.034437601 -0.039635733 0.74600005 4284288271
0.035737135 -0.039635733 0.74600005 4286722612
0.037086312 -0.039688859 0.74700004 4286731096
0.038387585 -0.039688859 0.74700004 4289231486
0.039901387 -0.039901387 0.75100005 4288774017
0.041209627 -0.039901387 0.75100005 4289497484
0.042517871 -0.039901387 0.75100005 4288447878
0.043826111 -0.039901387 0.75100005 4286408295
0.045194451 -0.039954517 0.75200003 4284044889
0.046504438 -0.039954517 0.75200003 4282729030
0.047814421 -0.039954517 0.75200003 4281683035
0.049255051 -0.040060777 0.75400001 4281551449
0.050568525 -0.040060777 0.75400001 4278990163
0.051881991 -0.040060777 0.75400001 4278198591
0.053336564 -0.040167041 0.75600004 4288515497
-0.035353892 -0.037925087 0.73800004 4289176743
-0.033975974 -0.03782231 0.73600006 4282794823
-0.032693859 -0.03782231 0.73600006 4281223497
-0.031411748 -0.03782231 0.73600006 4280368444
-0.030129636 -0.03782231 0.73600006 4280630106
-0.028847525 -0.03782231 0.73600006 4280893535
-0.027565412 -0.03782231 0.73600006 4280828755
-0.026354721 -0.037925087 0.73800004 4280894548
-0.025069125 -0.037925087 0.73800004 4280435794
-0.023783529 -0.037925087 0.73800004 4280370000
-0.022497933 -0.037925087 0.73800004 4280631376
-0.021212338 -0.037925087 0.73800004 4280631376
-0.01992674 -0.037925087 0.73800004 4280631376
-0.018641144 -0.037925087 0.73800004 4280631376
-0.017355548 -0.037925087 0.73800004 4281546316
-0.016069952 -0.037925087 0.73800004 4280954179
-0.014784356 -0.037925087 0.73800004 4283114020
-0.01349876 -0.037925087 0.73800004 4283114020
-0.012213163 -0.037925087 0.73800004 4284419621
-0.010927567 -0.037925087 0.73800004 4284353828
-0.0096419714 -0.037925087 0.73800004 4284615698
-0.0083563756 -0.037925087 0.73800004 4286129194
-0.0070707784 -0.037925087 0.73800004 4285406518
-0.0057851826 -0.037925087 0.73800004 4285406518
-0.0044995868 -0.037925087 0.73800004 4286392879
-0.0032139902 -0.037925087 0.73800004 4286195500
-0.0019283943 -0.037925087 0.73800004 4285932069
-0.00064366905 -0.037976474 0.73900002 4286655536
0.00064366905 -0.037976474 0.73900002 4286661198
0.0019310071 -0.037976474 0.73900002 4285740096
0.0032183453 -0.037976474 0.73900002 4285869617
0.0045178775 -0.038079254 0.74100006 4285803824
0.0058086999 -0.038079254 0.74100006 4285607461
0.0070995223 -0.038079254 0.74100006 4285673254
0.0083903437 -0.038079254 0.74100006 4285540162
0.0096811661 -0.038079254 0.74100006 4285145404
0.010971989 -0.038079254 0.74100006 4285404953
0.012262811 -0.038079254 0.74100006 4285273624
0.013590215 -0.038182031 0.74300003 4285205778
0.01488452 -0.038182031 0.74300003 4286258209
0.016200602 -0.038233418 0.74400002 4285538867
0.017496651 -0.038233418 0.74400002 4285144109
0.018792698 -0.038233418 0.74400002 4284809500
0.020142749 -0.038336199 0.74600005 4285335844
0.021442281 -0.038336199 0.74600005 4285270846
0.022741813 -0.038336199 0.74600005 4285270846
0.024041345 -0.038336199 0.74600005 4285469983
0.025340877 -0.038336199 0.74600005 4285535776
0.02664041 -0.038336199 0.74600005 4285273129
0.027939942 -0.038336199 0.74600005 4285339178
0.029239476 -0.038336199 0.74600005 4285206804
0.030539008 -0.038336199 0.74600005 4285338646
0.031881217 -0.038387585 0.74700004 4285274394
0.033182491 -0.038387585 0.74700004 4284682514
0.034483764 -0.038387585 0.74700004 4284090906
0.035785038 -0.038387585 0.74700004 4286459710
0.037086312 -0.038387585 0.74700004 4286338391
0.038593143 -0.038593143 0.75100005 4289167490
0.039901387 -0.038593143 0.75100005 4288906130
0.041209627 -0.038593143 0.75100005 4289169303
0.042574484 -0.038644534 0.75200003 4288055698
0.043884467 -0.038644534 0.75200003 4284042582
0.045314651 -0.038747307 0.75400001 4282534478
0.046628118 -0.038747307 0.75400001 4282271563
0.048068754 -0.038850091 0.75600004 4281356384
0.049385708 -0.038850091 0.75600004 4280961627
0.050702658 -0.038850091 0.75600004 4279056208
0.052019611 -0.038850091 0.75600004 4278529864
0.05340711 -0.038901478 0.75700003 4289370543
-0.036639489 -0.036639489 0.73800004 4290686641
-0.035353892 -0.036639489 0.73800004 4289242536
-0.034068298 -0.036639489 0.73800004 4283057994
-0.0327827 -0.036639489 0.73800004 4280502341
-0.031497106 -0.036639489 0.73800004 4279712825
-0.030211508 -0.036639489 0.73800004 4280630106
-0.028925914 -0.036639489 0.73800004 4281024864
-0.027640317 -0.036639489 0.73800004 4280828755
-0.026354721 -0.036639489 0.73800004 4280894548
-0.025069125 -0.036639489 0.73800004 4280631376
-0.023783529 -0.036639489 0.73800004 4280762962
-0.022497933 -0.036639489 0.73800004 4280631376
-0.021212338 -0.036639489 0.73800004 4280631376
-0.01992674 -0.036639489 0.73800004 4281154640
-0.018666402 -0.036689136 0.73900002 4281023054
-0.017379064 -0.036689136 0.73900002 4282005572
-0.016091727 -0.036689136 0.73900002 4281413435
-0.014804387 -0.036689136 0.73900002 4283046681
-0.01351705 -0.036689136 0.73900002 4283112474
-0.012229712 -0.036689136 0.73900002 4284616469
-0.010942374 -0.036689136 0.73900002 4284353296
-0.009655036 -0.036689136 0.73900002 4284614406
-0.0083563756 -0.036639489 0.73800004 4286061852
-0.0070707784 -0.036639489 0.73800004 4285604129
-0.0057930215 -0.036689136 0.73900002 4285604129
-0.0045056837 -0.036689136 0.73900002 4285800477
-0.0032183453 -0.036689136 0.73900002 4285405975
-0.0019310071 -0.036689136 0.73900002 4285275427
-0.00064366905 -0.036689136 0.73900002 4285867821
0.00064366905 -0.036689136 0.73900002 4285340473
0.0019362331 -0.036788434 0.74100006 4284879922
0.0032357653 -0.036887724 0.74300003 4285205552
0.0045300713 -0.036887724 0.74300003 4285008174
0.0058243778 -0.036887724 0.74300003 4285141002
0.0071186838 -0.036887724 0.74300003 4285272588
0.0084129898 -0.036887724 0.74300003 4285274925
0.0097072963 -0.036887724 0.74300003 4285012010
0.011001602 -0.036887724 0.74300003 4285207308
0.012295908 -0.036887724 0.74300003 4285997081
0.013608505 -0.036937371 0.74400002 4285735476
0.014904552 -0.036937371 0.74400002 4285867319
0.016200602 -0.036937371 0.74400002 4285670467
0.017543685 -0.037036669 0.74600005 4285670467
0.018843215 -0.037036669 0.74600005 4286199350
0.020142749 -0.037036669 0.74600005 4286923073
0.021442281 -0.037036669 0.74600005 4286726489
0.022772297 -0.037086312 0.74700004 4284226355
0.024073573 -0.037086312 0.74700004 4285074703
0.025374847 -0.037086312 0.74700004 4285535254
0.02667612 -0.037086312 0.74700004 4285273118
0.027977394 -0.037086312 0.74700004 4285273118
0.029278668 -0.037086312 0.74700004 4285273624
0.030579941 -0.037086312 0.74700004 4285273624
0.031966574 -0.037185606 0.74900001 4285273624
0.033271331 -0.037185606 0.74900001 4284944402
0.034668416 -0.037284903 0.75100005 4284024343
0.03597666 -0.037284903 0.75100005 4286392891
0.037284903 -0.037284903 0.75100005 4286403684
0.038644534 -0.037334546 0.75200003 4289824920
0.039954517 -0.037334546 0.75200003 4289039752
0.0412645 -0.037334546 0.75200003 4287328877
0.042574484 -0.037334546 0.75200003 4284900217
0.043884467 -0.037334546 0.75200003 4282794584
0.045434847 -0.037533138 0.75600004 4281420640
0.046751801 -0.037533138 0.75600004 4281683812
0.048068754 -0.037533138 0.75600004 4281618789
0.049385708 -0.037533138 0.75600004 4281158238
0.050769724 -0.037582785 0.75700003 4278202700
0.052088417 -0.037582785 0.75700003 4278531921
0.053548217 -0.037682079 0.75900006 4289700789
-0.036490548 -0.035210177 0.73500001 4290883766
-0.035353892 -0.035353892 0.73800004 4289374892
-0.034068298 -0.035353892 0.73800004 4283716438
-0.0327827 -0.035353892 0.73800004 4280371284
-0.031497106 -0.035353892 0.73800004 4279647817
-0.030211508 -0.035353892 0.73800004 4280368983
-0.028925914 -0.035353892 0.73800004 4280632155
-0.027640317 -0.035353892 0.73800004 4280894548
-0.026390431 -0.035401799 0.73900002 4280828755
-0.025103094 -0.035401799 0.73900002 4280828503
-0.023815755 -0.035401799 0.73900002 4280762710
-0.022528417 -0.035401799 0.73900002 4280828755
-0.02124108 -0.035401799 0.73900002 4280762962
-0.019953741 -0.035401799 0.73900002 4280828755
-0.018666402 -0.035401799 0.73900002 4280762962
-0.017379064 -0.035401799 0.73900002 4282332999
-0.016091727 -0.035401799 0.73900002 4281477947
-0.014804387 -0.035401799 0.73900002 4283504411
-0.01351705 -0.035401799 0.73900002 4283570204
-0.012229712 -0.035401799 0.73900002 4284616469
-0.010942374 -0.035401799 0.73900002 4284550675
-0.009655036 -0.035401799 0.73900002 4284745992
-0.0083676977 -0.035401799 0.73900002 4286193438
-0.0070803599 -0.035401799 0.73900002 4285605412
-0.0057930215 -0.035401799 0.73900002 4285408033
-0.0045178775 -0.035497613 0.74100006 4285339930
-0.0032270555 -0.035497613 0.74100006 4285208088
-0.0019362331 -0.035497613 0.74100006 4284947230
-0.00064541108 -0.035497613 0.74100006 4284618265
0.00064715307 -0.03559342 0.74300003 4284612641
0.0019414593 -0.03559342 0.74300003 4284481566
0.0032357653 -0.03559342 0.74300003 4285071397
0.0045300713 -0.03559342 0.74300003 4285334056
0.0058322162 -0.035641324 0.74400002 4285335814
0.0071282643 -0.035641324 0.74400002 4285927951
0.0084243128 -0.035641324 0.74400002 4285405973
0.0097203609 -0.035641324 0.74400002 4285471766
0.011016409 -0.035641324 0.74400002 4285273129
0.012312457 -0.035641324 0.74400002 4286194231
0.013645088 -0.035737135 0.74600005 4286593867
0.014944619 -0.035737135 0.74600005 4286725454
0.016244153 -0.035737135 0.74600005 4286530653
0.017567201 -0.035785038 0.74700004 4286662495
0.018868476 -0.035785038 0.74700004 4287455337
0.02022375 -0.035880849 0.74900001 4287587179
0.021528509 -0.035880849 0.74900001 4287520378
0.022833267 -0.035880849 0.74900001 4283375675
0.024138026 -0.035880849 0.74900001 4284876810
0.025442783 -0.035880849 0.74900001 4285403154
0.02674754 -0.035880849 0.74900001 4285077022
0.0280523 -0.035880849 0.74900001 4285077022
0.029357059 -0.035880849 0.74900001 4285273624
0.030661814 -0.035880849 0.74900001 4285273624
0.032051936 -0.03597666 0.75100005 4285535256
0.033360176 -0.03597666 0.75100005 4284877582
0.03471458 -0.036024563 0.75200003 4283829256
0.036024563 -0.036024563 0.75200003 4288105544
0.037334546 -0.036024563 0.75200003 4287392889
0.038747307 -0.036120374 0.75400001 4289827230
0.040060777 -0.036120374 0.75400001 4289041564
0.041374244 -0.036120374 0.75400001 4285028191
0.042687714 -0.036120374 0.75400001 4282863713
0.044001181 -0.036120374 0.75400001 4282008404
0.045434847 -0.036216184 0.75600004 4281290591
0.046813641 -0.036264088 0.75700003 4281422178
0.048132334 -0.036264088 0.75700003 4281684061
0.049451031 -0.036264088 0.75700003 4280960595
0.050769724 -0.036264088 0.75700003 4278200385
0.052088417 -0.036264088 0.75700003 4278598998
0.053548217 -0.036359899 0.75900006 4290489271
-0.03777092 -0.03392981 0.73500001 4292265419
-0.036490548 -0.03392981 0.73500001 4291015352
-0.035353892 -0.034068298 0.73800004 4289571501
-0.034068298 -0.034068298 0.73800004 4284900198
-0.0327827 -0.034068298 0.73800004 4281157988
-0.031497106 -0.034068298 0.73800004 4280105043
-0.030211508 -0.034068298 0.73800004 4280303190
-0.028925914 -0.034068298 0.73800004 4280697948
-0.027677769 -0.034114458 0.73900002 4280698198
-0.026390431 -0.034114458 0.73900002 4280698198
-0.025103094 -0.034114458 0.73900002 4280632153
-0.023815755 -0.034114458 0.73900002 4280632153
-0.022528417 -0.034114458 0.73900002 4280632405
-0.02124108 -0.034114458 0.73900002 4280632405
-0.019953741 -0.034114458 0.73900002 4280828755
-0.018716922 -0.034206789 0.74100006 4280565583
-0.0174261 -0.034206789 0.74100006 4282528584
-0.016135277 -0.034206789 0.74100006 4281673532
-0.014844455 -0.034206789 0.74100006 4283765800
-0.013553632 -0.034206789 0.74100006 4283831849
-0.012262811 -0.034206789 0.74100006 4284616469
-0.010971989 -0.034206789 0.74100006 4284484882
-0.0096811661 -0.034206789 0.74100006 4284746001
-0.0083676977 -0.034114458 0.73900002 4284812050
-0.0070803599 -0.034114458 0.73900002 4284943650
-0.0058086999 -0.034206789 0.74100006 4285206823
-0.0045300713 -0.034299113 0.74300003 4285206554
-0.0032357653 -0.034299113 0.74300003 4285535776
-0.0019414593 -0.034299113 0.74300003 4285473313
-0.00064715307 -0.034299113 0.74300003 4286262828
0.00064802408 -0.034345273 0.74400002 4285868604
0.0019440722 -0.034345273 0.74400002 4285670969
0.0032401201 -0.034345273 0.74400002 4285998918
0.0045361686 -0.034345273 0.74400002 4285933125
0.0058322162 -0.034345273 0.74400002 4286529319
0.0071474267 -0.034437601 0.74600005 4286923821
0.0084243128 -0.034345273 0.74400002 4286531116
0.0097203609 -0.034345273 0.74400002 4286859824
0.011016409 -0.034345273 0.74400002 4286596168
0.012312457 -0.034345273 0.74400002 4285017137
0.013645088 -0.034437601 0.74600005 4286198328
0.014944619 -0.034437601 0.74600005 4285869363
0.016265927 -0.034483764 0.74700004 4285999702
0.017567201 -0.034483764 0.74700004 4286196824
0.018918993 -0.034576092 0.74900001 4285604660
0.02022375 -0.034576092 0.74900001 4285341488
0.021528509 -0.034576092 0.74900001 4285274680
0.022894237 -0.034668416 0.75100005 4284682286
0.024202481 -0.034668416 0.75100005 4285074703
0.025510723 -0.034668416 0.75100005 4285272338
0.026818965 -0.034668416 0.75100005 4285207324
0.028127208 -0.034668416 0.75100005 4285141531
0.029435448 -0.034668416 0.75100005 4285141531
0.03074369 -0.034668416 0.75100005 4285273118
0.032094613 -0.03471458 0.75200003 4285141531
0.033404596 -0.03471458 0.75200003 4283826183
0.03471458 -0.03471458 0.75200003 4284353024
0.036120374 -0.034806907 0.75400001 4290537307
0.03743384 -0.034806907 0.75400001 4288709508
0.038747307 -0.034806907 0.75400001 4288511872
0.040167041 -0.034899231 0.75600004 4286345846
0.041483991 -0.034899231 0.75600004 4282990402
0.042800944 -0.034899231 0.75600004 4281486169
0.044117898 -0.034899231 0.75600004 4281749341
0.045434847 -0.034899231 0.75600004 4281881182
0.046937324 -0.035037722 0.75900006 4281815389
0.048386667 -0.035130046 0.76100004 4281552984
0.049712334 -0.035130046 0.76100004 4280763211
0.051037993 -0.035130046 0.76100004 4278201155
0.052363656 -0.035130046 0.76100004 4280901753
0.053689316 -0.035130046 0.76100004 4290426045
0.055014979 -0.035130046 0.76100004 4294967295
-0.03777092 -0.032649439 0.73500001 4292528847
-0.036490548 -0.032649439 0.73500001 4290883766
-0.035258085 -0.032693859 0.73600006 4289899185
-0.034068298 -0.0327827 0.73800004 4285885812
-0.0327827 -0.0327827 0.73800004 4281944938
-0.031497106 -0.0327827 0.73800004 4280300112
-0.030252445 -0.032827124 0.73900002 4280435028
-0.028965108 -0.032827124 0.73900002 4280763993
-0.027677769 -0.032827124 0.73900002 4280763991
-0.026461855 -0.032915968 0.74100006 4280632405
-0.025171032 -0.032915968 0.74100006 4280698198
-0.02388021 -0.032915968 0.74100006 4280698198
-0.022589387 -0.032915968 0.74100006 4280698198
-0.021298565 -0.032915968 0.74100006 4280698198
-0.020007744 -0.032915968 0.74100006 4280632405
-0.018716922 -0.032915968 0.74100006 4280369489
-0.0174261 -0.032915968 0.74100006 4282857799
-0.016178826 -0.033004805 0.74300003 4281673781
-0.014844455 -0.032915968 0.74100006 4283960603
-0.013553632 -0.032915968 0.74100006 4284223775
-0.012295908 -0.033004805 0.74300003 4284682518
-0.011001602 -0.033004805 0.74300003 4284550675
-0.0097072963 -0.033004805 0.74300003 4284812050
-0.0084129898 -0.033004805 0.74300003 4284877843
-0.0071186838 -0.033004805 0.74300003 4284747027
-0.0058322162 -0.033049226 0.74400002 4284747027
-0.0045361686 -0.033049226 0.74400002 4284944400
-0.0032401201 -0.033049226 0.74400002 4285075986
-0.0019440722 -0.033049226 0.74400002 4285473063
-0.00064802408 -0.033049226 0.74400002 4286328372
0.00064802408 -0.033049226 0.74400002 4287452510
0.0019440722 -0.033049226 0.74400002 4287452510
0.0032488303 -0.03313807 0.74600005 4286928227
0.0045483625 -0.03313807 0.74600005 4286401883
0.0058478951 -0.03313807 0.74600005 4286337094
0.0071474267 -0.03313807 0.74600005 4286008129
0.0084469598 -0.03313807 0.74600005 4286204209
0.009746491 -0.03313807 0.74600005 4286336051
0.011046024 -0.03313807 0.74600005 4286531656
0.012345555 -0.03313807 0.74600005 4285610554
0.013663379 -0.033182491 0.74700004 4286068014
0.014964653 -0.033182491 0.74700004 4285870378
0.016265927 -0.033182491 0.74700004 4285736260
0.017614234 -0.033271331 0.74900001 4285275709
0.018918993 -0.033271331 0.74900001 4285206554
0.020277753 -0.033360176 0.75100005 4284811796
0.021585995 -0.033360176 0.75100005 4285074725
0.022894237 -0.033360176 0.75100005 4285206054
0.024202481 -0.033360176 0.75100005 4285206804
0.025510723 -0.033360176 0.75100005 4285404440
0.026818965 -0.033360176 0.75100005 4285273624
0.028127208 -0.033360176 0.75100005 4285273624
0.029474642 -0.033404596 0.75200003 4285207574
0.030784627 -0.033404596 0.75200003 4285141781
0.032094613 -0.033404596 0.75200003 4284944420
0.033404596 -0.033404596 0.75200003 4283891732
0.034806907 -0.033493433 0.75400001 4284620831
0.036120374 -0.033493433 0.75400001 4290344822
0.037533138 -0.033582281 0.75600004 4288713883
0.038850091 -0.033582281 0.75600004 4285818990
0.040167041 -0.033582281 0.75600004 4283783521
0.041538864 -0.033626702 0.75700003 4282270025
0.042857558 -0.033626702 0.75700003 4281290591
0.044176254 -0.033626702 0.75700003 4281619300
0.045494948 -0.033626702 0.75700003 4282012259
0.047061007 -0.033804383 0.76100004 4281815137
0.048386667 -0.033804383 0.76100004 4281356380
0.049712334 -0.033804383 0.76100004 4280369485
0.05110506 -0.033848803 0.76200002 4278201411
0.052570082 -0.033937652 0.76400006 4281297794
0.053759865 -0.033848803 0.76200002 4291148489
0.055087272 -0.033848803 0.76200002 4294967295
-0.03777092 -0.031369068 0.73500001 4292659922
-0.036490548 -0.031369068 0.73500001 4290817718
-0.035258085 -0.031411748 0.73600006 4290096564
-0.034068298 -0.031497106 0.73800004 4286412156
-0.0327827 -0.031497106 0.73800004 4281814637
-0.031539787 -0.031539787 0.73900002 4279511882
-0.030252445 -0.031539787 0.73900002 4279976278
-0.029043498 -0.031625144 0.74100006 4280502622
-0.027752677 -0.031625144 0.74100006 4280698198
-0.026533276 -0.031710502 0.74300003 4280763991
-0.025272937 -0.031753179 0.74400002 4280830040
-0.023944663 -0.031710502 0.74300003 4280830040
-0.022650357 -0.031710502 0.74300003 4280763991
-0.021356052 -0.031710502 0.74300003 4280763991
-0.020061744 -0.031710502 0.74300003 4280698198
-0.018792698 -0.031753179 0.74400002 4280501076
-0.017496651 -0.031753179 0.74400002 4282792006
-0.016200602 -0.031753179 0.74400002 4281607988
-0.014904552 -0.031753179 0.74400002 4283634202
-0.013608505 -0.031753179 0.74400002 4283897374
-0.012312457 -0.031753179 0.74400002 4284616973
-0.011016409 -0.031753179 0.74400002 4284616973
-0.0097203609 -0.031753179 0.74400002 4284944400
-0.0084243128 -0.031753179 0.74400002 4284944400
-0.0071282643 -0.031753179 0.74400002 4284944152
-0.0058322162 -0.031753179 0.74400002 4284812567
-0.0045483625 -0.031838536 0.74600005 4284746507
-0.0032488303 -0.031838536 0.74600005 4284943887
-0.0019492983 -0.031838536 0.74600005 4285342226
-0.00064976607 -0.031838536 0.74600005 4285605398
0.00064976607 -0.031838536 0.74600005 4285538086
0.0019492983 -0.031838536 0.74600005 4285274914
0.0032488303 -0.031838536 0.74600005 4285735717
0.0045483625 -0.031838536 0.74600005 4285669924
0.0058478951 -0.031838536 0.74600005 4286065684
0.0071474267 -0.031838536 0.74600005 4285999891
0.0084469598 -0.031838536 0.74600005 4286262286
0.009746491 -0.031838536 0.74600005 4286393872
0.011046024 -0.031838536 0.74600005 4286526737
0.012345555 -0.031838536 0.74600005 4286526737
0.013663379 -0.031881217 0.74700004 4286722305
0.015004719 -0.031966574 0.74900001 4286459136
0.016309476 -0.031966574 0.74900001 4286195487
0.017661268 -0.032051936 0.75100005 4285603349
0.018969512 -0.032051936 0.75100005 4285206825
0.020304754 -0.032094613 0.75200003 4285272618
0.02161474 -0.032094613 0.75200003 4285273118
0.022924723 -0.032094613 0.75200003 4285207324
0.024234707 -0.032094613 0.75200003 4285141531
0.02554469 -0.032094613 0.75200003 4285273118
0.026854673 -0.032094613 0.75200003 4285273624
0.028164661 -0.032094613 0.75200003 4285273624
0.029553032 -0.032179967 0.75400001 4285273118
0.0308665 -0.032179967 0.75400001 4285009945
0.032179967 -0.032179967 0.75400001 4284876840
0.033493433 -0.032179967 0.75400001 4286784837
0.034899231 -0.032265328 0.75600004 4285941362
0.036264088 -0.032308009 0.75700003 4289823148
0.037582785 -0.032308009 0.75700003 4287859309
0.038901478 -0.032308009 0.75700003 4283582764
0.040220171 -0.032308009 0.75700003 4281551951
0.041648615 -0.032393366 0.75900006 4281683537
0.042970791 -0.032393366 0.75900006 4281356134
0.044292971 -0.032393366 0.75900006 4281421928
0.045735344 -0.032478724 0.76100004 4281749092
0.047122847 -0.032521401 0.76200002 4281814885
0.048577417 -0.032606762 0.76400006 4281749344
0.049908306 -0.032606762 0.76400006 4280367691
0.051239192 -0.032606762 0.76400006 4278200128
0.052570082 -0.032606762 0.76400006 4283795875
0.053900972 -0.032606762 0.76400006 4291346647
0.055231862 -0.032606762 0.76400006 4294967295
-0.03777092 -0.030088698 0.73500001 4292725456
-0.036490548 -0.030088698 0.73500001 4291146168
-0.035258085 -0.030129636 0.73600006 4290293428
-0.033975974 -0.030129636 0.73600006 4286806399
-0.0327827 -0.030211508 0.73800004 4281880430
-0.031625144 -0.030334322 0.74100006 4279774797
-0.029121889 -0.030416194 0.74300003 4280896343
-0.027865034 -0.030457132 0.74400002 4280763741
-0.02664041 -0.030539008 0.74600005 4280895583
-0.025340877 -0.030539008 0.74600005 4281092445
-0.023976889 -0.030457132 0.74400002 4281026395
-0.022680841 -0.030457132 0.74400002 4280895833
-0.021384794 -0.030457132 0.74400002 4280763991
-0.020088745 -0.030457132 0.74400002 4280960343
-0.018792698 -0.030457132 0.74400002 4280960343
-0.017496651 -0.030457132 0.74400002 4282989900
-0.016200602 -0.030457132 0.74400002 4281805883
-0.014904552 -0.030457132 0.74400002 4283765800
-0.013608505 -0.030457132 0.74400002 4283765800
-0.012312457 -0.030457132 0.74400002 4284551179
-0.011016409 -0.030457132 0.74400002 4284682766
-0.0097203609 -0.030457132 0.74400002 4284944152
-0.0084243128 -0.030457132 0.74400002 4284944152
-0.0071282643 -0.030457132 0.74400002 4284879129
-0.0058478951 -0.030539008 0.74600005 4284813080
-0.0045483625 -0.030539008 0.74600005 4284813071
-0.0032488303 -0.030539008 0.74600005 4284813071
-0.0019519113 -0.030579941 0.74700004 4284945170
-0.00065063708 -0.030579941 0.74700004 4284813584
0.00065063708 -0.030579941 0.74700004 4285138451
0.0019519113 -0.030579941 0.74700004 4285796382
0.0032531854 -0.030579941 0.74700004 4285734688
0.0045544594 -0.030579941 0.74700004 4285734688
0.005855734 -0.030579941 0.74700004 4286521887
0.0071570072 -0.030579941 0.74700004 4286850852
0.0084582819 -0.030579941 0.74700004 4287112995
0.0097856857 -0.030661814 0.74900001 4286586651
0.011090443 -0.030661814 0.74900001 4286519570
0.012395202 -0.030661814 0.74900001 4285730311
0.01369996 -0.030661814 0.74900001 4286384389
0.015044784 -0.03074369 0.75100005 4286713611
0.016353028 -0.03074369 0.75100005 4286456607
0.017684786 -0.030784627 0.75200003 4285996056
0.018994769 -0.030784627 0.75200003 4285143578
0.020304754 -0.030784627 0.75200003 4285011992
0.02161474 -0.030784627 0.75200003 4285142815
0.022924723 -0.030784627 0.75200003 4285077022
0.024234707 -0.030784627 0.75200003 4285273624
0.02554469 -0.030784627 0.75200003 4285273624
0.026854673 -0.030784627 0.75200003 4285404953
0.028239565 -0.0308665 0.75400001 4285470746
0.029631423 -0.030948374 0.75600004 4285600299
0.030948374 -0.030948374 0.75600004 4284942370
0.032308009 -0.030989313 0.75700003 4284352772
0.033626702 -0.030989313 0.75700003 4288826439
0.036359899 -0.031071188 0.75900006 4287327110
0.037781373 -0.03115306 0.76100004 4285491052
0.039107032 -0.03115306 0.76100004 4282793539
0.040432695 -0.03115306 0.76100004 4281028183
0.041758355 -0.03115306 0.76100004 4281357147
0.043084022 -0.03115306 0.76100004 4281224281
0.044409681 -0.03115306 0.76100004 4281290074
0.045795444 -0.031193998 0.76200002 4281486939
0.047246531 -0.031275872 0.76400006 4281684061
0.048704583 -0.031357747 0.76600003 4281814885
0.050038952 -0.031357747 0.76600003 4279972681
0.051239192 -0.031275872 0.76400006 4278198586
0.052570082 -0.031275872 0.76400006 4284582819
0.053900972 -0.031275872 0.76400006 4291805397
0.055231862 -0.031275872 0.76400006 4294967295
-0.035258085 -0.028847525 0.73600006 4290228402
-0.033975974 -0.028847525 0.73600006 4286938752
-0.029161081 -0.029161081 0.74400002 4284248460
-0.027865034 -0.029161081 0.74400002 4284573786
-0.02667612 -0.029278668 0.74700004 4282336824
-0.025340877 -0.029239476 0.74600005 4281157986
-0.024041345 -0.029239476 0.74600005 4281092193
-0.022741813 -0.029239476 0.74600005 4280830040
-0.021442281 -0.029239476 0.74600005 4280830040
-0.020142749 -0.029239476 0.74600005 4281222747
-0.018843215 -0.029239476 0.74600005 4281222747
-0.017543685 -0.029239476 0.74600005 4282530635
-0.016244153 -0.029239476 0.74600005 4281609533
-0.014944619 -0.029239476 0.74600005 4283504692
-0.013645088 -0.029239476 0.74600005 4283438899
-0.012345555 -0.029239476 0.74600005 4284615698
-0.011046024 -0.029239476 0.74600005 4284681491
-0.009746491 -0.029239476 0.74600005 4284747027
-0.0084582819 -0.029278668 0.74700004 4284944150
-0.0071570072 -0.029278668 0.74700004 4284944152
-0.005855734 -0.029278668 0.74700004 4285009945
-0.0045544594 -0.029278668 0.74700004 4285010193
-0.0032706053 -0.029435448 0.75100005 4285010193
-0.0019571371 -0.029357059 0.74900001 4284944922
-0.00065237907 -0.029357059 0.74900001 4284813080
0.00065237907 -0.029357059 0.74900001 4285009432
0.0019571371 -0.029357059 0.74900001 4285469983
0.0032618954 -0.029357059 0.74900001 4285601051
0.0045788479 -0.029435448 0.75100005 4285601051
0.0058870898 -0.029435448 0.75100005 4285665560
0.0071953321 -0.029435448 0.75100005 4285402389
0.0085035739 -0.029435448 0.75100005 4285858843
0.0098118158 -0.029435448 0.75100005 4285793049
0.011120059 -0.029435448 0.75100005 4285859349
0.0124283 -0.029435448 0.75100005 4285859349
0.013736542 -0.029435448 0.75100005 4285792783
0.015044784 -0.029435448 0.75100005 4285924369
0.016374802 -0.029474642 0.75200003 4285533709
0.017731819 -0.029553032 0.75400001 4285533709
0.019045288 -0.029553032 0.75400001 4285207574
0.020358756 -0.029553032 0.75400001 4285273624
0.021672223 -0.029553032 0.75400001 4285273624
0.022985691 -0.029553032 0.75400001 4285273624
0.02429916 -0.029553032 0.75400001 4285273624
0.025612628 -0.029553032 0.75400001 4285273624
0.027033228 -0.029670618 0.75700003 4285206804
0.028351925 -0.029670618 0.75700003 4285206804
0.029670618 -0.029670618 0.75700003 4284942894
0.031071188 -0.02974901 0.75900006 4284153890
0.032393366 -0.02974901 0.75900006 4284157498
0.033804383 -0.029827399 0.76100004 4290341783
0.035130046 -0.029827399 0.76100004 4287330174
0.036455709 -0.029827399 0.76100004 4284632661
0.03783102 -0.029866593 0.76200002 4283126368
0.039158419 -0.029866593 0.76200002 4282534230
0.040485825 -0.029866593 0.76200002 4282142562
0.041813228 -0.029866593 0.76200002 4282537320
0.043140635 -0.029866593 0.76200002 4283192924
0.044468038 -0.029866593 0.76200002 4283653475
0.045915641 -0.029944982 0.76400006 4282931803
0.04737021 -0.030023374 0.76600003 4282405459
0.048704583 -0.030023374 0.76600003 4281554029
0.050038952 -0.030023374 0.76600003 4279382603
0.051373329 -0.030023374 0.76600003 4278200125
0.052707702 -0.030023374 0.76600003 4286227642
0.054042071 -0.030023374 0.76600003 4291806933
0.055376444 -0.030023374 0.76600003 4294967295
-0.030579941 -0.027977394 0.74700004 4283190877
