# .PCD v0.7 - Point Cloud Data file format
VERSION 0.7
FIELDS x y z rgba
SIZE 4 4 4 4
TYPE F F F U
COUNT 1 1 1 1
WIDTH 1020
HEIGHT 1
VIEWPOINT 0 0 0 1 0 0 0
POINTS 1020
DATA ascii
0.10021379 -0.029474642 0.75200003 4291013287
0.10152377 -0.029474642 0.75200003 4294961895
0.10283376 -0.029474642 0.75200003 4294967039
0.10414374 -0.029474642 0.75200003 4294967295
0.075324088 -0.028164661 0.75200003 4294967288
0.076634072 -0.028164661 0.75200003 4294965478
0.077944055 -0.028164661 0.75200003 4291671973
0.07999178 -0.02842683 0.75900006 4291407266
0.081099689 -0.028351925 0.75700003 4291341473
0.082418382 -0.028351925 0.75700003 4290684313
0.083626464 -0.028314473 0.75600004 4290552727
0.084943414 -0.028314473 0.75600004 4290421155
0.086260363 -0.028314473 0.75600004 4290157726
0.087345622 -0.028239565 0.75400001 4290222488
0.088659093 -0.028239565 0.75400001 4289827730
0.089972571 -0.028239565 0.75400001 4289958037
0.091286033 -0.028239565 0.75400001 4289892244
0.092599504 -0.028239565 0.75400001 4289630085
0.093663864 -0.028164661 0.75200003 4290156685
0.094973855 -0.028164661 0.75200003 4290222488
0.096283838 -0.028164661 0.75200003 4290748832
0.097593814 -0.028164661 0.75200003 4290749084
0.098903798 -0.028164661 0.75200003 4291341221
0.10048031 -0.028239565 0.75400001 4291276210
0.10179378 -0.028239565 0.75400001 4294963444
0.10310724 -0.028239565 0.75400001 4294967295
0.08131396 -0.027104653 0.75900006 4291275680
0.08263614 -0.027104653 0.75900006 4290881437
0.083958313 -0.027104653 0.75900006 4290947230
0.085055776 -0.027033228 0.75700003 4290158500
0.086374469 -0.027033228 0.75700003 4290026658
0.087693162 -0.027033228 0.75700003 4289894557
0.088659093 -0.026926095 0.75400001 4289697177
0.089972571 -0.026926095 0.75400001 4289827480
0.091286033 -0.026926095 0.75400001 4289959322
0.092599504 -0.026926095 0.75400001 4289697175
0.093912967 -0.026926095 0.75400001 4289960604
0.095226437 -0.026926095 0.75400001 4290157476
0.0965399 -0.026926095 0.75400001 4290815663
0.09785337 -0.026926095 0.75400001 4290880924
0.09916684 -0.026926095 0.75400001 4291473061
0.10074684 -0.02699752 0.75600004 4291539901
0.10206379 -0.02699752 0.75600004 4294964991
0.10338075 -0.02699752 0.75600004 4294967295
0.074811943 -0.026767576 0.78800005 4294963683
0.076184638 -0.026767576 0.78800005 4294963941
0.081635356 -0.025884381 0.76200002 4291079069
0.082962759 -0.025884381 0.76200002 4290816412
0.084179543 -0.025850412 0.76100004 4290684826
0.085280493 -0.025782473 0.75900006 4290157978
0.086374469 -0.025714535 0.75700003 4290157978
0.087693162 -0.025714535 0.75700003 4289895061
0.08889427 -0.025680566 0.75600004 4289697681
0.09021122 -0.025680566 0.75600004 4289631119
0.091528177 -0.025680566 0.75600004 4289697168
0.092845127 -0.025680566 0.75600004 4289566872
0.094162084 -0.025680566 0.75600004 4290027423
0.095479026 -0.025680566 0.75600004 4290355614
0.096795984 -0.025680566 0.75600004 4290881958
0.098112933 -0.025680566 0.75600004 4290816161
0.099429891 -0.025680566 0.75600004 4291210918
0.1008801 -0.025714535 0.75700003 4291738048
0.072249457 -0.025459332 0.79000002 4294894797
0.07343924 -0.025394879 0.78800005 4294962646
0.074811943 -0.025394879 0.78800005 4294963168
0.076184638 -0.025394879 0.78800005 4294963168
0.077557333 -0.025394879 0.78800005 4294963677
0.078829862 -0.025362652 0.78700006 4294961878
0.08339826 -0.024685884 0.76600003 4290684565
0.084290162 -0.024556976 0.76200002 4290486929
0.08550521 -0.02452475 0.76100004 4290223775
0.086602673 -0.024460297 0.75900006 4290157726
0.087924846 -0.024460297 0.75900006 4290222740
0.089011855 -0.024395842 0.75700003 4290222740
0.090330549 -0.024395842 0.75700003 4289895059
0.091649242 -0.024395842 0.75700003 4289895059
0.092967942 -0.024395842 0.75700003 4289895070
0.094286636 -0.024395842 0.75700003 4290289828
0.095605329 -0.024395842 0.75700003 4290683291
0.096924022 -0.024395842 0.75700003 4291143842
0.098242715 -0.024395842 0.75700003 4290947233
0.099824451 -0.024460297 0.75900006 4292460472
0.10114663 -0.024460297 0.75900006 4292988372
0.070693851 -0.024022182 0.78800005 4293779160
0.072066553 -0.024022182 0.78800005 4294499789
0.07343924 -0.024022182 0.78800005 4294961882
0.074811943 -0.024022182 0.78800005 4294962655
0.076087959 -0.023991698 0.78700006 4294963168
0.077458911 -0.023991698 0.78700006 4294962402
0.078629531 -0.023930727 0.78500003 4294961373
0.082171015 -0.023381997 0.76700002 4291341725
0.08339826 -0.023351513 0.76600003 4290946715
0.084511399 -0.023290543 0.76400006 4290552213
0.08550521 -0.023199089 0.76100004 4290486418
0.086830869 -0.023199089 0.76100004 4290222990
0.087924846 -0.023138119 0.75900006 4290091663
0.089011855 -0.023077147 0.75700003 4290091663
0.090330549 -0.023077147 0.75700003 4289895313
0.091891386 -0.023138119 0.75900006 4289895313
0.093213566 -0.023138119 0.75900006 4289829531
0.094535738 -0.023138119 0.75900006 4290158752
0.095857918 -0.023138119 0.75900006 4290552473
0.097180091 -0.023138119 0.75900006 4291144610
0.098502278 -0.023138119 0.75900006 4291078830
0.099824451 -0.023138119 0.75900006 4293381585
0.10141315 -0.023199089 0.76100004 4293712349
0.069497094 -0.022706972 0.79000002 4294961110
0.070693851 -0.022649487 0.78800005 4294368973
0.072066553 -0.022649487 0.78800005 4294632670
0.07343924 -0.022649487 0.78800005 4294962406
0.074717 -0.022620745 0.78700006 4294962137
0.076087959 -0.022620745 0.78700006 4294961365
0.077458911 -0.022620745 0.78700006 4294961626
0.078629531 -0.022563256 0.78500003 4294763477
0.079589374 -0.022448285 0.78100002 4294433996
0.080834903 -0.022045882 0.76700002 4292065196
0.082171015 -0.022045882 0.76700002 4291341473
0.083507128 -0.022045882 0.76700002 4291012513
0.084732629 -0.022017142 0.76600003 4290486168
0.085842289 -0.021959655 0.76400006 4290288776
0.086830869 -0.021873426 0.76100004 4289894018
0.088156536 -0.021873426 0.76100004 4289696132
0.089247033 -0.021815941 0.75900006 4289696132
0.090569206 -0.021815941 0.75900006 4289631119
0.091891386 -0.021815941 0.75900006 4289960083
0.093213566 -0.021815941 0.75900006 4289829781
0.094535738 -0.021815941 0.75900006 4290093209
0.095857918 -0.021815941 0.75900006 4290486164
0.097436167 -0.021873426 0.76100004 4291604645
0.098761834 -0.021873426 0.76100004 4291539901
0.10008749 -0.021873426 0.76100004 4294237414
0.068120912 -0.021330791 0.79000002 4293781992
0.069497094 -0.021330791 0.79000002 4294826953
0.070693851 -0.021276791 0.78800005 4294959052
0.072066553 -0.021276791 0.78800005 4294763738
0.073346049 -0.02124979 0.78700006 4294962145
0.074717 -0.02124979 0.78700006 4294962136
0.075894594 -0.021195788 0.78500003 4294961365
0.077262059 -0.021195788 0.78500003 4294829533
0.078429207 -0.021141784 0.78300005 4294763740
0.079589374 -0.021087782 0.78100002 4294303189
0.080846235 -0.021060782 0.78000003 4292263863
0.082385287 -0.020763772 0.76900005 4290814097
0.083507128 -0.020709768 0.76700002 4290945686
0.084732629 -0.020682767 0.76600003 4290353292
0.085842289 -0.020628767 0.76400006 4290156170
0.086944975 -0.020574765 0.76200002 4290156170
0.088156536 -0.020547764 0.76100004 4289827973
0.089482196 -0.020547764 0.76100004 4289762179
0.090807855 -0.020547764 0.76100004 4289761676
0.092133522 -0.020547764 0.76100004 4290156433
0.093459181 -0.020547764 0.76100004 4289829531
0.094784841 -0.020547764 0.76100004 4290092703
0.096110508 -0.020547764 0.76100004 4290290066
0.097436167 -0.020547764 0.76100004 4291408804
0.098761834 -0.020547764 0.76100004 4291671229
0.10048205 -0.020628767 0.76400006 4294697963
0.10638918 -0.021006782 0.77800006 4294967295
0.10802143 -0.021060782 0.78000003 4294967293
0.10938019 -0.021060782 0.78000003 4294967287
0.11073896 -0.021060782 0.78000003 4294966003
0.11209772 -0.021060782 0.78000003 4294965745
0.068120912 -0.019954611 0.79000002 4293188819
0.069497094 -0.019954611 0.79000002 4294038977
0.070693851 -0.019904094 0.78800005 4294565321
0.071975097 -0.019878836 0.78700006 4294697683
0.073346049 -0.019878836 0.78700006 4294961626
0.074527122 -0.019828318 0.78500003 4294961360
0.075701229 -0.019777799 0.78300005 4294961360
0.077065215 -0.019777799 0.78300005 4294763479
0.078228869 -0.01972728 0.78100002 4293184190
0.079487465 -0.019702023 0.78000003 4292724162
0.080638938 -0.019651504 0.77800006 4291803060
0.082385287 -0.019424174 0.76900005 4289763722
0.083507128 -0.019373653 0.76700002 4289501055
0.084732629 -0.019348396 0.76600003 4289237882
0.086066999 -0.019348396 0.76600003 4289631886
0.087173179 -0.019297879 0.76400006 4289763472
0.08827237 -0.019247361 0.76200002 4290024580
0.089599781 -0.019247361 0.76200002 4289892993
0.090927184 -0.019247361 0.76200002 4289827734
0.092254587 -0.019247361 0.76200002 4290025113
0.093827613 -0.019297879 0.76400006 4289698451
0.095407605 -0.019348396 0.76600003 4290027160
0.096741982 -0.019348396 0.76600003 4289895824
0.098076351 -0.019348396 0.76600003 4291080354
0.099540502 -0.019373653 0.76700002 4291672764
0.10638918 -0.019651504 0.77800006 4294967289
0.10774446 -0.019651504 0.77800006 4294967286
0.10938019 -0.019702023 0.78000003 4294967027
0.11073896 -0.019702023 0.78000003 4294965998
0.11209772 -0.019702023 0.78000003 4294965745
0.11345647 -0.019702023 0.78000003 4294966772
0.068120912 -0.018578431 0.79000002 4292859343
0.069497094 -0.018578431 0.79000002 4293775548
0.070693851 -0.018531399 0.78800005 4294433478
0.071975097 -0.018507883 0.78700006 4294696400
0.07315965 -0.018460847 0.78500003 4294960343
0.074337251 -0.018413812 0.78300005 4294960856
0.075507864 -0.018366778 0.78100002 4294960086
0.076868363 -0.018366778 0.78100002 4293908168
0.07812871 -0.018343262 0.78000003 4292263342
0.079487465 -0.018343262 0.78000003 4292000423
0.080638938 -0.018296229 0.77800006 4291671458
0.081783421 -0.018249193 0.77600002 4291803810
0.082385287 -0.018084574 0.76900005 4290422157
0.083724886 -0.018084574 0.76900005 4289566872
0.085064486 -0.018084574 0.76900005 4288777613
0.086404078 -0.018084574 0.76900005 4288513406
0.087743677 -0.018084574 0.76900005 4288908163
0.088851586 -0.018037539 0.76700002 4289564033
0.090070121 -0.018014025 0.76600003 4289629826
0.09140449 -0.018014025 0.76600003 4289695367
0.092738867 -0.018014025 0.76600003 4289695367
0.094073236 -0.018014025 0.76600003 4289499782
0.095407605 -0.018014025 0.76600003 4289960333
0.096868277 -0.018037539 0.76700002 4289370765
0.098204389 -0.018037539 0.76700002 4291081127
0.099800065 -0.018084574 0.76900005 4292330178
0.10166574 -0.018178644 0.77300006 4294962412
0.10314557 -0.01820216 0.77400005 4294963436
0.10449389 -0.01820216 0.77400005 4294967034
0.10611568 -0.018249193 0.77600002 4294967292
0.10774446 -0.018296229 0.77800006 4294967292
0.10938019 -0.018343262 0.78000003 4294967287
0.11073896 -0.018343262 0.78000003 4294966001
0.11209772 -0.018343262 0.78000003 4294965231
0.11345647 -0.018343262 0.78000003 4294966002
0.11481524 -0.018343262 0.78000003 4294967295
0.066744737 -0.017202251 0.79000002 4294965221
0.068120912 -0.017202251 0.79000002 4293251006
0.069321156 -0.017158702 0.78800005 4293710275
0.070693851 -0.017158702 0.78800005 4294236619
0.071975097 -0.017136928 0.78700006 4294565071
0.07315965 -0.017093375 0.78500003 4294960086
0.074337251 -0.017049827 0.78300005 4294762712
0.075507864 -0.017006276 0.78100002 4293249472
0.076868363 -0.017006276 0.78100002 4293118123
0.07812871 -0.016984502 0.78000003 4292262814
0.079487465 -0.016984502 0.78000003 4291605663
0.080638938 -0.016940951 0.77800006 4291934628
0.081994213 -0.016940951 0.77800006 4292591776
0.082920954 -0.016853852 0.77400005 4293184170
0.084269263 -0.016853852 0.77400005 4291738822
0.085285716 -0.016788527 0.77100003 4289962412
0.086628802 -0.016788527 0.77100003 4288382612
0.087743677 -0.016744979 0.76900005 4287461510
0.089083277 -0.016744979 0.76900005 4287658601
0.090187706 -0.016701426 0.76700002 4287658601
0.091523819 -0.016701426 0.76700002 4287921009
0.092859931 -0.016701426 0.76700002 4288118131
0.094196044 -0.016701426 0.76700002 4288841587
0.095532157 -0.016701426 0.76700002 4290223240
0.096868277 -0.016701426 0.76700002 4290420916
0.098204389 -0.016701426 0.76700002 4293710566
0.10031918 -0.016832076 0.77300006 4293910244
0.10179727 -0.016853852 0.77400005 4294964730
0.10314557 -0.016853852 0.77400005 4294964210
0.1047639 -0.016897403 0.77600002 4294966779
0.10611568 -0.016897403 0.77600002 4294967292
0.10774446 -0.016940951 0.77800006 4294967292
0.10938019 -0.016984502 0.78000003 4294967023
0.11045501 -0.016940951 0.77800006 4294965481
0.11181029 -0.016940951 0.77800006 4294964210
0.11345647 -0.016984502 0.78000003 4294963696
0.11496242 -0.017006276 0.78100002 4294965234
0.11632293 -0.017006276 0.78100002 4294967294
0.066744737 -0.015826071 0.79000002 4294962402
0.067948461 -0.015786005 0.78800005 4293381572
0.069321156 -0.015786005 0.78800005 4293643969
0.070604138 -0.015765974 0.78700006 4294367435
0.071792185 -0.015725907 0.78500003 4294432715
0.072973259 -0.015685841 0.78300005 4294761680
0.074147366 -0.015645776 0.78100002 4294434514
0.075411186 -0.015625741 0.78000003 4293447619
0.076769948 -0.015625741 0.78000003 4293053376
0.07812871 -0.015625741 0.78000003 4292066225
0.079487465 -0.015625741 0.78000003 4291801233
0.080638938 -0.015585676 0.77800006 4292788128
0.081994213 -0.015585676 0.77800006 4292920258
0.083135217 -0.015545608 0.77600002 4293117380
0.084269263 -0.015505545 0.77400005 4292922308
0.085506953 -0.015485511 0.77300006 4291540655
0.086853519 -0.015485511 0.77300006 4290290581
0.087971881 -0.015445444 0.77100003 4287527276
0.089314967 -0.015445444 0.77100003 4287788135
0.090422876 -0.015405378 0.76900005 4287722342
0.091762476 -0.015405378 0.76900005 4287395417
0.093102075 -0.015405378 0.76900005 4288118883
0.094196044 -0.015365313 0.76700002 4289038691
0.095532157 -0.015365313 0.76700002 4290551930
0.097373456 -0.015445444 0.77100003 4292523946
0.098972619 -0.015485511 0.77300006 4294959057
0.10031918 -0.015485511 0.77300006 4294962668
0.10179727 -0.015505545 0.77400005 4294964724
0.10314557 -0.015505545 0.77400005 4294963951
0.1047639 -0.015545608 0.77600002 4294966521
0.10611568 -0.015545608 0.77600002 4294967031
0.10774446 -0.015585676 0.77800006 4294966518
0.10909973 -0.015585676 0.77800006 4294966000
0.11045501 -0.015585676 0.77800006 4294964201
0.11181029 -0.015585676 0.77800006 4294963436
0.11345647 -0.015625741 0.78000003 4294766057
0.11481524 -0.015625741 0.78000003 4294964206
0.11617399 -0.015625741 0.78000003 4294967294
0.11753275 -0.015625741 0.78000003 4294967295
0.066744737 -0.014449891 0.79000002 4294763738
0.067948461 -0.014413309 0.78800005 4293053376
0.069233187 -0.014395018 0.78700006 4293577924
0.070604138 -0.014395018 0.78700006 4294104268
0.071792185 -0.014358437 0.78500003 4294432195
0.072973259 -0.014321854 0.78300005 4294497988
0.074147366 -0.014285273 0.78100002 4294565067
0.075411186 -0.014266982 0.78000003 4294960082
0.076769948 -0.014266982 0.78000003 4294368982
0.07812871 -0.014266982 0.78000003 4293513673
0.079283662 -0.0142304 0.77800006 4293841089
0.080638938 -0.0142304 0.77800006 4294367433
0.081994213 -0.0142304 0.77800006 4293251801
0.083135217 -0.014193818 0.77600002 4292067270
0.084269263 -0.014157237 0.77400005 4292396212
0.085617565 -0.014157237 0.77400005 4293383107
0.086965881 -0.014157237 0.77400005 4292592825
0.088200085 -0.014138945 0.77300006 4292000432
0.089314967 -0.014102362 0.77100003 4291474608
0.090658046 -0.014102362 0.77100003 4290948264
0.092001125 -0.014102362 0.77100003 4291802267
0.093344212 -0.014102362 0.77100003 4292262818
0.09468729 -0.014102362 0.77100003 4292789675
0.096030377 -0.014102362 0.77100003 4293973693
0.097626045 -0.014138945 0.77300006 4293711831
0.098972619 -0.014138945 0.77300006 4294962412
0.10031918 -0.014138945 0.77300006 4294897643
0.10179727 -0.014157237 0.77400005 4294965493
0.10314557 -0.014157237 0.77400005 4294965747
0.10449389 -0.014157237 0.77400005 4294966518
0.10611568 -0.014193818 0.77600002 4294966257
0.10746747 -0.014193818 0.77600002 4294965228
0.10909973 -0.0142304 0.77800006 4294964717
0.11045501 -0.0142304 0.77800006 4294963432
0.11181029 -0.0142304 0.77800006 4294765803
0.11316556 -0.0142304 0.77800006 4294568423
0.11481524 -0.014266982 0.78000003 4294700014
0.11617399 -0.014266982 0.78000003 4294967295
0.11753275 -0.014266982 0.78000003 4294967295
0.066744737 -0.013073711 0.79000002 4294303961
0.067948461 -0.013040613 0.78800005 4292922308
0.069233187 -0.013024065 0.78700006 4293642943
0.070604138 -0.013024065 0.78700006 4293840578
0.071609274 -0.012957868 0.78300005 4294168257
0.072973259 -0.012957868 0.78300005 4294365637
0.074147366 -0.012924771 0.78100002 4294366920
0.075411186 -0.012908221 0.78000003 4294959313
0.076769948 -0.012908221 0.78000003 4294894561
0.077928379 -0.012875124 0.77800006 4294302424
0.079283662 -0.012875124 0.77800006 4294563531
0.080638938 -0.012875124 0.77800006 4294563531
0.081994213 -0.012875124 0.77800006 4292923866
0.082920954 -0.012808928 0.77400005 4291279042
0.084269263 -0.012808928 0.77400005 4292067231
0.085617565 -0.012808928 0.77400005 4293514677
0.086965881 -0.012808928 0.77400005 4293841343
0.088314183 -0.012808928 0.77400005 4293446585
0.089546651 -0.012792379 0.77300006 4293183425
0.090893224 -0.012792379 0.77300006 4293051839
0.092239782 -0.012792379 0.77300006 4293182380
0.093586348 -0.012792379 0.77300006 4293577138
0.094932921 -0.012792379 0.77300006 4293710275
0.09627948 -0.012792379 0.77300006 4294105033
0.097626045 -0.012792379 0.77300006 4294566616
0.098972619 -0.012792379 0.77300006 4294961631
0.10031918 -0.012792379 0.77300006 4294896871
0.10179727 -0.012808928 0.77400005 4294964976
0.10314557 -0.012808928 0.77400005 4294965233
0.10449389 -0.012808928 0.77400005 4294966005
0.10584219 -0.012808928 0.77400005 4294966261
0.10746747 -0.012842026 0.77600002 4294964719
0.10881927 -0.012842026 0.77600002 4294964201
0.11045501 -0.012875124 0.77800006 4294962916
0.11181029 -0.012875124 0.77800006 4294962407
0.11316556 -0.012875124 0.77800006 4294698978
0.11452084 -0.012875124 0.77800006 4294764512
0.11587612 -0.012875124 0.77800006 4294967290
0.11723139 -0.012875124 0.77800006 4294967295
0.11858667 -0.012875124 0.77800006 4294967295
0.066744737 -0.011697531 0.79000002 4294105826
0.067948461 -0.011667917 0.78800005 4292921552
0.069233187 -0.01165311 0.78700006 4293182912
0.070604138 -0.01165311 0.78700006 4293380290
0.071609274 -0.011593882 0.78300005 4293511877
0.07278686 -0.011564268 0.78100002 4294038221
0.074052431 -0.011549461 0.78000003 4294235588
0.075411186 -0.011549461 0.78000003 4294827725
0.076769948 -0.011549461 0.78000003 4294761941
0.077928379 -0.011519847 0.77800006 4293972426
0.079283662 -0.011519847 0.77800006 4293183690
0.080431633 -0.011490233 0.77600002 4293315277
0.081783421 -0.011490233 0.77600002 4292988624
0.082920954 -0.01146062 0.77400005 4291606971
0.084269263 -0.01146062 0.77400005 4292130987
0.085617565 -0.01146062 0.77400005 4294499535
0.086965881 -0.01146062 0.77400005 4294894543
0.088200085 -0.011445812 0.77300006 4294962648
0.089546651 -0.011445812 0.77300006 4294963689
0.090893224 -0.011445812 0.77300006 4294964459
0.092239782 -0.011445812 0.77300006 4294964453
0.093586348 -0.011445812 0.77300006 4294966509
0.094932921 -0.011445812 0.77300006 4294967295
0.09627948 -0.011445812 0.77300006 4294967295
0.097626045 -0.011445812 0.77300006 4294967034
0.098972619 -0.011445812 0.77300006 4294966520
0.10031918 -0.011445812 0.77300006 4294966261
0.10179727 -0.01146062 0.77400005 4294967031
0.10314557 -0.01146062 0.77400005 4294966257
0.10449389 -0.01146062 0.77400005 4294965742
0.10584219 -0.01146062 0.77400005 4294964978
0.1071905 -0.01146062 0.77400005 4294963694
0.10881927 -0.011490233 0.77600002 4294962910
0.11017106 -0.011490233 0.77600002 4294633174
0.11181029 -0.011519847 0.77800006 4294763992
0.11316556 -0.011519847 0.77800006 4294500820
0.11452084 -0.011519847 0.77800006 4294632407
0.11587612 -0.011519847 0.77800006 4294967285
0.11723139 -0.011519847 0.77800006 4294967295
0.11858667 -0.011519847 0.77800006 4294967295
0.065368555 -0.010321351 0.79000002 4294571254
0.066744737 -0.010321351 0.79000002 4293843156
0.067948461 -0.010295222 0.78800005 4292461503
0.069233187 -0.010282157 0.78700006 4293182132
0.070424713 -0.010256026 0.78500003 4293445048
0.071609274 -0.010229897 0.78300005 4293314493
0.07278686 -0.010203766 0.78100002 4293577922
0.074052431 -0.010190701 0.78000003 4293906371
0.075411186 -0.010190701 0.78000003 4294564045
0.076573104 -0.010164572 0.77800006 4294434775
0.077928379 -0.010164572 0.77800006 4293645260
0.079079837 -0.010138441 0.77600002 4292329915
0.080431633 -0.010138441 0.77600002 4292922308
0.081572644 -0.010112311 0.77400005 4293449425
0.082920954 -0.010112311 0.77400005 4292199614
0.084269263 -0.010112311 0.77400005 4292850603
0.085617565 -0.010112311 0.77400005 4294890186
0.086853519 -0.010099247 0.77300006 4294960088
0.088200085 -0.010099247 0.77300006 4294964200
0.089546651 -0.010099247 0.77300006 4294964979
0.090893224 -0.010099247 0.77300006 4294965751
0.092239782 -0.010099247 0.77300006 4294965999
0.093586348 -0.010099247 0.77300006 4294966513
0.094932921 -0.010099247 0.77300006 4294966775
0.09627948 -0.010099247 0.77300006 4294967291
0.097626045 -0.010099247 0.77300006 4294967292
0.098972619 -0.010099247 0.77300006 4294967290
0.10031918 -0.010099247 0.77300006 4294966777
0.10166574 -0.010099247 0.77300006 4294966777
0.10301232 -0.010099247 0.77300006 4294966774
0.10449389 -0.010112311 0.77400005 4294964461
0.10584219 -0.010112311 0.77400005 4294964209
0.1071905 -0.010112311 0.77400005 4294832365
0.10881927 -0.010138441 0.77600002 4294831330
0.11017106 -0.010138441 0.77600002 4294041814
0.11181029 -0.010164572 0.77800006 4294171856
0.11316556 -0.010164572 0.77800006 4293908683
0.11452084 -0.010164572 0.77800006 4294303187
0.11587612 -0.010164572 0.77800006 4294967290
0.11723139 -0.010164572 0.77800006 4294967295
0.11858667 -0.010164572 0.77800006 4294967295
0.066744737 -0.0089451708 0.79000002 4293381583
0.067862235 -0.0089112027 0.78700006 4292263359
0.069057241 -0.0088885557 0.78500003 4293116339
0.070424713 -0.0088885557 0.78500003 4293445048
0.071609274 -0.0088659106 0.78300005 4293511095
0.07278686 -0.0088432636 0.78100002 4293642681
0.074052431 -0.0088319406 0.78000003 4293840580
0.075411186 -0.0088319406 0.78000003 4293972166
0.076573104 -0.0088092946 0.77800006 4294170833
0.077928379 -0.0088092946 0.77800006 4294434262
0.078876026 -0.0087640025 0.77400005 4293777867
0.080224335 -0.0087640025 0.77400005 4293448902
0.081572644 -0.0087640025 0.77400005 4293777615
0.082920954 -0.0087640025 0.77400005 4294369752
0.084160388 -0.0087526804 0.77300006 4293908949
0.085506953 -0.0087526804 0.77300006 4293579984
0.086853519 -0.0087526804 0.77300006 4294696137
0.088200085 -0.0087526804 0.77300006 4294965734
0.089314967 -0.0087300343 0.77100003 4294966012
0.090658046 -0.0087300343 0.77100003 4294967295
0.092001125 -0.0087300343 0.77100003 4294967285
0.093344212 -0.0087300343 0.77100003 4294967285
0.094932921 -0.0087526804 0.77300006 4294967290
0.09627948 -0.0087526804 0.77300006 4294967293
0.097626045 -0.0087526804 0.77300006 4294967295
0.098972619 -0.0087526804 0.77300006 4294967295
0.10031918 -0.0087526804 0.77300006 4294966779
0.10166574 -0.0087526804 0.77300006 4294967036
0.10301232 -0.0087526804 0.77300006 4294966514
0.10449389 -0.0087640025 0.77400005 4294964458
0.10584219 -0.0087640025 0.77400005 4294964209
0.1071905 -0.0087640025 0.77400005 4294371814
0.10853881 -0.0087640025 0.77400005 4294304474
0.11017106 -0.0087866485 0.77600002 4293975510
0.11152285 -0.0087866485 0.77600002 4294106328
0.11287465 -0.0087866485 0.77600002 4293777363
0.11422643 -0.0087866485 0.77600002 4294172119
0.11557822 -0.0087866485 0.77600002 4294967295
0.11693002 -0.0087866485 0.77600002 4294967295
0.11828181 -0.0087866485 0.77600002 4294967295
0.066744737 -0.0075689908 0.79000002 4293578185
0.067862235 -0.0075402479 0.78700006 4292328118
0.069057241 -0.0075210854 0.78500003 4292917679
0.070424713 -0.0075210854 0.78500003 4293246644
0.071609274 -0.0075019244 0.78300005 4293246640
0.07278686 -0.007482762 0.78100002 4293378482
0.074052431 -0.0074731805 0.78000003 4293575605
0.075411186 -0.0074731805 0.78000003 4293707191
0.076573104 -0.007454019 0.77800006 4293775298
0.077728048 -0.0074348566 0.77600002 4294367435
0.078876026 -0.0074156951 0.77400005 4294172369
0.080224335 -0.0074156951 0.77400005 4293777867
0.081572644 -0.0074156951 0.77400005 4293908683
0.082920954 -0.0074156951 0.77400005 4294106063
0.084160388 -0.0074061137 0.77300006 4293909978
0.085506953 -0.0074061137 0.77300006 4293120462
0.086853519 -0.0074061137 0.77300006 4293708477
0.088200085 -0.0074061137 0.77300006 4294961114
0.089314967 -0.0073869512 0.77100003 4294964975
0.090658046 -0.0073869512 0.77100003 4294967031
0.092001125 -0.0073869512 0.77100003 4294966518
0.093344212 -0.0073869512 0.77100003 4294967291
0.09468729 -0.0073869512 0.77100003 4294967294
0.09627948 -0.0074061137 0.77300006 4294967293
0.097626045 -0.0074061137 0.77300006 4294967293
0.098972619 -0.0074061137 0.77300006 4294967294
0.10031918 -0.0074061137 0.77300006 4294966519
0.10166574 -0.0074061137 0.77300006 4294965749
0.10301232 -0.0074061137 0.77300006 4294965489
0.10449389 -0.0074156951 0.77400005 4294964719
0.10584219 -0.0074156951 0.77400005 4294897645
0.1071905 -0.0074156951 0.77400005 4294305252
0.10853881 -0.0074156951 0.77400005 4294172121
0.11017106 -0.0074348566 0.77600002 4294106328
0.11152285 -0.0074348566 0.77600002 4293909203
0.11287465 -0.0074348566 0.77600002 4293579982
0.11422643 -0.0074348566 0.77600002 4294303707
0.11528035 -0.0074156951 0.77400005 4294967295
0.11662865 -0.0074156951 0.77400005 4294967295
0.11797697 -0.0074156951 0.77400005 4294967295
0.066744737 -0.0061928104 0.79000002 4293315531
0.067948461 -0.0061771329 0.78800005 4292065464
0.069233187 -0.006169294 0.78700006 4292656051
0.070424713 -0.0061536157 0.78500003 4292853431
0.071609274 -0.0061379378 0.78300005 4292919478
0.07278686 -0.0061222594 0.78100002 4292853429
0.074052431 -0.0061144209 0.78000003 4293116074
0.075411186 -0.0061144209 0.78000003 4293445039
0.076573104 -0.0060987426 0.77800006 4293446583
0.077728048 -0.0060830647 0.77600002 4293644219
0.078876026 -0.0060673868 0.77400005 4293579716
0.080224335 -0.0060673868 0.77400005 4293645766
0.081572644 -0.0060673868 0.77400005 4293119679
0.082920954 -0.0060673868 0.77400005 4292264626
0.084160388 -0.0060595479 0.77300006 4291870649
0.085506953 -0.0060595479 0.77300006 4291410099
0.086853519 -0.0060595479 0.77300006 4291605163
0.088200085 -0.0060595479 0.77300006 4292460472
0.089546651 -0.0060595479 0.77300006 4294038473
0.090893224 -0.0060595479 0.77300006 4294963944
0.092001125 -0.0060438695 0.77100003 4294964203
0.093344212 -0.0060438695 0.77100003 4294962918
0.09468729 -0.0060438695 0.77100003 4294963945
0.096030377 -0.0060438695 0.77100003 4294964202
0.097626045 -0.0060595479 0.77300006 4294963432
0.098972619 -0.0060595479 0.77300006 4294963432
0.10031918 -0.0060595479 0.77300006 4294962407
0.10166574 -0.0060595479 0.77300006 4294764771
0.10301232 -0.0060595479 0.77300006 4294502369
0.10435888 -0.0060595479 0.77300006 4294239198
0.10584219 -0.0060673868 0.77400005 4294237914
0.1071905 -0.0060673868 0.77400005 4293777363
0.10853881 -0.0060673868 0.77400005 4293710807
0.11017106 -0.0060830647 0.77600002 4293645014
0.11152285 -0.0060830647 0.77600002 4293382607
0.11287465 -0.0060830647 0.77600002 4293448400
0.11422643 -0.0060830647 0.77600002 4294239459
0.11528035 -0.0060673868 0.77400005 4294967295
0.11662865 -0.0060673868 0.77400005 4294967295
0.11797697 -0.0060673868 0.77400005 4294967295
0.067948461 -0.0048044366 0.78800005 4292328633
0.069233187 -0.0047983397 0.78700006 4292525233
0.070424713 -0.0047861454 0.78500003 4292591027
0.071609274 -0.0047739516 0.78300005 4292590775
0.07278686 -0.0047617573 0.78100002 4292656568
0.074052431 -0.0047556604 0.78000003 4292591540
0.075411186 -0.0047556604 0.78000003 4293052091
0.076573104 -0.0047434666 0.77800006 4292790457
0.077728048 -0.0047312723 0.77600002 4293251008
0.078876026 -0.0047190785 0.77400005 4293251267
0.080224335 -0.0047190785 0.77400005 4293383109
0.081467256 -0.0047129816 0.77300006 4292922817
0.082813822 -0.0047129816 0.77300006 4291278249
0.084160388 -0.0047129816 0.77300006 4291146157
0.085506953 -0.0047129816 0.77300006 4291672757
0.086853519 -0.0047129816 0.77300006 4291410082
0.087971881 -0.0047007874 0.77100003 4291410082
0.089314967 -0.0047007874 0.77100003 4292459175
0.090658046 -0.0047007874 0.77100003 4294961364
0.092001125 -0.0047007874 0.77100003 4294961892
0.093344212 -0.0047007874 0.77100003 4294830305
0.09468729 -0.0047007874 0.77100003 4294961377
0.096030377 -0.0047007874 0.77100003 4294961377
0.097373456 -0.0047007874 0.77100003 4294830303
0.098972619 -0.0047129816 0.77300006 4294764510
0.10031918 -0.0047129816 0.77300006 4294633185
0.10166574 -0.0047129816 0.77300006 4294501856
0.10301232 -0.0047129816 0.77300006 4294173920
0.10435888 -0.0047129816 0.77300006 4294107870
0.10584219 -0.0047190785 0.77400005 4293778395
0.1071905 -0.0047190785 0.77400005 4293646808
0.10853881 -0.0047190785 0.77400005 4293448398
0.11017106 -0.0047312723 0.77600002 4293448398
0.11152285 -0.0047312723 0.77600002 4293447880
0.11287465 -0.0047312723 0.77600002 4293513673
0.11422643 -0.0047312723 0.77600002 4294437094
0.11528035 -0.0047190785 0.77400005 4294967295
0.11662865 -0.0047190785 0.77400005 4294967295
0.11797697 -0.0047190785 0.77400005 4294967295
0.068120912 -0.0034404502 0.79000002 4292591806
0.069233187 -0.0034273856 0.78700006 4292591286
0.070424713 -0.0034186754 0.78500003 4292262577
0.071792185 -0.0034186754 0.78500003 4292130489
0.07278686 -0.0034012555 0.78100002 4292064440
0.074052431 -0.0033969004 0.78000003 4292196530
0.075411186 -0.0033969004 0.78000003 4292262323
0.076573104 -0.0033881904 0.77800006 4292393897
0.077728048 -0.0033794802 0.77600002 4292591277
0.078876026 -0.0033707705 0.77400005 4292722613
0.080224335 -0.0033707705 0.77400005 4293117371
0.081467256 -0.0033664154 0.77300006 4292855228
0.082813822 -0.0033664154 0.77300006 4292065712
0.084160388 -0.0033664154 0.77300006 4292460733
0.085506953 -0.0033664154 0.77300006 4293842386
0.086853519 -0.0033664154 0.77300006 4293053372
0.087971881 -0.0033577052 0.77100003 4292658870
0.089314967 -0.0033577052 0.77100003 4292854726
0.090658046 -0.0033577052 0.77100003 4294236379
0.092001125 -0.0033577052 0.77100003 4294040019
0.093344212 -0.0033577052 0.77100003 4293842384
0.09468729 -0.0033577052 0.77100003 4293907916
0.096030377 -0.0033577052 0.77100003 4293973965
0.097373456 -0.0033577052 0.77100003 4293907916
0.098972619 -0.0033664154 0.77300006 4293907916
0.10031918 -0.0033664154 0.77300006 4293711570
0.10166574 -0.0033664154 0.77300006 4293579984
0.10301232 -0.0033664154 0.77300006 4293316812
0.10435888 -0.0033664154 0.77300006 4293251019
0.10584219 -0.0033707705 0.77400005 4293251280
0.1071905 -0.0033707705 0.77400005 4293054158
0.10853881 -0.0033707705 0.77400005 4293184709
0.11017106 -0.0033794802 0.77600002 4293118915
0.11152285 -0.0033794802 0.77600002 4292922056
0.11287465 -0.0033794802 0.77600002 4293382607
0.11422643 -0.0033794802 0.77600002 4294173666
0.11557822 -0.0033794802 0.77600002 4294967295
0.11693002 -0.0033794802 0.77600002 4294967295
0.068120912 -0.0020642702 0.79000002 4292658368
0.069321156 -0.0020590443 0.78800005 4292723641
0.070604138 -0.0020564313 0.78700006 4292263090
0.071792185 -0.0020512051 0.78500003 4291933360
0.072973259 -0.0020459793 0.78300005 4292064946
0.074147366 -0.0020407531 0.78100002 4292130485
0.075411186 -0.0020381403 0.78000003 4291669934
0.076573104 -0.0020329142 0.77800006 4291932068
0.077728048 -0.0020276881 0.77600002 4292129190
0.078876026 -0.0020224622 0.77400005 4292655273
0.080224335 -0.0020224622 0.77400005 4292852395
0.081467256 -0.0020198494 0.77300006 4292984499
0.082813822 -0.0020198494 0.77300006 4292853170
0.084160388 -0.0020198494 0.77300006 4293247935
0.085506953 -0.0020198494 0.77300006 4293774535
0.086853519 -0.0020198494 0.77300006 4293578435
0.088200085 -0.0020198494 0.77300006 4293512642
0.089546651 -0.0020198494 0.77300006 4293644228
0.090658046 -0.0020146233 0.77100003 4293841864
0.092001125 -0.0020146233 0.77100003 4293448650
0.093344212 -0.0020146233 0.77100003 4293382857
0.09468729 -0.0020146233 0.77100003 4293513673
0.096030377 -0.0020146233 0.77100003 4293513673
0.097373456 -0.0020146233 0.77100003 4293447880
0.098972619 -0.0020198494 0.77300006 4293382087
0.10031918 -0.0020198494 0.77300006 4293381835
0.10166574 -0.0020198494 0.77300006 4293184713
0.10301232 -0.0020198494 0.77300006 4293053122
0.10435888 -0.0020198494 0.77300006 4293118915
0.10584219 -0.0020224622 0.77400005 4292988615
0.1071905 -0.0020224622 0.77400005 4292922821
0.10853881 -0.0020224622 0.77400005 4292593605
0.11017106 -0.0020276881 0.77600002 4292396225
0.11152285 -0.0020276881 0.77600002 4292986536
0.11287465 -0.0020276881 0.77600002 4293644467
0.11422643 -0.0020276881 0.77600002 4294042079
0.11557822 -0.0020276881 0.77600002 4294967295
0.068120912 -0.00068809005 0.79000002 4292920519
0.069321156 -0.00068634807 0.78800005 4292592571
0.070604138 -0.00068547711 0.78700006 4292132020
0.071792185 -0.00068373507 0.78500003 4292064430
0.072973259 -0.00068199309 0.78300005 4291735466
0.074147366 -0.00068025105 0.78100002 4291801009
0.075411186 -0.00067938009 0.78000003 4291735216
0.076573104 -0.00067763811 0.77800006 4291669673
0.077728048 -0.00067589607 0.77600002 4291669673
0.078876026 -0.00067415409 0.77400005 4291932068
0.080224335 -0.00067415409 0.77400005 4292129190
0.081572644 -0.00067415409 0.77400005 4292195998
0.082813822 -0.00067328312 0.77300006 4292393634
0.084160388 -0.00067328312 0.77300006 4292524972
0.085506953 -0.00067328312 0.77300006 4292458923
0.086853519 -0.00067328312 0.77300006 4292853683
0.088200085 -0.00067328312 0.77300006 4292985269
0.089546651 -0.00067328312 0.77300006 4293117354
0.090893224 -0.00067328312 0.77300006 4293117354
0.092239782 -0.00067328312 0.77300006 4292723639
0.093344212 -0.00067154109 0.77100003 4292526517
0.09468729 -0.00067154109 0.77100003 4292592571
0.09627948 -0.00067328312 0.77300006 4292658364
0.097626045 -0.00067328312 0.77300006 4292525761
0.098972619 -0.00067328312 0.77300006 4292459968
0.10031918 -0.00067328312 0.77300006 4292526013
0.10166574 -0.00067328312 0.77300006 4292460220
0.10301232 -0.00067328312 0.77300006 4292656818
0.10435888 -0.00067328312 0.77300006 4292722867
0.10584219 -0.00067415409 0.77400005 4292723376
0.1071905 -0.00067415409 0.77400005 4292921012
0.10853881 -0.00067415409 0.77400005 4292724421
0.11017106 -0.00067589607 0.77600002 4291869368
0.11152285 -0.00067589607 0.77600002 4291474576
0.11287465 -0.00067589607 0.77600002 4293448623
0.11422643 -0.00067589607 0.77600002 4294305769
0.068293378 0.00068983209 0.79200006 4292920258
0.069321156 0.00068634807 0.78800005 4292526778
0.070604138 0.00068547711 0.78700006 4292132020
0.071792185 0.00068373507 0.78500003 4291868083
0.072973259 0.00068199309 0.78300005 4291604911
0.074147366 0.00068025105 0.78100002 4291669423
0.075411186 0.00067938009 0.78000003 4291669423
0.076769948 0.00067938009 0.78000003 4291473325
0.077728048 0.00067589607 0.77600002 4291473325
0.078876026 0.00067415409 0.77400005 4291604645
0.080224335 0.00067415409 0.77400005 4291670438
0.081572644 0.00067415409 0.77400005 4291736231
0.082813822 0.00067328312 0.77300006 4291736231
0.084160388 0.00067328312 0.77300006 4291736231
0.085506953 0.00067328312 0.77300006 4291933866
0.086853519 0.00067328312 0.77300006 4291868071
0.088200085 0.00067328312 0.77300006 4292196780
0.089546651 0.00067328312 0.77300006 4292197286
0.090893224 0.00067328312 0.77300006 4292263079
0.092239782 0.00067328312 0.77300006 4292131757
0.093344212 0.00067154109 0.77100003 4292329135
0.09468729 0.00067154109 0.77100003 4292329402
0.09627948 0.00067328312 0.77300006 4292263609
0.097626045 0.00067328312 0.77300006 4292131509
0.098972619 0.00067328312 0.77300006 4292065716
0.10031918 0.00067328312 0.77300006 4292262577
0.10166574 0.00067328312 0.77300006 4292064942
0.10301232 0.00067328312 0.77300006 4292261544
0.10449389 0.00067415409 0.77400005 4292261544
0.10584219 0.00067415409 0.77400005 4292393911
0.1071905 0.00067415409 0.77400005 4293249220
0.10881927 0.00067589607 0.77600002 4292856270
0.11045501 0.00067763811 0.77800006 4290093220
0.11181029 0.00067763811 0.77800006 4289565003
0.11316556 0.00067763811 0.77800006 4294302355
0.068293378 0.0020694963 0.79200006 4292789182
0.069497094 0.0020642702 0.79000002 4292460985
0.070604138 0.0020564313 0.78700006 4292263863
0.071975097 0.0020564313 0.78700006 4291999671
0.072973259 0.0020459793 0.78300005 4291802035
0.074337251 0.0020459793 0.78300005 4291735729
0.075507864 0.0020407531 0.78100002 4291604143
0.076769948 0.0020381403 0.78000003 4291274926
0.077928379 0.0020329142 0.77800006 4291143340
0.079283662 0.0020329142 0.77800006 4291143590
0.080224335 0.0020224622 0.77400005 4291143590
0.081572644 0.0020224622 0.77400005 4291143842
0.082813822 0.0020198494 0.77300006 4291012513
0.084160388 0.0020198494 0.77300006 4290946969
0.085506953 0.0020198494 0.77300006 4290946969
0.086853519 0.0020198494 0.77300006 4291143830
0.088200085 0.0020198494 0.77300006 4291209624
0.089546651 0.0020198494 0.77300006 4291275165
0.090893224 0.0020198494 0.77300006 4291472543
0.092239782 0.0020198494 0.77300006 4291538338
0.093586348 0.0020198494 0.77300006 4291669925
0.094932921 0.0020198494 0.77300006 4291276711
0.09627948 0.0020198494 0.77300006 4291145125
0.097626045 0.0020198494 0.77300006 4291341727
0.098972619 0.0020198494 0.77300006 4291473313
0.10031918 0.0020198494 0.77300006 4291604131
0.10166574 0.0020198494 0.77300006 4291932840
0.10301232 0.0020198494 0.77300006 4292130724
0.10449389 0.0020224622 0.77400005 4292525481
0.10584219 0.0020224622 0.77400005 4292591810
0.10746747 0.0020276881 0.77600002 4292328382
0.10881927 0.0020276881 0.77600002 4289698490
0.11045501 0.0020329142 0.77800006 4285092980
0.11181029 0.0020329142 0.77800006 4285224814
0.11316556 0.0020329142 0.77800006 4293909746
0.068293378 0.0034491604 0.79200006 4292789434
0.069673039 0.0034491604 0.79200006 4292526265
0.070693851 0.0034317404 0.78800005 4292394679
0.071975097 0.0034273856 0.78700006 4292065462
0.07315965 0.0034186754 0.78500003 4291670704
0.074337251 0.0034099654 0.78300005 4291604911
0.075507864 0.0034012555 0.78100002 4291473325
0.076769948 0.0033969004 0.78000003 4291274667
0.07812871 0.0033969004 0.78000003 4291208874
0.079283662 0.0033881904 0.77800006 4291012259
0.080638938 0.0033881904 0.77800006 4290880672
0.081572644 0.0033707705 0.77400005 4290618270
0.082920954 0.0033707705 0.77400005 4290684063
0.084269263 0.0033707705 0.77400005 4290684059
0.085617565 0.0033707705 0.77400005 4290684059
0.086853519 0.0033664154 0.77300006 4290684061
0.088200085 0.0033664154 0.77300006 4290618268
0.089546651 0.0033664154 0.77300006 4290749338
0.090893224 0.0033664154 0.77300006 4290815131
0.092239782 0.0033664154 0.77300006 4291077533
0.093586348 0.0033664154 0.77300006 4291077533
0.094932921 0.0033664154 0.77300006 4290749854
0.09627948 0.0033664154 0.77300006 4290749854
0.097626045 0.0033664154 0.77300006 4291079071
0.098972619 0.0033664154 0.77300006 4291079071
0.10031918 0.0033664154 0.77300006 4291341473
0.10179727 0.0033707705 0.77400005 4291867817
0.10314557 0.0033707705 0.77400005 4292130735
0.10449389 0.0033707705 0.77400005 4292591286
0.10611568 0.0033794802 0.77600002 4292460233
0.10746747 0.0033794802 0.77600002 4291736511
0.10881927 0.0033794802 0.77600002 4286943368
0.11073896 0.0033969004 0.78000003 4283127373
0.11209772 0.0033969004 0.78000003 4284505942
0.068293378 0.0048288247 0.79200006 4292855480
0.069673039 0.0048288247 0.79200006 4292592825
0.070693851 0.0048044366 0.78800005 4292198067
0.072066553 0.0048044366 0.78800005 4291999671
0.073346049 0.0047983397 0.78700006 4291670706
0.074527122 0.0047861454 0.78500003 4291801774
0.075701229 0.0047739516 0.78300005 4291670188
0.076868363 0.0047617573 0.78100002 4291274926
0.078228869 0.0047617573 0.78100002 4291209133
0.079487465 0.0047556604 0.78000003 4291012259
0.080846235 0.0047556604 0.78000003 4290880672
0.081994213 0.0047434666 0.77800006 4290618016
0.082920954 0.0047190785 0.77400005 4290618016
0.084269263 0.0047190785 0.77400005 4290551458
0.085617565 0.0047190785 0.77400005 4290419871
0.086965881 0.0047190785 0.77400005 4290223775
0.088314183 0.0047190785 0.77400005 4290091933
0.089662492 0.0047190785 0.77400005 4290222740
0.090893224 0.0047129816 0.77300006 4290222740
0.092239782 0.0047129816 0.77300006 4290288533
0.093586348 0.0047129816 0.77300006 4290288533
0.094932921 0.0047129816 0.77300006 4290354078
0.09627948 0.0047129816 0.77300006 4290682787
0.097626045 0.0047129816 0.77300006 4291144346
0.098972619 0.0047129816 0.77300006 4291473311
0.10044896 0.0047190785 0.77400005 4291539883
0.10179727 0.0047190785 0.77400005 4291539883
0.10314557 0.0047190785 0.77400005 4289962148
0.1047639 0.0047312723 0.77600002 4288843667
0.10611568 0.0047312723 0.77600002 4285553056
0.10774446 0.0047434666 0.77800006 4283908232
0.10909973 0.0047434666 0.77800006 4283123549
0.11073896 0.0047556604 0.78000003 4284308079
0.11209772 0.0047556604 0.78000003 4287135128
0.069673039 0.0062084887 0.79200006 4292592823
0.070873275 0.0061928104 0.79000002 4292132272
0.072066553 0.0061771329 0.78800005 4291933363
0.073346049 0.006169294 0.78700006 4291801776
0.074717 0.006169294 0.78700006 4291735979
0.075894594 0.0061536157 0.78500003 4291670186
0.077262059 0.0061536157 0.78500003 4291209387
0.078429207 0.0061379378 0.78300005 4291209387
0.079589374 0.0061222594 0.78100002 4291143844
0.080846235 0.0061144209 0.78000003 4291209637
0.08220499 0.0061144209 0.78000003 4290684322
0.083349489 0.0060987426 0.77800006 4290618529
0.084487006 0.0060830647 0.77600002 4290551708
0.085838802 0.0060830647 0.77600002 4290420121
0.086965881 0.0060673868 0.77400005 4290485144
0.088314183 0.0060673868 0.77400005 4290550937
0.089662492 0.0060673868 0.77400005 4290158230
0.091010801 0.0060673868 0.77400005 4289961108
0.092359111 0.0060673868 0.77400005 4289698451
0.09370742 0.0060673868 0.77400005 4289895574
0.095055729 0.0060673868 0.77400005 4290222738
0.096404031 0.0060673868 0.77400005 4290880924
0.09775234 0.0060673868 0.77400005 4291209635
0.099100649 0.0060673868 0.77400005 4291604393
0.10044896 0.0060673868 0.77400005 4291146161
0.1020603 0.0060830647 0.77600002 4290751403
0.1034121 0.0060830647 0.77600002 4287338125
0.1047639 0.0060830647 0.77600002 4285758837
0.10638918 0.0060987426 0.77800006 4282538064
0.10802143 0.0061144209 0.78000003 4281682756
0.10938019 0.0061144209 0.78000003 4282469439
0.11088092 0.0061222594 0.78100002 4284443229
0.070873275 0.0075689908 0.79000002 4292066218
0.072249457 0.0075689908 0.79000002 4291933876
0.07343924 0.0075498288 0.78800005 4291604911
0.074717 0.0075402479 0.78700006 4291736233
0.076087959 0.0075402479 0.78700006 4291473061
0.077262059 0.0075210854 0.78500003 4291275180
0.078429207 0.0075019244 0.78300005 4291275180
0.079589374 0.007482762 0.78100002 4291143844
0.08094988 0.007482762 0.78100002 4291209637
0.08220499 0.0074731805 0.78000003 4290749606
0.083563745 0.0074731805 0.78000003 4290749606
0.084704764 0.007454019 0.77800006 4290683039
0.08606004 0.007454019 0.77800006 4290551710
0.087190591 0.0074348566 0.77600002 4290551962
0.088542387 0.0074348566 0.77600002 4290551962
0.089894176 0.0074348566 0.77600002 4290289564
0.091245964 0.0074348566 0.77600002 4290289564
0.09259776 0.0074348566 0.77600002 4290355614
0.093949556 0.0074348566 0.77600002 4290355614
0.095055729 0.0074156951 0.77400005 4290683293
0.096404031 0.0074156951 0.77400005 4291341223
0.09775234 0.0074156951 0.77400005 4290487213
0.099100649 0.0074156951 0.77400005 4287789700
0.10070851 0.0074348566 0.77600002 4283778433
0.1020603 0.0074348566 0.77600002 4281936229
0.10367863 0.007454019 0.77800006 4282071867
0.1050339 0.007454019 0.77800006 4282400832
0.10666268 0.0074731805 0.78000003 4281746752
0.10815991 0.007482762 0.78100002 4282667854
0.10952042 0.007482762 0.78100002 4283715214
0.11088092 0.007482762 0.78100002 4288649688
0.072249457 0.0089451708 0.79000002 4292196530
0.07343924 0.0089225248 0.78800005 4291735979
0.074811943 0.0089225248 0.78800005 4291735979
0.076087959 0.0089112027 0.78700006 4291670186
0.077458911 0.0089112027 0.78700006 4291210407
0.078629531 0.0088885557 0.78500003 4291078821
0.079793192 0.0088659106 0.78300005 4291209637
0.08094988 0.0088432636 0.78100002 4291209637
0.082310379 0.0088432636 0.78100002 4290619299
0.083670884 0.0088432636 0.78100002 4290553506
0.084922515 0.0088319406 0.78000003 4290618783
0.08628127 0.0088319406 0.78000003 4290552734
0.087415315 0.0088092946 0.77800006 4290552988
0.088542387 0.0087866485 0.77600002 4290355610
0.089894176 0.0087866485 0.77600002 4290551708
0.091245964 0.0087866485 0.77600002 4290683293
0.09259776 0.0087866485 0.77600002 4290421405
0.093949556 0.0087866485 0.77600002 4290421405
0.095301345 0.0087866485 0.77600002 4291011742
0.096653134 0.0087866485 0.77600002 4291340708
0.09800493 0.0087866485 0.77600002 4289962382
0.099356726 0.0087866485 0.77600002 4283448875
0.10096807 0.0088092946 0.77800006 4283249452
0.10258639 0.0088319406 0.78000003 4282262557
0.10394515 0.0088319406 0.78000003 4280626218
0.10543891 0.0088432636 0.78100002 4281876285
0.10679942 0.0088432636 0.78100002 4281811745
0.10815991 0.0088432636 0.78100002 4283719742
0.10980089 0.0088659106 0.78300005 4287527809
0.072432369 0.010347482 0.79200006 4292196782
0.073625632 0.010321351 0.79000002 4291670438
0.074811943 0.010295222 0.78800005 4291735979
0.076184638 0.010295222 0.78800005 4291801772
0.077458911 0.010282157 0.78700006 4291341736
0.078829862 0.010282157 0.78700006 4291078821
0.079997003 0.010256026 0.78500003 4291078821
0.081364468 0.010256026 0.78500003 4291078821
0.082521163 0.010229897 0.78300005 4290619299
0.083885148 0.010229897 0.78300005 4290619299
0.085031383 0.010203766 0.78100002 4290618270
0.08628127 0.010190701 0.78000003 4290618270
0.087640025 0.010190701 0.78000003 4290683293
0.088998787 0.010190701 0.78000003 4290683293
0.090125866 0.010164572 0.77800006 4290552734
0.091481142 0.010164572 0.77800006 4290552734
0.092836417 0.010164572 0.77800006 4290552221
0.094191693 0.010164572 0.77800006 4290618270
0.095546968 0.010164572 0.77800006 4290946465
0.096902244 0.010164572 0.77800006 4290485914
0.098257519 0.010164572 0.77800006 4288582987
0.099612795 0.010164572 0.77800006 4280030208
0.10122763 0.010190701 0.78000003 4278199590
0.10258639 0.010190701 0.78000003 4279318584
0.10407841 0.010203766 0.78100002 4280954931
0.10543891 0.010203766 0.78100002 4282994770
0.10679942 0.010203766 0.78100002 4285556082
0.10871387 0.010256026 0.78500003 4291016901
0.070464782 0.011860408 0.80100006 4292329906
0.071590982 0.011815988 0.79800004 4292198319
0.072615273 0.011756759 0.79400003 4292131507
0.07381203 0.011727145 0.79200006 4291670956
0.075001813 0.011697531 0.79000002 4291735981
0.076184638 0.011667917 0.78800005 4291604395
0.077557333 0.011667917 0.78800005 4291341736
0.078829862 0.01165311 0.78700006 4291341736
0.080200821 0.01165311 0.78700006 4291078567
0.081364468 0.011623496 0.78500003 4291012774
0.08273194 0.011623496 0.78500003 4290683809
0.083885148 0.011593882 0.78300005 4290749602
0.085031383 0.011564268 0.78100002 4290618270
0.086391889 0.011564268 0.78100002 4290618270
0.087640025 0.011549461 0.78000003 4290355612
0.088998787 0.011549461 0.78000003 4290421405
0.090357549 0.011549461 0.78000003 4290618783
0.091716312 0.011549461 0.78000003 4290552734
0.093075067 0.011549461 0.78000003 4290618270
0.094433829 0.011549461 0.78000003 4290946979
0.095792592 0.011549461 0.78000003 4291012772
0.097151347 0.011549461 0.78000003 4289631119
0.098510109 0.011549461 0.78000003 4286347605
0.099868871 0.011549461 0.78000003 4278913024
0.10135741 0.011564268 0.78100002 4278328320
0.10271791 0.011564268 0.78100002 4279775760
