# .PCD v0.7 - Point Cloud Data file format
VERSION 0.7
FIELDS x y z rgba
SIZE 4 4 4 4
TYPE F F F U
COUNT 1 1 1 1
WIDTH 1028
HEIGHT 1
VIEWPOINT 0 0 0 1 0 0 0
POINTS 1028
DATA ascii
0.098204389 -0.068809874 0.76700002 4291822086
0.099540502 -0.068809874 0.76700002 4291495714
0.10087661 -0.068809874 0.76700002 4291232799
0.10221273 -0.068809874 0.76700002 4291624979
0.10354884 -0.068809874 0.76700002 4291887127
0.10474822 -0.068720162 0.76600003 4291821592
0.10608259 -0.068720162 0.76600003 4291559444
0.10741696 -0.068720162 0.76600003 4291887111
0.1088933 -0.068809874 0.76700002 4291624964
0.11022941 -0.068809874 0.76700002 4291297280
0.12510349 -0.06746418 0.75200003 4293501767
0.12641346 -0.06746418 0.75200003 4293963103
0.12772344 -0.06746418 0.75200003 4294950513
0.12903345 -0.06746418 0.75200003 4294950253
0.13034342 -0.06746418 0.75200003 4294948711
0.13165341 -0.06746418 0.75200003 4294751852
0.13296339 -0.06746418 0.75200003 4294817645
0.13427337 -0.06746418 0.75200003 4294949744
0.13558336 -0.06746418 0.75200003 4294686829
0.13689335 -0.06746418 0.75200003 4294751850
0.13820334 -0.06746418 0.75200003 4294817899
0.13951331 -0.06746418 0.75200003 4294686827
0.14082329 -0.06746418 0.75200003 4294555241
0.14213328 -0.06746418 0.75200003 4294685793
0.14344326 -0.06746418 0.75200003 4294948965
0.14475325 -0.06746418 0.75200003 4294687079
0.145869 -0.067374468 0.75100005 4294621286
0.14717723 -0.067374468 0.75100005 4294621034
0.14848548 -0.067374468 0.75100005 4294555241
0.14979373 -0.067374468 0.75100005 4294620786
0.15069956 -0.067195043 0.74900001 4294554737
0.15200432 -0.067195043 0.74900001 4294489695
0.15330908 -0.067195043 0.74900001 4294621538
0.15461384 -0.067195043 0.74900001 4294620795
0.1559186 -0.067195043 0.74900001 4294555002
0.15722334 -0.067195043 0.74900001 4294490479
0.1585281 -0.067195043 0.74900001 4294490479
0.15983286 -0.067195043 0.74900001 4294556787
0.16113763 -0.067195043 0.74900001 4294622580
0.16287614 -0.067374468 0.75100005 4294688105
0.16418439 -0.067374468 0.75100005 4294556776
0.16549262 -0.067374468 0.75100005 4293703038
0.16680087 -0.067374468 0.75100005 4293374074
0.16810912 -0.067374468 0.75100005 4292191081
0.16941737 -0.067374468 0.75100005 4292651632
0.17027093 -0.067195043 0.74900001 4293636478
0.17157568 -0.067195043 0.74900001 4293570685
0.17288044 -0.067195043 0.74900001 4293570683
0.17372009 -0.067015618 0.74700004 4293965441
0.17502137 -0.067015618 0.74700004 4294556297
0.17632265 -0.067015618 0.74700004 4294885518
0.17762393 -0.067015618 0.74700004 4294951823
0.17892519 -0.067015618 0.74700004 4294885516
0.180709 -0.067195043 0.74900001 4294622612
0.18201376 -0.067195043 0.74900001 4294556819
0.18331853 -0.067195043 0.74900001 4294425492
0.18462327 -0.067195043 0.74900001 4294096527
0.18592802 -0.067195043 0.74900001 4293965189
0.18723278 -0.067195043 0.74900001 4294031238
0.18853754 -0.067195043 0.74900001 4293703807
0.1898423 -0.067195043 0.74900001 4293111669
0.19114706 -0.067195043 0.74900001 4293439054
0.19193794 -0.067015618 0.74700004 4294491998
0.19323921 -0.067015618 0.74700004 4294359924
0.19428006 -0.066925906 0.74600005 4294228338
0.1955796 -0.066925906 0.74600005 4294424947
0.19687912 -0.066925906 0.74600005 4294556789
0.19817865 -0.066925906 0.74600005 4294425469
0.19947819 -0.066925906 0.74600005 4293899125
0.20023943 -0.066746481 0.74400002 4293963883
0.20153548 -0.066746481 0.74400002 4294029676
0.20283154 -0.066746481 0.74400002 4293701490
0.20412758 -0.066746481 0.74400002 4293701490
-0.025169291 -0.068705358 0.78100002 4285344512
-0.023808787 -0.068705358 0.78100002 4291690496
-0.022419542 -0.068617389 0.78000003 4294253335
-0.021060782 -0.068617389 0.78000003 4292748600
-0.019702023 -0.068617389 0.78000003 4292814393
-0.0088319406 -0.068617389 0.78000003 4292285467
-0.0074731805 -0.068617389 0.78000003 4292808731
-0.0061144209 -0.068617389 0.78000003 4293006366
-0.0047434666 -0.068441443 0.77800006 4292745531
-0.0033881904 -0.068441443 0.77800006 4292811324
-0.0020329142 -0.068441443 0.77800006 4292615454
-0.00067763811 -0.068441443 0.77800006 4292615454
0.00067763811 -0.068441443 0.77800006 4292484356
0.0020329142 -0.068441443 0.77800006 4292747272
0.0033881904 -0.068441443 0.77800006 4292746770
0.0047434666 -0.068441443 0.77800006 4293075734
0.0060987426 -0.068441443 0.77800006 4292747285
0.007454019 -0.068441443 0.77800006 4292418320
0.0088092946 -0.068441443 0.77800006 4292612131
0.010164572 -0.068441443 0.77800006 4292546338
0.011519847 -0.068441443 0.77800006 4292675618
0.012875124 -0.068441443 0.77800006 4292609569
0.014193818 -0.068265498 0.77600002 4292674592
0.016853852 -0.06808956 0.77400005 4292743467
0.01820216 -0.06808956 0.77400005 4292677674
0.019550469 -0.06808956 0.77400005 4292546338
0.020898776 -0.06808956 0.77400005 4291625236
0.022247085 -0.06808956 0.77400005 4292347178
0.023595393 -0.06808956 0.77400005 4292412971
0.024943702 -0.06808956 0.77400005 4292479016
0.026359946 -0.068265498 0.77600002 4292084258
0.027640317 -0.06808956 0.77400005 4292478498
0.028988626 -0.06808956 0.77400005 4292544291
0.030336933 -0.06808956 0.77400005 4292348711
0.031685241 -0.06808956 0.77400005 4292348711
0.03303355 -0.06808956 0.77400005 4292216612
0.034381859 -0.06808956 0.77400005 4292150819
0.035822492 -0.068265498 0.77600002 4292348193
0.037174284 -0.068265498 0.77600002 4292479779
0.038526077 -0.068265498 0.77600002 4292347178
0.039775092 -0.06808956 0.77400005 4292215592
0.041123401 -0.06808956 0.77400005 4292412721
0.042471711 -0.06808956 0.77400005 4292873272
0.043820012 -0.06808956 0.77400005 4292481313
0.045109969 -0.068001591 0.77300006 4292744484
0.046456534 -0.068001591 0.77300006 4292417559
0.0478031 -0.068001591 0.77300006 4292154130
0.049149666 -0.068001591 0.77300006 4292481830
0.050496232 -0.068001591 0.77300006 4292284452
0.051909864 -0.06808956 0.77400005 4292414757
0.053189363 -0.068001591 0.77300006 4292348963
0.054535933 -0.068001591 0.77300006 4292414757
0.055882495 -0.068001591 0.77300006 4292348963
0.057229061 -0.068001591 0.77300006 4292481313
0.05857563 -0.068001591 0.77300006 4292810277
0.059922196 -0.068001591 0.77300006 4292418072
0.061268758 -0.068001591 0.77300006 4292418072
0.062615328 -0.068001591 0.77300006 4292287015
0.063961893 -0.068001591 0.77300006 4291892258
0.065308459 -0.068001591 0.77300006 4292481313
0.066482566 -0.067825645 0.77100003 4292613155
0.067825645 -0.067825645 0.77100003 4292481324
0.069168732 -0.067825645 0.77100003 4292152615
0.07051181 -0.067825645 0.77100003 4292347691
0.071854889 -0.067825645 0.77100003 4292216362
0.073197976 -0.067825645 0.77100003 4292543287
0.074347705 -0.067649707 0.76900005 4292280372
0.075687297 -0.067649707 0.76900005 4292280618
0.077026896 -0.067649707 0.76900005 4292280618
0.078366496 -0.067649707 0.76900005 4292544541
0.079706095 -0.067649707 0.76900005 4292544541
0.081045687 -0.067649707 0.76900005 4292478748
0.082171015 -0.067473762 0.76700002 4292544541
0.083507128 -0.067473762 0.76700002 4292478475
0.084843248 -0.067473762 0.76700002 4292412426
0.086179361 -0.067473762 0.76700002 4292478475
0.087515473 -0.067473762 0.76700002 4292478475
0.088851586 -0.067473762 0.76700002 4292544039
0.090187706 -0.067473762 0.76700002 4292478246
0.091523819 -0.067473762 0.76700002 4292412442
0.092859931 -0.067473762 0.76700002 4292280599
0.094196044 -0.067473762 0.76700002 4292346887
0.095532157 -0.067473762 0.76700002 4292281094
0.096868277 -0.067473762 0.76700002 4292086275
0.098204389 -0.067473762 0.76700002 4292415240
0.099540502 -0.067473762 0.76700002 4292021807
0.1007451 -0.067385793 0.76600003 4291627305
0.10207947 -0.067385793 0.76600003 4292018699
0.10341384 -0.067385793 0.76600003 4291756039
0.10474822 -0.067385793 0.76600003 4291953437
0.11466977 -0.066945933 0.76100004 4294422898
0.11599544 -0.066945933 0.76100004 4293830761
0.1173211 -0.066945933 0.76100004 4293568107
0.11965713 -0.066769995 0.75900006 4293501033
0.12280927 -0.066330135 0.75400001 4293501517
0.1237935 -0.066154197 0.75200003 4293304937
0.12510349 -0.066154197 0.75200003 4294094197
0.12641346 -0.066154197 0.75200003 4294555520
0.12772344 -0.066154197 0.75200003 4294951820
0.12903345 -0.066154197 0.75200003 4294951012
0.13034342 -0.066154197 0.75200003 4294949984
0.13165341 -0.066154197 0.75200003 4294950254
0.13278657 -0.066066228 0.75100005 4294950511
0.13409483 -0.066066228 0.75100005 4294950766
0.13540307 -0.066066228 0.75100005 4294950766
0.13671131 -0.066066228 0.75100005 4294950766
0.13801955 -0.066066228 0.75100005 4294950766
0.13951331 -0.066154197 0.75200003 4294950254
0.14082329 -0.066154197 0.75200003 4294949740
0.14213328 -0.066154197 0.75200003 4294949744
0.14325252 -0.066066228 0.75100005 4294949744
0.14456075 -0.066066228 0.75100005 4294951020
0.145869 -0.066066228 0.75100005 4294951020
0.14717723 -0.066066228 0.75100005 4294951028
0.14848548 -0.066066228 0.75100005 4294951285
0.1493948 -0.065890282 0.74900001 4294950790
0.15069956 -0.065890282 0.74900001 4294952075
0.15200432 -0.065890282 0.74900001 4294951535
0.15330908 -0.065890282 0.74900001 4294952562
0.15461384 -0.065890282 0.74900001 4294950793
0.1559186 -0.065890282 0.74900001 4294818951
0.15722334 -0.065890282 0.74900001 4294753144
0.1585281 -0.065890282 0.74900001 4294950780
0.15983286 -0.065890282 0.74900001 4294427266
0.16113763 -0.065890282 0.74900001 4291992925
0.16244239 -0.065890282 0.74900001 4290476868
0.16374715 -0.065890282 0.74900001 4290476868
0.16505191 -0.065890282 0.74900001 4291531329
0.16635667 -0.065890282 0.74900001 4291728451
0.16766141 -0.065890282 0.74900001 4290874708
0.16896617 -0.065890282 0.74900001 4290677328
0.17027093 -0.065890282 0.74900001 4290482012
0.17157568 -0.065890282 0.74900001 4290482012
0.17288044 -0.065890282 0.74900001 4289231443
0.17372009 -0.065714344 0.74700004 4288836685
0.17502137 -0.065714344 0.74700004 4289164855
0.17632265 -0.065714344 0.74700004 4289164855
0.17762393 -0.065714344 0.74700004 4289358888
0.17892519 -0.065714344 0.74700004 4289293095
0.18022646 -0.065714344 0.74700004 4289355574
0.18152775 -0.065714344 0.74700004 4289223988
0.18282902 -0.065714344 0.74700004 4288962347
0.1841303 -0.065714344 0.74700004 4286330627
0.18543155 -0.065714344 0.74700004 4287580160
0.18673284 -0.065714344 0.74700004 4288172288
0.18803412 -0.065714344 0.74700004 4288830720
0.18933539 -0.065714344 0.74700004 4289686016
0.19063666 -0.065714344 0.74700004 4292452401
0.191681 -0.065626375 0.74600005 4294952536
0.19298053 -0.065626375 0.74600005 4294688122
0.1937592 -0.06545043 0.74400002 4294424949
0.19505523 -0.06545043 0.74400002 4294359924
0.19635129 -0.06545043 0.74400002 4294425717
0.19738168 -0.065362453 0.74300003 4294424697
0.19867599 -0.065362453 0.74300003 4293898353
0.19997029 -0.065362453 0.74300003 4294095205
0.2012646 -0.065362453 0.74300003 4294621549
0.2025589 -0.065362453 0.74300003 4294162027
0.20385322 -0.065362453 0.74300003 4293569890
-0.026427886 -0.067086168 0.77800006 4294936671
-0.025137061 -0.067258626 0.78000003 4289078272
-0.023778303 -0.067258626 0.78000003 4293337627
-0.022419542 -0.067258626 0.78000003 4294192936
-0.021060782 -0.067258626 0.78000003 4293471794
-0.019702023 -0.067258626 0.78000003 4293208365
-0.018343262 -0.067258626 0.78000003 4293404717
-0.016940951 -0.067086168 0.77800006 4293404717
-0.015585676 -0.067086168 0.77800006 4293664812
-0.0142304 -0.067086168 0.77800006 4293599019
-0.012875124 -0.067086168 0.77800006 4293206823
-0.011519847 -0.067086168 0.77800006 4293140774
-0.010164572 -0.067086168 0.77800006 4293073958
-0.0088092946 -0.067086168 0.77800006 4292547358
-0.007454019 -0.067086168 0.77800006 4292741925
-0.0060987426 -0.067086168 0.77800006 4292741925
-0.0047434666 -0.067086168 0.77800006 4292611629
-0.0033881904 -0.067086168 0.77800006 4292282920
-0.0020329142 -0.067086168 0.77800006 4292283420
-0.00067763811 -0.067086168 0.77800006 4292546336
0.00067763811 -0.067086168 0.77800006 4291887104
0.0020329142 -0.067086168 0.77800006 4291952896
0.0033881904 -0.067086168 0.77800006 4291756811
0.0047434666 -0.067086168 0.77800006 4292480533
0.0060987426 -0.067086168 0.77800006 4292023064
0.007454019 -0.067086168 0.77800006 4291891222
0.0087866485 -0.066913709 0.77600002 4291822869
0.010138441 -0.066913709 0.77600002 4292283420
0.011490233 -0.066913709 0.77600002 4292283933
0.012842026 -0.066913709 0.77600002 4292283933
0.014157237 -0.066741258 0.77400005 4292414238
0.015485511 -0.066655025 0.77300006 4292940582
0.016832076 -0.066655025 0.77300006 4292613418
0.01820216 -0.066741258 0.77400005 4292613418
0.019550469 -0.066741258 0.77400005 4292548377
0.020898776 -0.066741258 0.77400005 4292219412
0.022218343 -0.066655025 0.77300006 4292544037
0.023564909 -0.066655025 0.77300006 4293202224
0.024911474 -0.066655025 0.77300006 4292942381
0.026292009 -0.066741258 0.77400005 4292942381
0.027604608 -0.066655025 0.77300006 4292941868
0.028951174 -0.066655025 0.77300006 4293073454
0.030297739 -0.066655025 0.77300006 4292681771
0.031644303 -0.066655025 0.77300006 4292418856
0.032990873 -0.066655025 0.77300006 4292614698
0.034337439 -0.066655025 0.77300006 4292746283
0.035684004 -0.066655025 0.77300006 4293140276
0.037078474 -0.066741258 0.77400005 4292811311
0.038426783 -0.066741258 0.77400005 4292874554
0.039775092 -0.066741258 0.77400005 4292874554
0.041123401 -0.066741258 0.77400005 4292875569
0.042471711 -0.066741258 0.77400005 4292875569
0.043763399 -0.066655025 0.77300006 4292810014
0.045109969 -0.066655025 0.77300006 4292875807
0.046336334 -0.066482566 0.77100003 4292547864
0.047679417 -0.066482566 0.77100003 4292547864
0.049022496 -0.066482566 0.77100003 4292612901
0.050365578 -0.066482566 0.77100003 4292481315
0.051842798 -0.066655025 0.77300006 4292545575
0.053189363 -0.066655025 0.77300006 4292479781
0.054535933 -0.066655025 0.77300006 4292348443
0.055882495 -0.066655025 0.77300006 4292348443
0.057080992 -0.066482566 0.77100003 4292348193
0.058424074 -0.066482566 0.77100003 4292216864
0.059767157 -0.066482566 0.77100003 4291890209
0.061110236 -0.066482566 0.77100003 4291495451
0.062453318 -0.066482566 0.77100003 4291560224
0.063796401 -0.066482566 0.77100003 4291494431
0.06513948 -0.066482566 0.77100003 4291625236
0.066310108 -0.066310108 0.76900005 4292415008
0.067649707 -0.066310108 0.76900005 4291826211
0.068989307 -0.066310108 0.76900005 4291694624
0.070328899 -0.066310108 0.76900005 4291890209
0.071668498 -0.066310108 0.76900005 4291956002
0.073008105 -0.066310108 0.76900005 4292216612
0.074347705 -0.066310108 0.76900005 4292216612
0.075687297 -0.066310108 0.76900005 4292281374
0.076826565 -0.066137649 0.76700002 4292281374
0.078162678 -0.066137649 0.76700002 4292414238
0.07949879 -0.066137649 0.76700002 4292348445
0.080834903 -0.066137649 0.76700002 4292413986
0.082171015 -0.066137649 0.76700002 4292413986
0.083507128 -0.066137649 0.76700002 4292545041
0.084843248 -0.066137649 0.76700002 4292545041
0.086066999 -0.066051416 0.76600003 4292805649
0.087401375 -0.066051416 0.76600003 4292805649
0.088735752 -0.066051416 0.76600003 4292610086
0.090070121 -0.066051416 0.76600003 4292478244
0.09140449 -0.066051416 0.76600003 4292740641
0.092738867 -0.066051416 0.76600003 4292806434
0.094073236 -0.066051416 0.76600003 4292609039
0.095407605 -0.066051416 0.76600003 4292609039
0.096741982 -0.066051416 0.76600003 4292545295
0.098076351 -0.066051416 0.76600003 4292676881
0.09941072 -0.066051416 0.76600003 4292612399
0.1007451 -0.066051416 0.76600003 4292283433
0.10181294 -0.065878965 0.76400006 4292348443
0.10420122 -0.065706506 0.76200002 4292281887
0.10552863 -0.065706506 0.76200002 4292018715
0.1067158 -0.065620273 0.76100004 4291889166
0.10804147 -0.065620273 0.76100004 4292086289
0.10951084 -0.065706506 0.76200002 4291102212
0.11083825 -0.065706506 0.76200002 4289986560
0.11201845 -0.065620273 0.76100004 4291714816
0.11334412 -0.065620273 0.76100004 4294944578
0.11466977 -0.065620273 0.76100004 4294226550
0.11599544 -0.065620273 0.76100004 4293568877
0.1173211 -0.065620273 0.76100004 4293764705
0.11833494 -0.065447822 0.75900006 4293369947
0.11934181 -0.065275356 0.75700003 4293500504
0.12066051 -0.065275356 0.75700003 4293566297
0.12181807 -0.065189131 0.75600004 4293501519
0.12280927 -0.065016672 0.75400001 4293633105
0.1237935 -0.064844213 0.75200003 4293896795
0.12510349 -0.064844213 0.75200003 4294225760
0.12641346 -0.064844213 0.75200003 4294948983
0.12772344 -0.064844213 0.75200003 4294950268
0.12903345 -0.064844213 0.75200003 4294949992
0.13034342 -0.064844213 0.75200003 4294949992
0.13165341 -0.064844213 0.75200003 4294949742
0.13278657 -0.064757988 0.75100005 4294883692
0.13409483 -0.064757988 0.75100005 4294948453
0.13540307 -0.064757988 0.75100005 4294949995
0.13671131 -0.064757988 0.75100005 4294950766
0.13801955 -0.064757988 0.75100005 4294950509
0.13932779 -0.064757988 0.75100005 4294818410
0.14063603 -0.064757988 0.75100005 4294884203
0.14194427 -0.064757988 0.75100005 4294949492
0.14325252 -0.064757988 0.75100005 4294949750
0.14417577 -0.064585529 0.74900001 4294951028
0.14548053 -0.064585529 0.74900001 4294950771
0.14678529 -0.064585529 0.74900001 4294950769
0.14809005 -0.064585529 0.74900001 4294951026
0.1493948 -0.064585529 0.74900001 4294950777
0.15069956 -0.064585529 0.74900001 4294952062
0.15200432 -0.064585529 0.74900001 4294951799
0.15330908 -0.064585529 0.74900001 4294951542
0.15461384 -0.064585529 0.74900001 4294754180
0.1559186 -0.064585529 0.74900001 4294688387
0.15722334 -0.064585529 0.74900001 4294687351
0.1585281 -0.064585529 0.74900001 4294951294
0.15983286 -0.064585529 0.74900001 4294034305
0.16113763 -0.064585529 0.74900001 4289823553
0.16200863 -0.064413071 0.74700004 4289229312
0.1633099 -0.064413071 0.74700004 4289755648
0.16505191 -0.064585529 0.74900001 4291072838
0.16635667 -0.064585529 0.74900001 4290809666
0.16766141 -0.064585529 0.74900001 4289693752
0.16896617 -0.064585529 0.74900001 4289167408
0.16981627 -0.064413071 0.74700004 4287133469
0.17111756 -0.064413071 0.74700004 4287001883
0.17241883 -0.064413071 0.74700004 4285946368
0.17348754 -0.064326845 0.74600005 4285551616
0.17478707 -0.064326845 0.74600005 4285027072
0.17561452 -0.064154379 0.74400002 4284698368
0.17691056 -0.064154379 0.74400002 4286005760
0.1779671 -0.064068154 0.74300003 4288045581
0.1792614 -0.064068154 0.74300003 4288175872
0.18079871 -0.064154379 0.74400002 4288438788
0.18209477 -0.064154379 0.74400002 4287653122
0.1841303 -0.064413071 0.74700004 4286139904
0.18543155 -0.064413071 0.74700004 4285941504
0.18673284 -0.064413071 0.74700004 4286599424
0.18803412 -0.064413071 0.74700004 4287319296
0.18908194 -0.064326845 0.74600005 4289358860
0.19038147 -0.064326845 0.74600005 4293041986
0.1911671 -0.064154379 0.74400002 4294951268
0.19246314 -0.064154379 0.74400002 4294687872
0.19349878 -0.064068154 0.74300003 4294490492
0.19479308 -0.064068154 0.74300003 4294424947
0.19608738 -0.064068154 0.74300003 4294556789
0.19738168 -0.064068154 0.74300003 4294359424
0.19867599 -0.064068154 0.74300003 4293833080
0.19997029 -0.064068154 0.74300003 4294226280
0.20072284 -0.063895702 0.74100006 4294883953
0.20201367 -0.063895702 0.74100006 4294555772
0.2033045 -0.063895702 0.74100006 4294095221
0.20404309 -0.063723236 0.73900002 4292981626
-0.027783163 -0.065730892 0.77800006 4289045157
-0.026427886 -0.065730892 0.77800006 4291693096
-0.025137061 -0.065899864 0.78000003 4291495716
-0.023778303 -0.065899864 0.78000003 4292812578
-0.022362057 -0.065730892 0.77800006 4293470509
-0.021006782 -0.065730892 0.77800006 4293142563
-0.019651504 -0.065730892 0.77800006 4293142563
-0.018296229 -0.065730892 0.77800006 4293206821
-0.016940951 -0.065730892 0.77800006 4293141028
-0.015585676 -0.065730892 0.77800006 4293271328
-0.014193818 -0.06556192 0.77600002 4293271328
-0.012842026 -0.06556192 0.77600002 4293337126
-0.011490233 -0.06556192 0.77600002 4293271332
-0.010138441 -0.06556192 0.77600002 4293138981
-0.0087866485 -0.06556192 0.77600002 4292875809
-0.0074348566 -0.06556192 0.77600002 4292874537
-0.0060830647 -0.06556192 0.77600002 4292413986
-0.0047312723 -0.06556192 0.77600002 4292675629
-0.0033794802 -0.06556192 0.77600002 4292675629
-0.0020276881 -0.06556192 0.77600002 4292741925
-0.00067589607 -0.06556192 0.77600002 4293070633
0.00067589607 -0.06556192 0.77600002 4292543528
0.0020276881 -0.06556192 0.77600002 4292280355
0.0033794802 -0.06556192 0.77600002 4292543528
0.0047312723 -0.06556192 0.77600002 4293464630
0.0060830647 -0.06556192 0.77600002 4292482852
0.0074348566 -0.06556192 0.77600002 4292351010
0.0087640025 -0.065392941 0.77400005 4292547369
0.010112311 -0.065392941 0.77400005 4292613418
0.01146062 -0.065392941 0.77400005 4292614683
0.012808928 -0.065392941 0.77400005 4292285719
0.014157237 -0.065392941 0.77400005 4292481826
0.015485511 -0.065308459 0.77300006 4293140012
0.016832076 -0.065308459 0.77300006 4292547875
0.018178644 -0.065308459 0.77300006 4292416033
0.019525209 -0.065308459 0.77300006 4292416777
0.020871775 -0.065308459 0.77300006 4292350728
0.022218343 -0.065308459 0.77300006 4292285732
0.023564909 -0.065308459 0.77300006 4292483111
0.024911474 -0.065308459 0.77300006 4292353840
0.026258042 -0.065308459 0.77300006 4292222254
0.027533185 -0.06513948 0.77100003 4292222742
0.028876266 -0.06513948 0.77100003 4291893521
0.030219346 -0.06513948 0.77100003 4292154403
0.031562429 -0.06513948 0.77100003 4292285732
0.032905515 -0.06513948 0.77100003 4292284704
0.034248594 -0.06513948 0.77100003 4292547875
0.035684004 -0.065308459 0.77300006 4292546336
0.03703057 -0.065308459 0.77300006 4292217627
0.038377136 -0.065308459 0.77300006 4292611129
0.039723702 -0.065308459 0.77300006 4292676922
0.041070268 -0.065308459 0.77300006 4292676391
0.042416837 -0.065308459 0.77300006 4292676391
0.048895333 -0.064970508 0.76900005 4292743719
0.050234932 -0.064970508 0.76900005 4292677926
0.051708661 -0.06513948 0.77100003 4292547864
0.053051744 -0.06513948 0.77100003 4292547864
0.054394826 -0.06513948 0.77100003 4292677913
0.055737909 -0.06513948 0.77100003 4292546326
0.057080992 -0.06513948 0.77100003 4292413223
0.058424074 -0.06513948 0.77100003 4292281637
0.059612118 -0.064970508 0.76900005 4292218920
0.060951717 -0.064970508 0.76900005 4291956004
0.062291317 -0.064970508 0.76900005 4292086318
0.063630916 -0.064970508 0.76900005 4291559974
0.064970508 -0.064970508 0.76900005 4292019230
0.066137649 -0.064801537 0.76700002 4292874539
0.067473762 -0.064801537 0.76700002 4292221220
0.068809874 -0.064801537 0.76700002 4292221220
0.070145994 -0.064801537 0.76700002 4292089891
0.071482107 -0.064801537 0.76700002 4291826462
0.07281822 -0.064801537 0.76700002 4292481033
0.074154332 -0.064801537 0.76700002 4292415240
0.075490452 -0.064801537 0.76700002 4292478748
0.076826565 -0.064801537 0.76700002 4292281626
0.078162678 -0.064801537 0.76700002 4292347167
0.07949879 -0.064801537 0.76700002 4292478496
0.080834903 -0.064801537 0.76700002 4292346667
0.082063884 -0.064717047 0.76600003 4292346667
0.08339826 -0.064717047 0.76600003 4292412192
0.084732629 -0.064717047 0.76600003 4292543778
0.086066999 -0.064717047 0.76600003 4292412442
0.087401375 -0.064717047 0.76600003 4292412442
0.088735752 -0.064717047 0.76600003 4292215842
0.090070121 -0.064717047 0.76600003 4292084512
0.09140449 -0.064717047 0.76600003 4292345885
0.09249673 -0.064548083 0.76400006 4292477472
0.093827613 -0.064548083 0.76400006 4292345885
0.095158502 -0.064548083 0.76400006 4292411678
0.096489392 -0.064548083 0.76400006 4292215580
0.097564198 -0.064379096 0.76200002 4292149531
0.098891608 -0.064379096 0.76200002 4292280603
0.10021901 -0.064379096 0.76200002 4292083737
0.10141315 -0.064294614 0.76100004 4292347400
0.10273882 -0.064294614 0.76100004 4292281351
0.10406448 -0.064294614 0.76100004 4292085787
0.10539015 -0.064294614 0.76100004 4291954458
0.1067158 -0.064294614 0.76100004 4292086291
0.10804147 -0.064294614 0.76100004 4292086291
0.10936712 -0.064294614 0.76100004 4291495172
0.11069279 -0.064294614 0.76100004 4290445312
0.11201845 -0.064294614 0.76100004 4291581713
0.11334412 -0.064294614 0.76100004 4294943581
0.11436841 -0.064125642 0.75900006 4294225774
0.1156906 -0.064125642 0.75900006 4293699430
0.11701278 -0.064125642 0.75900006 4294159451
0.11802313 -0.063956663 0.75700003 4294291038
0.11934181 -0.063956663 0.75700003 4294225506
0.12050112 -0.063872173 0.75600004 4294291299
0.12149581 -0.063703202 0.75400001 4294226289
0.12248352 -0.06353423 0.75200003 4294489205
0.12362888 -0.063449748 0.75100005 4294358629
0.12493712 -0.063449748 0.75100005 4294489959
0.12641346 -0.06353423 0.75200003 4294817897
0.12772344 -0.06353423 0.75200003 4294949483
0.12903345 -0.06353423 0.75200003 4294950231
0.13017009 -0.063449748 0.75100005 4294686545
0.13147834 -0.063449748 0.75100005 4294553455
0.13278657 -0.063449748 0.75100005 4294290284
0.13409483 -0.063449748 0.75100005 4294553192
0.13540307 -0.063449748 0.75100005 4294948464
0.13671131 -0.063449748 0.75100005 4294948963
0.13801955 -0.063449748 0.75100005 4294883170
0.13932779 -0.063449748 0.75100005 4294619500
0.1402615 -0.063280769 0.74900001 4294553707
0.14156626 -0.063280769 0.74900001 4294685543
0.14287102 -0.063280769 0.74900001 4294751337
0.14417577 -0.063280769 0.74900001 4294751854
0.14548053 -0.063280769 0.74900001 4294685805
0.14678529 -0.063280769 0.74900001 4294950494
0.14809005 -0.063280769 0.74900001 4294950751
0.1493948 -0.063280769 0.74900001 4294950252
0.15069956 -0.063280769 0.74900001 4294951023
0.15200432 -0.063280769 0.74900001 4294950765
0.15289971 -0.063111797 0.74700004 4294555493
0.15420099 -0.063111797 0.74700004 4294555772
0.15550226 -0.063111797 0.74700004 4294818688
0.15680353 -0.063111797 0.74700004 4294687853
0.15810481 -0.063111797 0.74700004 4294951282
0.15940608 -0.063111797 0.74700004 4294229884
0.16070735 -0.063111797 0.74700004 4290611270
0.16200863 -0.063111797 0.74700004 4289624863
0.1633099 -0.063111797 0.74700004 4288901140
0.16461118 -0.063111797 0.74700004 4290216777
0.16591246 -0.063111797 0.74700004 4290348364
0.16721372 -0.063111797 0.74700004 4290677830
0.168515 -0.063111797 0.74700004 4291796312
0.16958894 -0.063027315 0.74600005 4291011436
0.17088848 -0.063027315 0.74600005 4291800952
0.17218801 -0.063027315 0.74600005 4291472500
0.17302243 -0.062858328 0.74400002 4291933051
0.17431846 -0.062858328 0.74400002 4291473282
0.17561452 -0.062858328 0.74400002 4291275902
0.17667279 -0.062773846 0.74300003 4291471737
0.1779671 -0.062773846 0.74300003 4292589961
0.1792614 -0.062773846 0.74300003 4292653697
0.18055572 -0.062773846 0.74300003 4292719490
0.18185 -0.062773846 0.74300003 4292456313
0.18339081 -0.062858328 0.74400002 4292061811
0.18443862 -0.062773846 0.74300003 4292456306
0.18573293 -0.062773846 0.74300003 4292653428
0.18702723 -0.062773846 0.74300003 4292521077
0.18832155 -0.062773846 0.74300003 4292784505
0.18961585 -0.062773846 0.74300003 4293439115
0.19091016 -0.062773846 0.74300003 4294360217
0.19168709 -0.062604874 0.74100006 4294622342
0.19297792 -0.062604874 0.74100006 4294425219
0.19426873 -0.062604874 0.74100006 4294556535
0.19555956 -0.062604874 0.74100006 4294688122
0.19685039 -0.062604874 0.74100006 4294622090
0.1981412 -0.062604874 0.74100006 4294359174
0.19943203 -0.062604874 0.74100006 4294227582
0.20072284 -0.062604874 0.74100006 4294359424
0.20146842 -0.062435895 0.73900002 4294359422
0.20275575 -0.062435895 0.73900002 4294096250
0.20404309 -0.062435895 0.73900002 4292850547
0.20505258 -0.062351417 0.73800004 4294958750
-0.02771174 -0.064210124 0.77600002 4286083180
-0.026359946 -0.064210124 0.77600002 4290772992
-0.025072608 -0.064375617 0.77800006 4292084481
-0.023717333 -0.064375617 0.77800006 4292416803
-0.022362057 -0.064375617 0.77800006 4292614181
-0.021006782 -0.064375617 0.77800006 4292348932
-0.019651504 -0.064375617 0.77800006 4292677896
-0.018296229 -0.064375617 0.77800006 4292809235
-0.016897403 -0.064210124 0.77600002 4293796130
-0.015545608 -0.064210124 0.77600002 4293273379
-0.014193818 -0.064210124 0.77600002 4293273379
-0.012808928 -0.064044639 0.77400005 4293533737
-0.01146062 -0.064044639 0.77400005 4293599530
-0.010112311 -0.064044639 0.77400005 4293466411
-0.0087640025 -0.064044639 0.77400005 4293663790
-0.0074156951 -0.064044639 0.77400005 4293404715
-0.0060830647 -0.064210124 0.77600002 4293141800
-0.0047312723 -0.064210124 0.77600002 4293273129
-0.0033794802 -0.064210124 0.77600002 4293141800
-0.0020276881 -0.064210124 0.77600002 4293467940
-0.00067589607 -0.064210124 0.77600002 4293467940
0.00067589607 -0.064210124 0.77600002 4293598244
0.0020224622 -0.064044639 0.77400005 4293401122
0.0033707705 -0.064044639 0.77400005 4293466147
0.0047190785 -0.064044639 0.77400005 4293597733
0.0060673868 -0.064044639 0.77400005 4293008415
0.0074156951 -0.064044639 0.77400005 4292942366
0.0087526804 -0.063961893 0.77300006 4292874535
0.010099247 -0.063961893 0.77300006 4292808742
0.011445812 -0.063961893 0.77300006 4292547108
0.012792379 -0.063961893 0.77300006 4292481315
0.014138945 -0.063961893 0.77300006 4292547875
0.015485511 -0.063961893 0.77300006 4292153117
0.016832076 -0.063961893 0.77300006 4292283420
0.018178644 -0.063961893 0.77300006 4292349213
0.019474691 -0.063796401 0.77100003 4292022551
0.020817773 -0.063796401 0.77100003 4292022551
0.022160854 -0.063796401 0.77100003 4291892260
0.023503937 -0.063796401 0.77100003 4291299866
0.024847019 -0.063796401 0.77100003 4291495714
0.0261901 -0.063796401 0.77100003 4291824679
0.027533185 -0.063796401 0.77100003 4291564310
0.028876266 -0.063796401 0.77100003 4291498517
0.030140961 -0.063630916 0.76900005 4291760154
0.031480554 -0.063630916 0.76900005 4292023326
0.032905515 -0.063796401 0.77100003 4291892246
0.034248594 -0.063796401 0.77100003 4291892246
0.035591677 -0.063796401 0.77100003 4292023064
0.036934759 -0.063796401 0.77100003 4291957271
0.046095937 -0.063465424 0.76700002 4292677913
0.04743205 -0.063465424 0.76700002 4293138464
0.048768166 -0.063465424 0.76700002 4292745257
0.050104279 -0.063465424 0.76700002 4292613414
0.051708661 -0.063796401 0.77100003 4292744988
0.052914128 -0.063630916 0.76900005 4292744988
0.054253727 -0.063630916 0.76900005 4292810264
0.055593323 -0.063630916 0.76900005 4293073436
0.056932922 -0.063630916 0.76900005 4292875819
0.058272522 -0.063630916 0.76900005 4292810025
0.059612118 -0.063630916 0.76900005 4293009971
0.060793195 -0.063465424 0.76700002 4293207350
0.062129308 -0.063465424 0.76700002 4292946506
0.063465424 -0.063465424 0.76700002 4291499060
0.064801537 -0.063465424 0.76700002 4292413475
0.066137649 -0.063465424 0.76700002 4292742184
0.067473762 -0.063465424 0.76700002 4292481324
0.068809874 -0.063465424 0.76700002 4292415531
0.070145994 -0.063465424 0.76700002 4292349477
0.071482107 -0.063465424 0.76700002 4292152354
0.07281822 -0.063465424 0.76700002 4292348443
0.074154332 -0.063465424 0.76700002 4292217114
0.075490452 -0.063465424 0.76700002 4292346396
0.076826565 -0.063465424 0.76700002 4292412190
0.078162678 -0.063465424 0.76700002 4292215580
0.079395145 -0.063382678 0.76600003 4292018201
0.080729514 -0.063382678 0.76600003 4292083741
0.082063884 -0.063382678 0.76600003 4292149278
0.08339826 -0.063382678 0.76600003 4292280346
0.084511399 -0.063217185 0.76400006 4292280346
0.085842289 -0.063217185 0.76400006 4291953935
0.087173179 -0.063217185 0.76400006 4291625226
0.088504061 -0.063217185 0.76400006 4291888412
0.089834951 -0.063217185 0.76400006 4291954206
0.090927184 -0.063051693 0.76200002 4292149270
0.092254587 -0.063051693 0.76200002 4292214807
0.093581989 -0.063051693 0.76200002 4292019480
0.094909392 -0.063051693 0.76200002 4291953687
0.096236803 -0.063051693 0.76200002 4292019480
0.097564198 -0.063051693 0.76200002 4292019480
0.098761834 -0.062968954 0.76100004 4292149522
0.10008749 -0.062968954 0.76100004 4292149522
0.10141315 -0.062968954 0.76100004 4292150035
0.10273882 -0.062968954 0.76100004 4292347415
0.10406448 -0.062968954 0.76100004 4292085787
0.10539015 -0.062968954 0.76100004 4292085787
0.1067158 -0.062968954 0.76100004 4292348443
0.10804147 -0.062968954 0.76100004 4292480029
0.10936712 -0.062968954 0.76100004 4291890688
0.11069279 -0.062968954 0.76100004 4290707456
0.11172406 -0.062803462 0.75900006 4291382792
0.11304624 -0.062803462 0.75900006 4294943067
0.11436841 -0.062803462 0.75900006 4294159981
0.1156906 -0.062803462 0.75900006 4293896808
0.11670443 -0.06263797 0.75700003 4294159451
0.11802313 -0.06263797 0.75700003 4294882918
0.11918417 -0.062555231 0.75600004 4294621549
0.12018233 -0.062389731 0.75400001 4294621549
0.12149581 -0.062389731 0.75400001 4294292084
0.12232064 -0.0621415 0.75100005 4294357877
0.12362888 -0.0621415 0.75100005 4294555756
0.12493712 -0.0621415 0.75100005 4294489707
0.12624536 -0.0621415 0.75100005 4294685543
0.12755361 -0.0621415 0.75100005 4294949744
0.12886184 -0.0621415 0.75100005 4294950246
0.13017009 -0.0621415 0.75100005 4294226780
0.13147834 -0.0621415 0.75100005 4294487910
0.13243294 -0.061976008 0.74900001 4294290788
0.1337377 -0.061976008 0.74900001 4294553173
0.13504246 -0.061976008 0.74900001 4294948703
0.13634722 -0.061976008 0.74900001 4294818149
0.13765198 -0.061976008 0.74900001 4294620513
0.13895674 -0.061976008 0.74900001 4294553442
0.1402615 -0.061976008 0.74900001 4294553442
0.14118825 -0.061810523 0.74700004 4294750566
0.14248951 -0.061810523 0.74700004 4294750566
0.1437908 -0.061810523 0.74700004 4294685797
0.14509207 -0.061810523 0.74700004 4294882920
0.14639334 -0.061810523 0.74700004 4294818410
0.14769462 -0.061810523 0.74700004 4294621288
0.14899589 -0.061810523 0.74700004 4294686311
0.15029716 -0.061810523 0.74700004 4294817897
0.15159844 -0.061810523 0.74700004 4294883690
0.15289971 -0.061810523 0.74700004 4294686311
0.15420099 -0.061810523 0.74700004 4294554989
0.15529409 -0.061727777 0.74600005 4294883953
0.15659362 -0.061727777 0.74600005 4294622328
0.15789317 -0.061727777 0.74600005 4294688122
0.1591927 -0.061727777 0.74600005 4294294394
0.16006194 -0.061562285 0.74400002 4291531088
0.161358 -0.061562285 0.74400002 4291530254
0.16309129 -0.061727777 0.74600005 4290674946
0.16439082 -0.061727777 0.74600005 4290019623
0.16569035 -0.061727777 0.74600005 4290808883
0.16654219 -0.061562285 0.74400002 4291860028
0.16783823 -0.061562285 0.74400002 4292320579
0.16913427 -0.061562285 0.74400002 4291796312
0.17043032 -0.061562285 0.74400002 4292585827
0.17172638 -0.061562285 0.74400002 4291929447
0.17302243 -0.061562285 0.74400002 4292652913
0.17408417 -0.061479546 0.74300003 4292192625
0.17537849 -0.061479546 0.74300003 4291995503
0.17667279 -0.061479546 0.74300003 4292060251
0.1779671 -0.061479546 0.74300003 4293178476
0.1792614 -0.061479546 0.74300003 4292587624
0.18055572 -0.061479546 0.74300003 4292785003
0.18185 -0.061479546 0.74300003 4293374574
0.18314432 -0.061479546 0.74300003 4293769331
0.18443862 -0.061479546 0.74300003 4293704059
0.18573293 -0.061479546 0.74300003 4293440630
0.18652381 -0.061314054 0.74100006 4292980083
0.18781462 -0.061314054 0.74100006 4293111669
0.18910545 -0.061314054 0.74100006 4294030975
0.19039626 -0.061314054 0.74100006 4294425733
0.19168709 -0.061314054 0.74100006 4294951310
0.19245705 -0.061148562 0.73900002 4294622344
0.19374439 -0.061148562 0.73900002 4294622328
0.19503173 -0.061148562 0.73900002 4294885500
0.19631906 -0.061148562 0.73900002 4294621831
0.1976064 -0.061148562 0.73900002 4294489988
0.19889374 -0.061148562 0.73900002 4294162813
0.20018108 -0.061148562 0.73900002 4294294142
0.20146842 -0.061148562 0.73900002 4294426246
0.2024814 -0.061065815 0.73800004 4294031488
0.20376699 -0.061065815 0.73800004 4293113466
0.20505258 -0.061065815 0.73800004 4294958754
-0.02771174 -0.062858328 0.77600002 4283184640
-0.026359946 -0.062858328 0.77600002 4291428352
-0.025072608 -0.063020341 0.77800006 4294121751
-0.023717333 -0.063020341 0.77800006 4292616498
-0.022362057 -0.063020341 0.77800006 4292353070
-0.021006782 -0.063020341 0.77800006 4292679709
-0.019651504 -0.063020341 0.77800006 4293140260
-0.018296229 -0.063020341 0.77800006 4292877869
-0.016853852 -0.06269633 0.77400005 4293470007
-0.015505545 -0.06269633 0.77400005 4293012258
-0.014157237 -0.06269633 0.77400005 4293012258
-0.012808928 -0.06269633 0.77400005 4293076005
-0.01146062 -0.06269633 0.77400005 4292878369
-0.010112311 -0.06269633 0.77400005 4292877860
-0.0087640025 -0.06269633 0.77400005 4292746018
-0.0074156951 -0.06269633 0.77400005 4293009178
-0.0060673868 -0.06269633 0.77400005 4293206557
-0.0047190785 -0.06269633 0.77400005 4292879121
-0.0033664154 -0.062615328 0.77300006 4292813328
-0.0020198494 -0.062615328 0.77300006 4292944137
-0.00067415409 -0.06269633 0.77400005 4292944137
0.00067415409 -0.06269633 0.77400005 4293007116
0.0020224622 -0.06269633 0.77400005 4293204494
0.0033664154 -0.062615328 0.77300006 4292876563
0.0047129816 -0.062615328 0.77300006 4293073686
0.0060595479 -0.062615328 0.77300006 4292809485
0.0074061137 -0.062615328 0.77300006 4292875278
0.0087526804 -0.062615328 0.77300006 4292677926
0.010073116 -0.062453318 0.77100003 4292612133
0.011416198 -0.062453318 0.77100003 4292677926
0.01275928 -0.062453318 0.77100003 4292677926
0.014102362 -0.062453318 0.77100003 4292611620
0.015445444 -0.062453318 0.77100003 4292348191
0.016788527 -0.062453318 0.77100003 4292546338
0.020763772 -0.062291317 0.76900005 4292611618
0.022103371 -0.062291317 0.76900005 4292414757
0.023442967 -0.062291317 0.76900005 4292151328
0.024782566 -0.062291317 0.76900005 4292086066
0.026122164 -0.062291317 0.76900005 4292678460
0.027461763 -0.062291317 0.76900005 4292090917
0.028801359 -0.062291317 0.76900005 4292156711
0.030140961 -0.062291317 0.76900005 4292222742
0.031480554 -0.062291317 0.76900005 4292222742
0.032820158 -0.062291317 0.76900005 4292157462
0.034159753 -0.062291317 0.76900005 4292157462
0.043367095 -0.062048309 0.76600003 4292416301
0.044701468 -0.062048309 0.76600003 4292153129
0.046035841 -0.062048309 0.76600003 4292547864
0.04737021 -0.062048309 0.76600003 4292547864
0.048704583 -0.062048309 0.76600003 4292414757
0.050104279 -0.062129308 0.76700002 4292283170
0.051574532 -0.062291317 0.76900005 4292415520
0.052914128 -0.062291317 0.76900005 4292283933
0.054253727 -0.062291317 0.76900005 4292546838
0.055593323 -0.062291317 0.76900005 4292810266
0.056932922 -0.062291317 0.76900005 4292416814
0.058272522 -0.062291317 0.76900005 4292351021
0.059457079 -0.062129308 0.76700002 4292348443
0.060793195 -0.062129308 0.76700002 4292414236
0.062129308 -0.062129308 0.76700002 4292414516
0.063465424 -0.062129308 0.76700002 4292480565
0.064801537 -0.062129308 0.76700002 4292218920
0.066051416 -0.062048309 0.76600003 4292021797
0.067385793 -0.062048309 0.76600003 4292285230
0.068720162 -0.062048309 0.76600003 4292153901
0.070054531 -0.062048309 0.76600003 4292347943
0.071388908 -0.062048309 0.76600003 4292216614
0.072723284 -0.062048309 0.76600003 4292413986
0.074057654 -0.062048309 0.76600003 4292348193
0.07539203 -0.062048309 0.76600003 4292413986
0.076726399 -0.062048309 0.76600003 4292413986
0.077856958 -0.061886299 0.76400006 4292281124
0.079187848 -0.061886299 0.76400006 4292018207
0.080518737 -0.061886299 0.76400006 4292280352
0.082962759 -0.061724294 0.76200002 4292411678
0.084290162 -0.061724294 0.76200002 4292345885
0.085617565 -0.061724294 0.76200002 4292215299
0.086944975 -0.061724294 0.76200002 4292346885
0.088156536 -0.061643288 0.76100004 4292020764
0.089482196 -0.061643288 0.76100004 4291954971
0.090807855 -0.061643288 0.76100004 4292086807
0.092133522 -0.061643288 0.76100004 4292021014
0.093459181 -0.061643288 0.76100004 4292021268
0.094784841 -0.061643288 0.76100004 4291889425
0.096110508 -0.061643288 0.76100004 4291954961
0.097436167 -0.061643288 0.76100004 4291954961
0.098502278 -0.061481286 0.75900006 4292086275
0.099824451 -0.061481286 0.75900006 4292152324
0.10114663 -0.061481286 0.75900006 4292021268
0.10246881 -0.061481286 0.75900006 4292087061
0.10379099 -0.061481286 0.75900006 4292086307
0.10511316 -0.061481286 0.75900006 4291954721
0.10643534 -0.061481286 0.75900006 4292149531
0.10775752 -0.061481286 0.75900006 4292083738
0.1090797 -0.061481286 0.75900006 4291757824
0.11040188 -0.061481286 0.75900006 4291035136
0.11172406 -0.061481286 0.75900006 4290984192
0.11304624 -0.061481286 0.75900006 4294942044
0.11406704 -0.061319277 0.75700003 4294686827
0.11538574 -0.061319277 0.75700003 4294423654
0.11655027 -0.061238278 0.75600004 4294423389
0.11786722 -0.061238278 0.75600004 4294620767
0.11886886 -0.061076269 0.75400001 4294555493
0.12018233 -0.061076269 0.75400001 4294489699
0.12117354 -0.060914263 0.75200003 4294225776
0.12232064 -0.06083326 0.75100005 4294094190
0.12329964 -0.060671248 0.74900001 4294225774
0.1246044 -0.060671248 0.74900001 4294357359
0.12590916 -0.060671248 0.74900001 4294685543
0.12721393 -0.060671248 0.74900001 4294882922
0.12851869 -0.060671248 0.74900001 4294554459
0.12982343 -0.060671248 0.74900001 4294422617
0.13112818 -0.060671248 0.74900001 4294291303
0.13243294 -0.060671248 0.74900001 4294225254
0.1337377 -0.060671248 0.74900001 4294356816
0.13468188 -0.060509246 0.74700004 4294817367
0.13598314 -0.060509246 0.74700004 4294620767
0.13728441 -0.060509246 0.74700004 4294291803
0.1385857 -0.060509246 0.74700004 4294553705
0.13988698 -0.060509246 0.74700004 4294553705
0.14118825 -0.060509246 0.74700004 4294554207
0.14248951 -0.060509246 0.74700004 4294620000
0.1437908 -0.060509246 0.74700004 4294620515
0.14509207 -0.060509246 0.74700004 4294686309
0.14639334 -0.060509246 0.74700004 4294357346
0.14769462 -0.060509246 0.74700004 4294291553
0.14899589 -0.060509246 0.74700004 4294488182
0.15029716 -0.060509246 0.74700004 4294751098
0.15159844 -0.060509246 0.74700004 4294818147
0.15269503 -0.060428247 0.74600005 4294686560
0.15399456 -0.060428247 0.74600005 4294489711
0.15529409 -0.060428247 0.74600005 4294226539
0.1561738 -0.060266238 0.74400002 4294357877
0.15746985 -0.060266238 0.74400002 4294357877
0.15876588 -0.060266238 0.74400002 4294424184
0.16006194 -0.060266238 0.74400002 4294950528
0.161358 -0.060266238 0.74400002 4294492791
0.16265404 -0.060266238 0.74400002 4294492791
0.16395009 -0.060266238 0.74400002 4294427014
0.16524613 -0.060266238 0.74400002 4294361221
0.16631834 -0.060185231 0.74300003 4294557298
0.16761264 -0.060185231 0.74300003 4294623092
0.16913427 -0.060266238 0.74400002 4294162559
0.17043032 -0.060266238 0.74400002 4293899386
0.17172638 -0.060266238 0.74400002 4293768050
0.17278987 -0.060185231 0.74300003 4293373292
0.17408417 -0.060185231 0.74300003 4293898853
0.17537849 -0.060185231 0.74300003 4293898853
0.17667279 -0.060185231 0.74300003 4293966181
0.1779671 -0.060185231 0.74300003 4294426732
0.1792614 -0.060185231 0.74300003 4294230386
0.18006968 -0.06002323 0.74100006 4294164593
0.18136051 -0.06002323 0.74100006 4294295666
0.18314432 -0.060185231 0.74300003 4294426996
0.18443862 -0.060185231 0.74300003 4294427266
0.18573293 -0.060185231 0.74300003 4294690181
0.18652381 -0.06002323 0.74100006 4294558866
0.18781462 -0.06002323 0.74100006 4294493072
0.18910545 -0.06002323 0.74100006 4294492039
0.19039626 -0.06002323 0.74100006 4294426246
0.19116971 -0.059861224 0.73900002 4294622342
0.19245705 -0.059861224 0.73900002 4294556549
0.19374439 -0.059861224 0.73900002 4294490490
0.19503173 -0.059861224 0.73900002 4294556283
0.19631906 -0.059861224 0.73900002 4294556798
0.1976064 -0.059861224 0.73900002 4294359676
0.19889374 -0.059861224 0.73900002 4294229121
0.20018108 -0.059861224 0.73900002 4294294915
0.20119581 -0.059780221 0.73800004 4294426246
0.2024814 -0.059780221 0.73800004 4294228867
0.20321478 -0.059618216 0.73600006 4293441664
0.20449691 -0.059618216 0.73600006 4294956445
0.2054994 -0.059537213 0.73500001 4294963436
0.20677976 -0.059537213 0.73500001 4294966006
-0.028951174 -0.061268758 0.77300006 4294949545
-0.027640317 -0.061348021 0.77400005 4285471498
-0.026292009 -0.061348021 0.77400005 4292083712
-0.025008155 -0.061506543 0.77600002 4294645524
-0.023656361 -0.061506543 0.77600002 4292681008
-0.02230457 -0.061506543 0.77600002 4292483373
-0.020952778 -0.061506543 0.77600002 4292549159
-0.019550469 -0.061348021 0.77400005 4292614952
-0.01820216 -0.061348021 0.77400005 4292548909
-0.016832076 -0.061268758 0.77300006 4292548909
-0.015485511 -0.061268758 0.77300006 4292550944
-0.014138945 -0.061268758 0.77300006 4292419102
-0.012792379 -0.061268758 0.77300006 4292154660
-0.011445812 -0.061268758 0.77300006 4291891744
-0.010099247 -0.061268758 0.77300006 4292349477
-0.0087526804 -0.061268758 0.77300006 4292283683
-0.0074061137 -0.061268758 0.77300006 4292346646
-0.0060595479 -0.061268758 0.77300006 4292280853
-0.0047129816 -0.061268758 0.77300006 4292150787
-0.0033664154 -0.061268758 0.77300006 4291887872
-0.0020198494 -0.061268758 0.77300006 4292149504
-0.00067328312 -0.061268758 0.77300006 4292149504
0.00067328312 -0.061268758 0.77300006 4292214784
0.0020146233 -0.061110236 0.77100003 4293529612
0.0033577052 -0.061110236 0.77100003 4292547369
0.0047007874 -0.061110236 0.77100003 4292613418
0.0060438695 -0.061110236 0.77100003 4292347930
0.0073869512 -0.061110236 0.77100003 4293137445
0.0087300343 -0.061110236 0.77100003 4292812076
0.010073116 -0.061110236 0.77100003 4292614698
0.011386584 -0.060951717 0.76900005 4292942370
0.014029198 -0.060793195 0.76700002 4292875807
0.015405378 -0.060951717 0.76900005 4293204772
0.016701426 -0.060793195 0.76700002 4293010212
0.018037539 -0.060793195 0.76700002 4293010212
0.019373653 -0.060793195 0.76700002 4293271328
0.020709768 -0.060793195 0.76700002 4293468964
0.022045882 -0.060793195 0.76700002 4293338409
0.023381997 -0.060793195 0.76700002 4292943651
0.024718111 -0.060793195 0.76700002 4292877106
0.026054224 -0.060793195 0.76700002 4292942899
0.027390338 -0.060793195 0.76700002 4292814654
0.028726451 -0.060793195 0.76700002 4292419897
0.030062566 -0.060793195 0.76700002 4292287265
0.03139868 -0.060793195 0.76700002 4292221472
0.032734796 -0.060793195 0.76700002 4292354344
0.034070909 -0.060793195 0.76700002 4292222758
0.035360862 -0.060713932 0.76600003 4292354344
0.036695234 -0.060713932 0.76600003 4291762207
0.040698349 -0.060713932 0.76600003 4292285732
0.042032722 -0.060713932 0.76600003 4291956767
0.043367095 -0.060713932 0.76600003 4292347941
0.044701468 -0.060713932 0.76600003 4292479527
0.046035841 -0.060713932 0.76600003 4292349213
0.04737021 -0.060713932 0.76600003 4292415006
0.048704583 -0.060713932 0.76600003 4291887370
0.050038952 -0.060713932 0.76600003 4292281871
0.051440395 -0.060793195 0.76700002 4292087070
0.052776508 -0.060793195 0.76700002 4291955484
0.054112624 -0.060793195 0.76700002 4291954961
0.055448737 -0.060793195 0.76700002 4292217877
0.05678485 -0.060793195 0.76700002 4291890209
0.058120966 -0.060793195 0.76700002 4291692830
0.059379559 -0.060713932 0.76600003 4291957269
0.060713932 -0.060713932 0.76600003 4292154649
0.062048309 -0.060713932 0.76600003 4292023076
0.063382678 -0.060713932 0.76600003 4292088869
0.064717047 -0.060713932 0.76600003 4292089121
0.066051416 -0.060713932 0.76600003 4292154914
0.067385793 -0.060713932 0.76600003 4292154660
0.068540744 -0.06055541 0.76400006 4292023074
0.069871634 -0.06055541 0.76400006 4292481063
0.071202517 -0.06055541 0.76400006 4292546856
0.072533406 -0.06055541 0.76400006 4292545824
0.073864296 -0.06055541 0.76400006 4292414238
0.07539203 -0.060713932 0.76600003 4292479779
0.076726399 -0.060713932 0.76600003 4292545573
0.077856958 -0.06055541 0.76400006 4292745520
0.079187848 -0.06055541 0.76400006 4292613678
0.081528224 -0.060317632 0.76100004 4292613916
0.082853884 -0.060317632 0.76100004 4292812578
0.084179543 -0.060317632 0.76100004 4291957269
0.08550521 -0.060317632 0.76100004 4292478475
0.086830869 -0.060317632 0.76100004 4292807184
0.088156536 -0.060317632 0.76100004 4292216362
0.089482196 -0.060317632 0.76100004 4291952933
0.090807855 -0.060317632 0.76100004 4292149531
0.092133522 -0.060317632 0.76100004 4292347167
0.093459181 -0.060317632 0.76100004 4292085787
0.094784841 -0.060317632 0.76100004 4291756822
0.095857918 -0.06015911 0.75900006 4291953422
0.097180091 -0.06015911 0.75900006 4292019471
