# .PCD v0.7 - Point Cloud Data file format
VERSION 0.7
FIELDS x y z rgba
SIZE 4 4 4 4
TYPE F F F U
COUNT 1 1 1 1
WIDTH 1018
HEIGHT 1
VIEWPOINT 0 0 0 1 0 0 0
POINTS 1018
DATA ascii
0.04855651 -0.032160807 0.72400004 4285816382
0.049817722 -0.032160807 0.72400004 4285355831
0.050937831 -0.032071967 0.72200006 4284696880
0.052195556 -0.032071967 0.72200006 4284499757
0.053453278 -0.032071967 0.72200006 4283189049
0.054635223 -0.032027543 0.72100002 4280491792
0.055891201 -0.032027543 0.72100002 4279045376
0.057147186 -0.032027543 0.72100002 4279176960
0.058403168 -0.032027543 0.72100002 4279963904
0.059493657 -0.031938702 0.71900004 4280884992
0.060746159 -0.031938702 0.71900004 4280558348
0.061998662 -0.031938702 0.71900004 4279176704
0.063251153 -0.031938702 0.71900004 4279175178
0.064413942 -0.031894282 0.71800005 4279109385
0.065664701 -0.031894282 0.71800005 4279897344
0.066915452 -0.031894282 0.71800005 4280226052
0.068166211 -0.031894282 0.71800005 4280226317
0.069223605 -0.031805441 0.71600002 4279831559
0.070470877 -0.031805441 0.71600002 4279897344
0.071718149 -0.031805441 0.71600002 4279897344
0.072965421 -0.031805441 0.71600002 4279765760
0.074212693 -0.031805441 0.71600002 4279699968
0.075670749 -0.031894282 0.71800005 4279766272
0.0769215 -0.031894282 0.71800005 4279832064
0.078281134 -0.031938702 0.71900004 4279832832
0.079533629 -0.031938702 0.71900004 4280096256
0.081010848 -0.032027543 0.72100002 4279636224
0.08226683 -0.032027543 0.72100002 4279373056
0.083522812 -0.032027543 0.72100002 4281275648
0.084778793 -0.032027543 0.72100002 4282460161
0.086034775 -0.032027543 0.72100002 4286533123
0.087411828 -0.032071967 0.72200006 4288441120
0.088669553 -0.032071967 0.72200006 4287919181
0.090176381 -0.032160807 0.72400004 4287260994
0.091816477 -0.032294072 0.72700006 4286866990
0.09321095 -0.032338493 0.72800004 4287327541
0.094738677 -0.032427333 0.73000002 4287655228
0.09614186 -0.032471754 0.73100001 4287457848
0.097681791 -0.032560598 0.73300004 4286865444
0.035497613 -0.031625144 0.74100006 4286076947
0.036689136 -0.031539787 0.73900002 4285945377
0.037925087 -0.031497106 0.73800004 4285813791
0.039104421 -0.031411748 0.73600006 4285616426
0.040331658 -0.031369068 0.73500001 4285550633
0.041612029 -0.031369068 0.73500001 4285616407
0.04265897 -0.031198351 0.73100001 4285353236
0.043872274 -0.031155672 0.73000002 4285024802
0.044958413 -0.031027636 0.72700006 4284893216
0.046224847 -0.031027636 0.72700006 4284762393
0.047360629 -0.030942278 0.72500002 4284762393
0.04855651 -0.030899599 0.72400004 4284960281
0.049817722 -0.030899599 0.72400004 4285026074
0.050937831 -0.030814242 0.72200006 4284367136
0.052195556 -0.030814242 0.72200006 4284498722
0.053453278 -0.030814242 0.72200006 4284173616
0.054711003 -0.030814242 0.72200006 4284897595
0.055891201 -0.030771563 0.72100002 4284503296
0.057147186 -0.030771563 0.72100002 4283187456
0.058403168 -0.030771563 0.72100002 4283908620
0.059659149 -0.030771563 0.72100002 4284632342
0.060915135 -0.030771563 0.72100002 4282921234
0.061998662 -0.030686205 0.71900004 4281079040
0.063251153 -0.030686205 0.71900004 4280750110
0.064503655 -0.030686205 0.71900004 4280026388
0.06575615 -0.030686205 0.71900004 4280092928
0.067008652 -0.030686205 0.71900004 4280487680
0.068261147 -0.030686205 0.71900004 4280159003
0.06941697 -0.030643526 0.71800005 4279501329
0.070667721 -0.030643526 0.71800005 4279697408
0.07191848 -0.030643526 0.71800005 4279828736
0.073169231 -0.030643526 0.71800005 4280549376
0.074419998 -0.030643526 0.71800005 4281272582
0.075670749 -0.030643526 0.71800005 4281668096
0.0769215 -0.030643526 0.71800005 4282655238
0.078281134 -0.030686205 0.71900004 4282988288
0.079754867 -0.030771563 0.72100002 4283712000
0.081010848 -0.030771563 0.72100002 4284895744
0.08226683 -0.030771563 0.72100002 4285356288
0.083522812 -0.030771563 0.72100002 4286340676
0.084778793 -0.030771563 0.72100002 4287130192
0.086034775 -0.030771563 0.72100002 4286801449
0.087411828 -0.030814242 0.72200006 4286604327
0.088669553 -0.030814242 0.72200006 4286537257
0.090550043 -0.031027636 0.72700006 4286274342
0.092195362 -0.031155672 0.73000002 4286537759
0.093467019 -0.031155672 0.73000002 4286669346
0.094868451 -0.031198351 0.73100001 4286798897
0.09614186 -0.031198351 0.73100001 4286733103
0.097681791 -0.031283714 0.73300004 4286142738
0.038079254 -0.030334322 0.74100006 4285550885
0.039263815 -0.030252445 0.73900002 4285485353
0.040496279 -0.030211508 0.73800004 4285485353
0.041668646 -0.030129636 0.73600006 4285092126
0.042775687 -0.030006822 0.73300004 4284960540
0.043932371 -0.029924948 0.73100001 4284828186
0.045143936 -0.029884012 0.73000002 4284499478
0.046224847 -0.029761203 0.72700006 4284565523
0.047491282 -0.029761203 0.72700006 4284565523
0.04862358 -0.029679328 0.72500002 4284631062
0.049886528 -0.029679328 0.72500002 4284565269
0.05107893 -0.029638389 0.72400004 4284301079
0.052340139 -0.029638389 0.72400004 4284366872
0.053601347 -0.029638389 0.72400004 4284303128
0.054862555 -0.029638389 0.72400004 4285092643
0.055968724 -0.029556518 0.72200006 4285420591
0.057226449 -0.029556518 0.72200006 4285091626
0.058484174 -0.029556518 0.72200006 4285091624
0.059659149 -0.029515579 0.72100002 4285025831
0.060915135 -0.029515579 0.72100002 4283974174
0.062171113 -0.029515579 0.72100002 4283711259
0.063427091 -0.029515579 0.72100002 4283645225
0.06468308 -0.029515579 0.72100002 4283448103
0.06575615 -0.029433707 0.71900004 4282920484
0.067008652 -0.029433707 0.71900004 4282591520
0.068261147 -0.029433707 0.71900004 4282002951
0.069513649 -0.029433707 0.71900004 4281147904
0.070766144 -0.029433707 0.71900004 4281275648
0.072018646 -0.029433707 0.71900004 4281999616
0.07327114 -0.029433707 0.71900004 4283114752
0.074419998 -0.02939277 0.71800005 4283378181
0.075670749 -0.02939277 0.71800005 4284299786
0.077028632 -0.029433707 0.71900004 4284365580
0.078281134 -0.029433707 0.71900004 4283907586
0.079754867 -0.029515579 0.72100002 4284960531
0.081010848 -0.029515579 0.72100002 4285880588
0.08226683 -0.029515579 0.72100002 4286998812
0.083522812 -0.029515579 0.72100002 4287063881
0.084896386 -0.029556518 0.72200006 4286800966
0.086154111 -0.029556518 0.72200006 4286473268
0.087653965 -0.029638389 0.72400004 4285946924
0.089037985 -0.029679328 0.72500002 4285879582
0.090550043 -0.029761203 0.72700006 4286405926
0.092195362 -0.029884012 0.73000002 4286603051
0.093467019 -0.029884012 0.73000002 4286340135
0.094868451 -0.029924948 0.73100001 4286601256
0.09614186 -0.029924948 0.73100001 4286667049
0.038079254 -0.029043498 0.74100006 4285484835
0.039370079 -0.029043498 0.74100006 4285222179
0.040496279 -0.028925914 0.73800004 4285288228
0.041781873 -0.028925914 0.73800004 4285354001
0.0428924 -0.028808327 0.73500001 4285222672
0.044052571 -0.028729938 0.73300004 4284960281
0.045205776 -0.028651547 0.73100001 4284631316
0.046415593 -0.028612353 0.73000002 4284433685
0.047491282 -0.02849477 0.72700006 4284367635
0.048757717 -0.02849477 0.72700006 4284237069
0.049886528 -0.028416377 0.72500002 4283842568
0.05114948 -0.028416377 0.72500002 4284105231
0.052412432 -0.028416377 0.72500002 4283973645
0.053675383 -0.028416377 0.72500002 4283842304
0.054938328 -0.028416377 0.72500002 4283908096
0.056123763 -0.028377183 0.72400004 4284104983
0.057226449 -0.028298793 0.72200006 4284697120
0.058484174 -0.028298793 0.72200006 4284828970
0.059741896 -0.028298793 0.72200006 4284763177
0.060999621 -0.028298793 0.72200006 4284172562
0.062171113 -0.028259596 0.72100002 4283843340
0.063427091 -0.028259596 0.72100002 4283646747
0.06468308 -0.028259596 0.72100002 4284041505
0.065939061 -0.028259596 0.72100002 4284107321
0.067195043 -0.028259596 0.72100002 4284304956
0.068451025 -0.028259596 0.72100002 4284240128
0.069513649 -0.02818121 0.71900004 4284766468
0.070766144 -0.02818121 0.71900004 4284436511
0.072018646 -0.02818121 0.71900004 4284765475
0.07327114 -0.02818121 0.71900004 4284698908
0.074523643 -0.02818121 0.71900004 4284698908
0.075776137 -0.02818121 0.71900004 4285092389
0.077028632 -0.02818121 0.71900004 4285224232
0.078498878 -0.028259596 0.72100002 4285092389
0.079754867 -0.028259596 0.72100002 4284961060
0.081010848 -0.028259596 0.72100002 4285485580
0.082380936 -0.028298793 0.72200006 4286077460
0.083638661 -0.028298793 0.72200006 4285747996
0.084896386 -0.028298793 0.72200006 4285682203
0.086392753 -0.028377183 0.72400004 4285551146
0.088017173 -0.02849477 0.72700006 4285551146
0.089283615 -0.02849477 0.72700006 4285813298
0.090923697 -0.028612353 0.73000002 4286339642
0.092321657 -0.028651547 0.73100001 4286340133
0.093851134 -0.028729938 0.73300004 4286340133
0.095128015 -0.028729938 0.73300004 4286471231
0.096404903 -0.028729938 0.73300004 4286865988
0.038182031 -0.027827581 0.74300003 4285353767
0.039370079 -0.027752677 0.74100006 4285026081
0.040551152 -0.027677769 0.73900002 4284960288
0.041781873 -0.027640317 0.73800004 4285026074
0.042950757 -0.027565412 0.73600006 4284960281
0.044172768 -0.027527958 0.73500001 4284632090
0.045329459 -0.027453052 0.73300004 4284632090
0.046479177 -0.027378146 0.73100001 4284303378
0.047556605 -0.027265789 0.72800004 4284171791
0.048757717 -0.027228335 0.72700006 4284171530
0.050024152 -0.027228335 0.72700006 4284039688
0.05114948 -0.027153427 0.72500002 4284105231
0.052412432 -0.027153427 0.72500002 4284039438
0.053675383 -0.027153427 0.72500002 4283777284
0.054938328 -0.027153427 0.72500002 4283711490
0.056123763 -0.027115975 0.72400004 4284038925
0.057384972 -0.027115975 0.72400004 4284499476
0.058646176 -0.027115975 0.72400004 4284304163
0.059741896 -0.02704107 0.72200006 4284304163
0.060999621 -0.02704107 0.72200006 4284369436
0.062257346 -0.02704107 0.72200006 4283843092
0.063515067 -0.02704107 0.72200006 4283646227
0.064772792 -0.02704107 0.72200006 4283778069
0.066030517 -0.02704107 0.72200006 4283254310
0.067195043 -0.027003614 0.72100002 4283320360
0.068451025 -0.027003614 0.72100002 4283384326
0.069707006 -0.027003614 0.72100002 4284239379
0.070962988 -0.027003614 0.72100002 4283581971
0.072218969 -0.027003614 0.72100002 4284108315
0.073474951 -0.027003614 0.72100002 4283648026
0.07473094 -0.027003614 0.72100002 4284437798
0.075986922 -0.027003614 0.72100002 4284699432
0.077242896 -0.027003614 0.72100002 4284765225
0.078498878 -0.027003614 0.72100002 4284961837
0.079754867 -0.027003614 0.72100002 4284830508
0.081347927 -0.027115975 0.72400004 4285223698
0.082609132 -0.027115975 0.72400004 4285289491
0.083638661 -0.02704107 0.72200006 4285485589
0.084896386 -0.02704107 0.72200006 4285485589
0.086512081 -0.027153427 0.72500002 4285485603
0.088138245 -0.027265789 0.72800004 4285288224
0.089406416 -0.027265789 0.72800004 4285813800
0.090923697 -0.027340693 0.73000002 4286077229
0.092321657 -0.027378146 0.73100001 4286274340
0.093851134 -0.027453052 0.73300004 4286340133
0.095128015 -0.027453052 0.73300004 4286405687
0.096404903 -0.027453052 0.73300004 4286734652
0.033404596 -0.026854673 0.75200003 4286668294
0.03471458 -0.026854673 0.75200003 4286406691
0.03597666 -0.026818965 0.75100005 4285946140
0.037036669 -0.02664041 0.74600005 4285879593
0.038233418 -0.026568986 0.74400002 4285550885
0.039476339 -0.026533276 0.74300003 4285288228
0.040660899 -0.026461855 0.74100006 4285156386
0.041838486 -0.026390431 0.73900002 4284960281
0.042950757 -0.0262833 0.73600006 4284828438
0.044232871 -0.0262833 0.73600006 4284762897
0.045329459 -0.026176166 0.73300004 4284631568
0.046606343 -0.026176166 0.73300004 4284303378
0.047687255 -0.026069032 0.73000002 4284171791
0.048824783 -0.025997611 0.72800004 4284171530
0.050024152 -0.025961902 0.72700006 4284105481
0.05114948 -0.025890477 0.72500002 4283842579
0.052412432 -0.025890477 0.72500002 4283842579
0.053675383 -0.025890477 0.72500002 4283842579
0.054938328 -0.025890477 0.72500002 4283776530
0.056123763 -0.025854766 0.72400004 4283907336
0.057384972 -0.025854766 0.72400004 4284170765
0.058646176 -0.025854766 0.72400004 4284434698
0.059741896 -0.025783347 0.72200006 4284171526
0.060999621 -0.025783347 0.72200006 4283975178
0.062257346 -0.025783347 0.72200006 4284040971
0.063515067 -0.025783347 0.72200006 4283909135
0.064772792 -0.025783347 0.72200006 4283843342
0.066030517 -0.025783347 0.72200006 4283778078
0.067288242 -0.025783347 0.72200006 4283580956
0.068545967 -0.025783347 0.72200006 4283974928
0.069707006 -0.025747633 0.72100002 4284106515
0.070962988 -0.025747633 0.72100002 4283909915
0.072218969 -0.025747633 0.72100002 4283909915
0.073474951 -0.025747633 0.72100002 4284041507
0.074834585 -0.025783347 0.72200006 4284567851
0.075986922 -0.025747633 0.72100002 4284698908
0.077242896 -0.025747633 0.72100002 4284501272
0.078825511 -0.025854766 0.72400004 4284764462
0.080086716 -0.025854766 0.72400004 4284632620
0.081347927 -0.025854766 0.72400004 4285026576
0.082609132 -0.025854766 0.72400004 4285092369
0.083870344 -0.025854766 0.72400004 4285419796
0.085131548 -0.025854766 0.72400004 4285551382
0.086750738 -0.025961902 0.72700006 4285354273
0.088138245 -0.025997611 0.72800004 4285156638
0.089652039 -0.026069032 0.73000002 4285485353
0.090923697 -0.026069032 0.73000002 4285748525
0.092574246 -0.026176166 0.73300004 4286011684
0.093851134 -0.026176166 0.73300004 4286274855
0.095387571 -0.026247587 0.73500001 4286406201
0.096667938 -0.026247587 0.73500001 4286669629
0.033404596 -0.02554469 0.75200003 4286867735
0.03471458 -0.02554469 0.75200003 4286473000
0.03597666 -0.025510723 0.75100005 4285946655
0.037185606 -0.025442783 0.74900001 4286010680
0.038336199 -0.025340877 0.74600005 4285221420
0.039529469 -0.025272937 0.74400002 4285287976
0.040770642 -0.02523897 0.74300003 4285222183
0.041838486 -0.025103094 0.73900002 4284959775
0.04306747 -0.025069125 0.73800004 4284762395
0.044353064 -0.025069125 0.73800004 4284434966
0.045514982 -0.025001187 0.73600006 4284434966
0.04673351 -0.024967218 0.73500001 4284303119
0.047687255 -0.024797373 0.73000002 4283973897
0.048824783 -0.024729436 0.72800004 4284039438
0.050024152 -0.024695467 0.72700006 4283973645
0.051290583 -0.024695467 0.72700006 4283776530
0.052557018 -0.024695467 0.72700006 4283579407
0.053823452 -0.024695467 0.72700006 4283710990
0.054938328 -0.024627527 0.72500002 4283513612
0.056201279 -0.024627527 0.72500002 4283645184
0.057464227 -0.024627527 0.72500002 4284171526
0.058727182 -0.024627527 0.72500002 4284303391
0.059907388 -0.02459356 0.72400004 4284106013
0.061168596 -0.02459356 0.72400004 4283842579
0.062429801 -0.02459356 0.72400004 4283842579
0.063691005 -0.02459356 0.72400004 4283908631
0.064952224 -0.02459356 0.72400004 4283908631
0.066213429 -0.02459356 0.72400004 4284236570
0.067474633 -0.02459356 0.72400004 4284499741
0.068735838 -0.02459356 0.72400004 4284172312
0.069997057 -0.02459356 0.72400004 4284106519
0.071258262 -0.02459356 0.72400004 4284172062
0.072319143 -0.024525622 0.72200006 4284172062
0.073576868 -0.024525622 0.72200006 4284303643
0.075041883 -0.02459356 0.72400004 4284698658
0.076303095 -0.02459356 0.72400004 4284435229
0.077564299 -0.02459356 0.72400004 4284566816
0.078825511 -0.02459356 0.72400004 4284698667
0.080197334 -0.024627527 0.72500002 4284567081
0.081460282 -0.024627527 0.72500002 4284632090
0.082723238 -0.024627527 0.72500002 4284763677
0.083986185 -0.024627527 0.72500002 4284960281
0.085249133 -0.024627527 0.72500002 4285026074
0.086870067 -0.024729436 0.72800004 4285091876
0.088138245 -0.024729436 0.72800004 4285420841
0.089652039 -0.024797373 0.73000002 4285421093
0.091048248 -0.024831342 0.73100001 4285486886
0.092574246 -0.02489928 0.73300004 4286011684
0.094107203 -0.024967218 0.73500001 4286340648
0.095387571 -0.024967218 0.73500001 4286406705
0.096667938 -0.024967218 0.73500001 4286538291
0.033493433 -0.02429916 0.75400001 4289166622
0.03471458 -0.024234707 0.75200003 4287526188
0.036024563 -0.024234707 0.75200003 4285750033
0.037185606 -0.024138026 0.74900001 4285682743
0.038336199 -0.024041345 0.74600005 4284959277
0.039529469 -0.023976889 0.74400002 4285090093
0.040770642 -0.023944663 0.74300003 4285155886
0.041951723 -0.02388021 0.74100006 4284762914
0.043125827 -0.023815755 0.73900002 4284697120
0.044353064 -0.023783529 0.73800004 4284828692
0.045638662 -0.023783529 0.73800004 4284499728
0.046797093 -0.023719076 0.73600006 4284105231
0.048013877 -0.023686847 0.73500001 4284039438
0.049025979 -0.023557939 0.73100001 4283908372
0.050092958 -0.023461258 0.72800004 4283974165
0.051290583 -0.023429032 0.72700006 4283711520
0.052557018 -0.023429032 0.72700006 4283645727
0.053823452 -0.023429032 0.72700006 4283580432
0.055089887 -0.023429032 0.72700006 4283317516
0.056201279 -0.023364577 0.72500002 4283381504
0.057464227 -0.023364577 0.72500002 4283579136
0.058727182 -0.023364577 0.72500002 4283776280
0.05999013 -0.023364577 0.72500002 4283776280
0.061253082 -0.023364577 0.72500002 4283710990
0.062429801 -0.023332352 0.72400004 4283710990
0.063691005 -0.023332352 0.72400004 4283776280
0.064952224 -0.023332352 0.72400004 4283842073
0.066213429 -0.023332352 0.72400004 4283908372
0.067474633 -0.023332352 0.72400004 4283974165
0.068735838 -0.023332352 0.72400004 4283908372
0.069997057 -0.023332352 0.72400004 4283776530
0.071258262 -0.023332352 0.72400004 4283908372
0.072519466 -0.023332352 0.72400004 4284171287
0.073780678 -0.023332352 0.72400004 4284172562
0.075041883 -0.023332352 0.72400004 4284567320
0.076408483 -0.023364577 0.72500002 4284172062
0.077671431 -0.023364577 0.72500002 4284172062
0.078934379 -0.023364577 0.72500002 4284172062
0.080197334 -0.023364577 0.72500002 4284106013
0.081460282 -0.023364577 0.72500002 4284433181
0.082723238 -0.023364577 0.72500002 4284762145
0.084217876 -0.023429032 0.72700006 4284565280
0.085484304 -0.023429032 0.72700006 4284631073
0.086870067 -0.023461258 0.72800004 4284762666
0.088380374 -0.023525711 0.73000002 4285420339
0.089774847 -0.023557939 0.73100001 4285551644
0.091297358 -0.023622394 0.73300004 4285683486
0.092826836 -0.023686847 0.73500001 4286011686
0.094107203 -0.023686847 0.73500001 4286800945
0.09551736 -0.023719076 0.73600006 4286538291
0.033493433 -0.022985691 0.75400001 4289888283
0.03471458 -0.022924723 0.75200003 4287920725
0.036024563 -0.022924723 0.75200003 4285617970
0.037185606 -0.022833267 0.74900001 4285485101
0.038336199 -0.022741813 0.74600005 4285090343
0.039529469 -0.022680841 0.74400002 4285221418
0.040770642 -0.022650357 0.74300003 4285155625
0.041951723 -0.022589387 0.74100006 4285025052
0.043125827 -0.022528417 0.73900002 4284893722
0.044413164 -0.022528417 0.73900002 4284762647
0.045638662 -0.022497933 0.73800004 4284499476
0.04692426 -0.022497933 0.73800004 4284171026
0.048079208 -0.022436963 0.73600006 4284171026
0.049160115 -0.022345508 0.73300004 4283908631
0.050299384 -0.022284538 0.73100001 4284040474
0.051502235 -0.022254052 0.73000002 4283842618
0.052629311 -0.022193084 0.72800004 4283776825
0.053823452 -0.022162598 0.72700006 4283580432
0.055089887 -0.022162598 0.72700006 4283251723
0.056356318 -0.022162598 0.72700006 4283579136
0.057622757 -0.022162598 0.72700006 4283710720
0.058889192 -0.022162598 0.72700006 4283578889
0.060155623 -0.022162598 0.72700006 4283578889
0.061422057 -0.022162598 0.72700006 4283578889
0.062516034 -0.022101626 0.72500002 4283578889
0.063778982 -0.022101626 0.72500002 4283578889
0.065041929 -0.022101626 0.72500002 4283973647
0.066304877 -0.022101626 0.72500002 4283776530
0.067567833 -0.022101626 0.72500002 4283842579
0.068830781 -0.022101626 0.72500002 4283842579
0.070093736 -0.022101626 0.72500002 4283776530
0.071356684 -0.022101626 0.72500002 4283776784
0.072619632 -0.022101626 0.72500002 4284039956
0.073882587 -0.022101626 0.72500002 4284172312
0.075145528 -0.022101626 0.72500002 4284172312
0.076408483 -0.022101626 0.72500002 4284040973
0.077671431 -0.022101626 0.72500002 4283909387
0.078934379 -0.022101626 0.72500002 4284039429
0.080197334 -0.022101626 0.72500002 4284039429
0.081460282 -0.022101626 0.72500002 4284237069
0.082723238 -0.022101626 0.72500002 4284434448
0.084217876 -0.022162598 0.72700006 4284499224
0.085601889 -0.022193084 0.72800004 4284565273
0.087108716 -0.022254052 0.73000002 4284565273
0.088501446 -0.022284538 0.73100001 4285288739
0.09002047 -0.022345508 0.73300004 4285617189
0.091297358 -0.022345508 0.73300004 4285814824
0.092826836 -0.022406477 0.73500001 4285945890
0.094235249 -0.022436963 0.73600006 4286603821
0.034806907 -0.021672223 0.75400001 4288575057
0.036024563 -0.02161474 0.75200003 4287324991
0.039635733 -0.021442281 0.74600005 4285025583
0.040770642 -0.021356052 0.74300003 4285025583
0.041951723 -0.021298565 0.74100006 4284960281
0.043125827 -0.02124108 0.73900002 4284828438
0.044413164 -0.02124108 0.73900002 4284828692
0.045700502 -0.02124108 0.73900002 4284565521
0.04692426 -0.021212338 0.73800004 4284237085
0.048209853 -0.021212338 0.73800004 4284237085
0.049361318 -0.021154851 0.73600006 4284106267
0.050574619 -0.021126106 0.73500001 4284566818
0.051713891 -0.021068621 0.73300004 4284434507
0.052846186 -0.021011135 0.73100001 4283908163
0.053897489 -0.020924907 0.72800004 4283908631
0.055165663 -0.020924907 0.72800004 4283645716
0.056433842 -0.020924907 0.72800004 4283777024
0.057702012 -0.020924907 0.72800004 4283842818
0.058970191 -0.020924907 0.72800004 4283842579
0.060155623 -0.020896163 0.72700006 4283579407
0.061422057 -0.020896163 0.72700006 4283644684
0.062688492 -0.020896163 0.72700006 4283710477
0.063954927 -0.020896163 0.72700006 4283776784
0.065221362 -0.020896163 0.72700006 4283776784
0.066304877 -0.020838678 0.72500002 4283776530
0.067567833 -0.020838678 0.72500002 4283776530
0.068830781 -0.020838678 0.72500002 4283842579
0.070093736 -0.020838678 0.72500002 4283776530
0.071356684 -0.020838678 0.72500002 4283776530
0.072619632 -0.020838678 0.72500002 4283908372
0.073882587 -0.020838678 0.72500002 4283908622
0.075145528 -0.020838678 0.72500002 4283908622
0.076408483 -0.020838678 0.72500002 4284172293
0.077671431 -0.020838678 0.72500002 4283974915
0.078934379 -0.020838678 0.72500002 4284040192
0.080418572 -0.020896163 0.72700006 4284172032
0.081684999 -0.020896163 0.72700006 4284434700
0.082951441 -0.020896163 0.72700006 4284566286
0.08433371 -0.020924907 0.72800004 4284828186
0.085601889 -0.020924907 0.72800004 4284828186
0.087228045 -0.021011135 0.73100001 4284827936
0.08874359 -0.021068621 0.73300004 4285222694
0.09002047 -0.021068621 0.73300004 4285354794
0.091546461 -0.021126106 0.73500001 4285947187
0.092953131 -0.021154851 0.73600006 4286012467
0.094491318 -0.021212338 0.73800004 4286275383
0.039635733 -0.020142749 0.74600005 4284567070
0.040825516 -0.020088745 0.74400002 4284698656
0.04206495 -0.020061744 0.74300003 4285091624
0.043242544 -0.020007744 0.74100006 4284960038
0.044533368 -0.020007744 0.74100006 4284762393
0.045700502 -0.019953741 0.73900002 4284565271
0.046987843 -0.019953741 0.73900002 4284302878
0.048209853 -0.01992674 0.73800004 4284039706
0.049495451 -0.01992674 0.73800004 4284171290
0.050643433 -0.019872738 0.73600006 4284368669
0.051854987 -0.019845735 0.73500001 4284367667
0.052990776 -0.019791735 0.73300004 4284170288
0.054119591 -0.019737732 0.73100001 4284038675
0.055317216 -0.019710733 0.73000002 4283907089
0.056588873 -0.019710733 0.73000002 4283842048
0.057702012 -0.019656731 0.72800004 4284039427
0.058970191 -0.019656731 0.72800004 4283908122
0.060238369 -0.019656731 0.72800004 4283513364
0.061506543 -0.019656731 0.72800004 4283710477
0.062688492 -0.01962973 0.72700006 4283842064
0.063954927 -0.01962973 0.72700006 4283842579
0.065221362 -0.01962973 0.72700006 4283974165
0.066487797 -0.01962973 0.72700006 4284038925
0.067754231 -0.01962973 0.72700006 4284038925
0.069020659 -0.01962973 0.72700006 4283842827
0.070093736 -0.019575726 0.72500002 4283842827
0.071356684 -0.019575726 0.72500002 4283842579
0.072819963 -0.01962973 0.72700006 4283908372
0.074086398 -0.01962973 0.72700006 4283646731
0.075352833 -0.01962973 0.72700006 4283778317
0.076619267 -0.01962973 0.72700006 4283778832
0.077885702 -0.01962973 0.72700006 4283647503
0.079152137 -0.01962973 0.72700006 4283974665
0.080529191 -0.019656731 0.72800004 4284172043
0.081797361 -0.019656731 0.72800004 4284565273
0.08306554 -0.019656731 0.72800004 4284631066
0.084565401 -0.019710733 0.73000002 4284762914
0.085954636 -0.019737732 0.73100001 4284894243
0.087228045 -0.019737732 0.73100001 4285025824
0.08874359 -0.019791735 0.73300004 4285222946
0.090266094 -0.019845735 0.73500001 4285288228
0.091546461 -0.019845735 0.73500001 4286143281
0.092953131 -0.019872738 0.73600006 4286077992
0.033804383 -0.019222101 0.76100004 4286861312
0.035037722 -0.019171584 0.75900006 4287651142
0.040935263 -0.018843215 0.74600005 4284762121
0.042121563 -0.018792698 0.74400002 4284697382
0.043359257 -0.018767439 0.74300003 4284697382
0.044533368 -0.018716922 0.74100006 4284499224
0.045824189 -0.018716922 0.74100006 4284499224
0.046987843 -0.018666402 0.73900002 4284171290
0.04827518 -0.018666402 0.73900002 4283908118
0.049562518 -0.018666402 0.73900002 4284104983
0.050781045 -0.018641144 0.73800004 4284104983
0.051925544 -0.018590627 0.73600006 4284038684
0.053135358 -0.018565366 0.73500001 4283972891
0.054267664 -0.018514849 0.73300004 4283973130
0.055392992 -0.018464329 0.73100001 4283644421
0.056666389 -0.018464329 0.73100001 4283776000
0.057860535 -0.018439071 0.73000002 4283973376
0.059132192 -0.018439071 0.73000002 4283776030
0.060403854 -0.018439071 0.73000002 4283710237
0.061675519 -0.018439071 0.73000002 4283513875
0.062774718 -0.018388554 0.72800004 4283513875
0.063954927 -0.018363295 0.72700006 4283777034
0.065221362 -0.018363295 0.72700006 4283777034
0.066487797 -0.018363295 0.72700006 4283973130
0.067754231 -0.018363295 0.72700006 4283973130
0.069020659 -0.018363295 0.72700006 4283777034
0.070287094 -0.018363295 0.72700006 4283777034
0.071553536 -0.018363295 0.72700006 4283842827
0.072819963 -0.018363295 0.72700006 4283842827
0.074086398 -0.018363295 0.72700006 4283842579
0.075456478 -0.018388554 0.72800004 4283908372
0.076724656 -0.018388554 0.72800004 4283778069
0.077992834 -0.018388554 0.72800004 4283646227
0.079261012 -0.018388554 0.72800004 4283776530
0.080750413 -0.018439071 0.73000002 4284171287
0.082022078 -0.018439071 0.73000002 4284171290
0.083293736 -0.018439071 0.73000002 4284368669
0.084565401 -0.018439071 0.73000002 4284697118
0.085954636 -0.018464329 0.73100001 4284894497
0.087466702 -0.018514849 0.73300004 4285156636
0.089106798 -0.018590627 0.73600006 4285156636
0.090388909 -0.018590627 0.73600006 4285353769
0.092044674 -0.018666402 0.73900002 4286274871
0.032606762 -0.017966991 0.76400006 4286334976
0.033848803 -0.017919956 0.76200002 4287124480
0.03517621 -0.017919956 0.76200002 4287321379
0.036455709 -0.017896438 0.76100004 4288768825
0.040935263 -0.017543685 0.74600005 4284500280
0.042121563 -0.017496651 0.74400002 4284303119
0.043359257 -0.017473133 0.74300003 4284697620
0.044653561 -0.017473133 0.74300003 4284631062
0.045824189 -0.0174261 0.74100006 4284631062
0.047115009 -0.0174261 0.74100006 4284237085
0.04827518 -0.017379064 0.73900002 4283973913
0.049562518 -0.017379064 0.73900002 4284039188
0.050849855 -0.017379064 0.73900002 4284039188
0.052066643 -0.017355548 0.73800004 4284038675
0.053207655 -0.017308515 0.73600006 4283972882
0.054415729 -0.017284997 0.73500001 4283776784
0.055544548 -0.017237963 0.73300004 4283710990
0.056821436 -0.017237963 0.73300004 4283710725
0.057939798 -0.017190928 0.73100001 4283710725
0.059213199 -0.017190928 0.73100001 4283448853
0.0604866 -0.017190928 0.73100001 4283383059
0.061675519 -0.017167412 0.73000002 4283448586
0.062947176 -0.017167412 0.73000002 4283514379
0.064218834 -0.017167412 0.73000002 4283514629
0.065311067 -0.017120378 0.72800004 4283646216
0.066579245 -0.017120378 0.72800004 4283710725
0.067847423 -0.017120378 0.72800004 4283710725
0.069020659 -0.017096862 0.72700006 4283644932
0.070287094 -0.017096862 0.72700006 4283710725
0.071651958 -0.017120378 0.72800004 4283710990
0.072920129 -0.017120378 0.72800004 4283776784
0.074188299 -0.017120378 0.72800004 4283712020
0.075456478 -0.017120378 0.72800004 4283843862
0.076724656 -0.017120378 0.72800004 4283908622
0.078207098 -0.017167412 0.73000002 4283908622
0.079478756 -0.017167412 0.73000002 4283974928
0.08108227 -0.017237963 0.73300004 4284040721
0.082359158 -0.017237963 0.73300004 4284303128
0.083864242 -0.017284997 0.73500001 4284368921
0.085260458 -0.017308515 0.73600006 4284631325
0.086777739 -0.017355548 0.73800004 4284763168
0.088063337 -0.017355548 0.73800004 4284894243
0.089469999 -0.017379064 0.73900002 4284894243
0.09075734 -0.017379064 0.73900002 4285484574
0.032606762 -0.016636103 0.76400006 4286663176
0.033848803 -0.016592553 0.76200002 4287715864
0.03517621 -0.016592553 0.76200002 4287125551
0.036503613 -0.016592553 0.76200002 4286796587
0.037781373 -0.016570777 0.76100004 4287786507
0.039004255 -0.016527228 0.75900006 4289431075
0.042234793 -0.016244153 0.74600005 4285355289
0.04341761 -0.016200602 0.74400002 4284499980
0.044713661 -0.016200602 0.74400002 4283974680
0.045947868 -0.016178826 0.74300003 4284106267
0.047242172 -0.016178826 0.74300003 4284170526
0.048405834 -0.016135277 0.74100006 4284038684
0.049562518 -0.016091727 0.73900002 4284104983
0.050849855 -0.016091727 0.73900002 4284104983
0.052137192 -0.016091727 0.73900002 4283908372
0.05335224 -0.016069952 0.73800004 4283842579
0.054489769 -0.016026402 0.73600006 4283776784
0.0556961 -0.016004626 0.73500001 4283776784
0.056976471 -0.016004626 0.73500001 4283711240
0.05809832 -0.015961077 0.73300004 4283579911
0.059375208 -0.015961077 0.73300004 4283710477
0.0604866 -0.015917527 0.73100001 4283710477
0.061759997 -0.015917527 0.73100001 4283514125
0.063033409 -0.015917527 0.73100001 4283514125
0.064306803 -0.015917527 0.73100001 4283710725
0.065490499 -0.01589575 0.73000002 4283710725
0.066762157 -0.01589575 0.73000002 4283710725
0.067847423 -0.015852202 0.72800004 4283579139
0.069115601 -0.015852202 0.72800004 4283579137
0.07038378 -0.015852202 0.72800004 4283644930
0.071651958 -0.015852202 0.72800004 4283710227
0.073220618 -0.015917527 0.73100001 4283578385
0.074494019 -0.015917527 0.73100001 4283579155
0.07576742 -0.015917527 0.73100001 4283908120
0.077040829 -0.015917527 0.73100001 4284040458
0.07831423 -0.015917527 0.73100001 4284040458
0.079805389 -0.015961077 0.73300004 4283974680
0.0813035 -0.016004626 0.73500001 4284106267
0.082583874 -0.016004626 0.73500001 4284303391
0.083978347 -0.016026402 0.73600006 4284303391
0.085492149 -0.016069952 0.73800004 4284565280
0.086777739 -0.016069952 0.73800004 4284697123
0.088063337 -0.016069952 0.73800004 4285025583
0.089469999 -0.016091727 0.73900002 4285354292
0.09075734 -0.016091727 0.73900002 4285682201
0.032692116 -0.015345279 0.76600003 4287123973
0.033937652 -0.015305214 0.76400006 4287979282
0.035268538 -0.015305214 0.76400006 4286864433
0.036503613 -0.015265148 0.76200002 4286206246
0.037781373 -0.015245114 0.76100004 4286469656
0.039004255 -0.015205049 0.75900006 4288377653
0.043534327 -0.014944619 0.74600005 4285025583
0.044713661 -0.014904552 0.74400002 4283711520
0.045947868 -0.01488452 0.74300003 4283579934
0.047242172 -0.01488452 0.74300003 4283972882
0.048405834 -0.014844455 0.74100006 4284104468
0.049696654 -0.014844455 0.74100006 4284104983
0.050849855 -0.014804387 0.73900002 4284039190
0.052137192 -0.014804387 0.73900002 4283974174
0.053424533 -0.014804387 0.73900002 4283842588
0.054637838 -0.014784356 0.73800004 4283710990
0.05577188 -0.01474429 0.73600006 4283776784
0.056976471 -0.014724256 0.73500001 4283777034
0.058256842 -0.014724256 0.73500001 4283711240
0.059375208 -0.014684191 0.73300004 4283710725
0.060652092 -0.014684191 0.73300004 4283776518
0.061759997 -0.014644124 0.73100001 4283710725
0.063033409 -0.014644124 0.73100001 4283710725
0.064482749 -0.014684191 0.73300004 4283710477
0.065759636 -0.014684191 0.73300004 4283710477
0.067036524 -0.014684191 0.73300004 4283710725
0.068313412 -0.014684191 0.73300004 4283710725
0.069590293 -0.014684191 0.73300004 4283710477
0.070673816 -0.014644124 0.73100001 4283710477
0.071947224 -0.014644124 0.73100001 4283710990
0.073420957 -0.014684191 0.73300004 4283776784
0.074697837 -0.014684191 0.73300004 4283777034
0.075974725 -0.014684191 0.73300004 4284171791
0.077251613 -0.014684191 0.73300004 4283975178
0.078528501 -0.014684191 0.73300004 4283975178
0.080023132 -0.014724256 0.73500001 4284106267
0.081414126 -0.01474429 0.73600006 4284369182
0.082696237 -0.01474429 0.73600006 4284434716
0.084206544 -0.014784356 0.73800004 4284368923
0.085492149 -0.014784356 0.73800004 4284695826
0.086895317 -0.014804387 0.73900002 4284892948
0.088182665 -0.014804387 0.73900002 4285090847
0.089712143 -0.014844455 0.74100006 4285551398
0.091002963 -0.014844455 0.74100006 4285880597
0.032692116 -0.014010907 0.76600003 4287057921
0.033937652 -0.013974326 0.76400006 4288241938
0.035268538 -0.013974326 0.76400006 4287127339
0.036503613 -0.013937743 0.76200002 4286008601
0.037781373 -0.013919452 0.76100004 4286009398
0.039004255 -0.013882871 0.75900006 4285680434
0.044833858 -0.013645088 0.74600005 4286734932
0.046009708 -0.013608505 0.74400002 4285024314
0.047242172 -0.013590215 0.74300003 4283841823
0.048536479 -0.013590215 0.74300003 4283578907
0.049696654 -0.013553632 0.74100006 4283513875
0.050849855 -0.01351705 0.73900002 4283513875
0.052137192 -0.01351705 0.73900002 4283710237
0.053424533 -0.01351705 0.73900002 4283776030
0.054711871 -0.01351705 0.73900002 4283644684
0.055923432 -0.01349876 0.73800004 4283644684
0.05720903 -0.01349876 0.73800004 4283514125
0.058336105 -0.013462178 0.73600006 4283514125
0.059618216 -0.013462178 0.73600006 4283579139
0.060817584 -0.013443886 0.73500001 4283644932
0.062097948 -0.013443886 0.73500001 4283710725
0.063205861 -0.013407304 0.73300004 4283644932
0.064482749 -0.013407304 0.73300004 4283644682
0.065759636 -0.013407304 0.73300004 4283710475
0.067036524 -0.013407304 0.73300004 4283710477
0.068313412 -0.013407304 0.73300004 4283644684
0.069780171 -0.013443886 0.73500001 4283644684
0.071060538 -0.013443886 0.73500001 4283644684
0.072340913 -0.013443886 0.73500001 4283710477
0.07362128 -0.013443886 0.73500001 4283842064
0.074901655 -0.013443886 0.73500001 4283777034
0.076182023 -0.013443886 0.73500001 4283974669
0.077567786 -0.013462178 0.73600006 4284040458
0.078849897 -0.013462178 0.73600006 4284040458
0.080132015 -0.013462178 0.73600006 4284040474
0.081635356 -0.01349876 0.73800004 4284172060
0.082920954 -0.01349876 0.73800004 4284106530
0.08432065 -0.01351705 0.73900002 4284106530
0.085607983 -0.01351705 0.73900002 4284236833
0.086895317 -0.01351705 0.73900002 4284631591
0.088182665 -0.01351705 0.73900002 4285418542
0.089954279 -0.013590215 0.74300003 4287984470
0.091371387 -0.013608505 0.74400002 4288644155
0.097593814 -0.013754833 0.75200003 4286930496
0.032692116 -0.012676535 0.76600003 4287254530
0.033937652 -0.012643438 0.76400006 4288241425
0.035268538 -0.012643438 0.76400006 4287454516
0.036503613 -0.01261034 0.76200002 4286533414
0.037781373 -0.01259379 0.76100004 4285943851
0.039004255 -0.012560693 0.75900006 4285286178
0.040326435 -0.012560693 0.75900006 4286335744
0.044893958 -0.012362105 0.74700004 4288641884
0.046133392 -0.012345555 0.74600005 4287062852
0.047305755 -0.012312457 0.74400002 4284831282
0.048601806 -0.012312457 0.74400002 4283186457
0.049830787 -0.012295908 0.74300003 4283382024
0.050987478 -0.012262811 0.74100006 4283382024
0.052278299 -0.012262811 0.74100006 4283446034
0.053569123 -0.012262811 0.74100006 4283906585
0.054711871 -0.012229712 0.73900002 4283776784
0.055999205 -0.012229712 0.73900002 4283842577
0.05720903 -0.012213163 0.73800004 4283580184
0.058494627 -0.012213163 0.73800004 4283383061
0.059780221 -0.012213163 0.73800004 4283644932
0.060900331 -0.012180066 0.73600006 4283710725
0.062182441 -0.012180066 0.73600006 4283710477
0.063464552 -0.012180066 0.73600006 4283710477
0.064746663 -0.012180066 0.73600006 4283710477
0.066028781 -0.012180066 0.73600006 4283710477
0.067310892 -0.012180066 0.73600006 4283710990
0.068593003 -0.012180066 0.73600006 4283579661
0.069875114 -0.012180066 0.73600006 4283513875
0.071157224 -0.012180066 0.73600006 4283579669
0.072439335 -0.012180066 0.73600006 4283776280
0.073721454 -0.012180066 0.73600006 4283842073
0.075003564 -0.012180066 0.73600006 4283842579
0.076285675 -0.012180066 0.73600006 4283842579
0.077567786 -0.012180066 0.73600006 4283974665
0.078849897 -0.012180066 0.73600006 4284040458
0.080349758 -0.012213163 0.73800004 4283712774
0.081635356 -0.012213163 0.73800004 4283778567
0.082920954 -0.012213163 0.73800004 4284237069
0.08432065 -0.012229712 0.73900002 4284566034
0.085607983 -0.012229712 0.73900002 4284764169
0.086895317 -0.012229712 0.73900002 4284764169
0.088182665 -0.012229712 0.73900002 4286733103
0.090075344 -0.012312457 0.74400002 4288772943
0.098112933 -0.012511045 0.75600004 4285880847
0.099429891 -0.012511045 0.75600004 4288841788
0.10074684 -0.012511045 0.75600004 4291340721
0.032606762 -0.01131255 0.76400006 4287188736
0.033937652 -0.01131255 0.76400006 4287912714
0.035268538 -0.01131255 0.76400006 4287388458
0.036503613 -0.011282935 0.76200002 4287454251
0.037781373 -0.011268128 0.76100004 4286469166
0.039004255 -0.011238514 0.75900006 4285877285
0.040326435 -0.011238514 0.75900006 4285677592
0.041648615 -0.011238514 0.75900006 4285151248
0.047432926 -0.011046024 0.74600005 4287723594
0.048732456 -0.011046024 0.74600005 4286934334
0.049897853 -0.011016409 0.74400002 4286145330
0.051125091 -0.011001602 0.74300003 4284961312
0.052419398 -0.011001602 0.74300003 4284171069
0.053713705 -0.011001602 0.74300003 4283381554
0.054859944 -0.010971989 0.74100006 4283512342
0.055999205 -0.010942374 0.73900002 4283578135
0.057286549 -0.010942374 0.73900002 4283315981
0.058573883 -0.010942374 0.73900002 4283053065
0.059780221 -0.010927567 0.73800004 4283380992
0.061065815 -0.010927567 0.73800004 4283644160
0.062351417 -0.010927567 0.73800004 4283643928
0.063637011 -0.010927567 0.73800004 4283643928
0.064922601 -0.010927567 0.73800004 4283643928
0.066208199 -0.010927567 0.73800004 4283709721
0.067493796 -0.010927567 0.73800004 4283513625
0.068779394 -0.010927567 0.73800004 4283579419
0.070064984 -0.010927567 0.73800004 4283513625
0.071350589 -0.010927567 0.73800004 4283513625
0.07263618 -0.010927567 0.73800004 4283578135
0.073921777 -0.010927567 0.73800004 4283643928
0.075207375 -0.010927567 0.73800004 4283643928
0.076492973 -0.010927567 0.73800004 4283643928
0.077778563 -0.010927567 0.73800004 4283644672
0.079064161 -0.010927567 0.73800004 4283842048
0.080349758 -0.010927567 0.73800004 4284171024
0.081635356 -0.010927567 0.73800004 4284894747
0.083033308 -0.010942374 0.73900002 4285683473
0.084548853 -0.010971989 0.74100006 4286867746
0.086071357 -0.011001602 0.74300003 4287853356
0.087365665 -0.011001602 0.74300003 4288840251
0.088779293 -0.011016409 0.74400002 4288510550
0.096795984 -0.011194094 0.75600004 4287128395
0.098242715 -0.0112089 0.75700003 4287128361
0.099561408 -0.0112089 0.75700003 4291799664
0.1008801 -0.0112089 0.75700003 4292460231
0.033937652 -0.0099816611 0.76400006 4287715846
0.035268538 -0.0099816611 0.76400006 4287190826
0.036503613 -0.009955531 0.76200002 4287190826
0.03783102 -0.009955531 0.76200002 4286534446
0.039107032 -0.0099424664 0.76100004 4285942308
0.040432695 -0.0099424664 0.76100004 4285351956
0.041648615 -0.0099163363 0.75900006 4284825356
0.042857558 -0.0098902062 0.75700003 4285217543
0.046504438 -0.0098248813 0.75200003 4288047416
0.047750838 -0.0098118158 0.75100005 4288509783
0.048797779 -0.0097595565 0.74700004 4287983438
0.05003199 -0.009746491 0.74600005 4287523653
0.051331524 -0.009746491 0.74600005 4286865979
0.052489948 -0.0097203609 0.74400002 4285421632
0.053785998 -0.0097203609 0.74400002 4284171821
0.055082045 -0.0097203609 0.74400002 4284038684
0.05630232 -0.0097072963 0.74300003 4283578133
0.057441588 -0.0096811661 0.74100006 4283052032
0.058573883 -0.009655036 0.73900002 4283249152
0.059861224 -0.009655036 0.73900002 4283183104
0.061065815 -0.0096419714 0.73800004 4283446272
0.062351417 -0.0096419714 0.73800004 4283315981
0.063637011 -0.0096419714 0.73800004 4283118858
0.064922601 -0.0096419714 0.73800004 4283052291
0.066297919 -0.009655036 0.73900002 4283381513
0.067585252 -0.009655036 0.73900002 4283383041
0.068872593 -0.009655036 0.73900002 4283251712
0.070159927 -0.009655036 0.73900002 4283315981
0.071447261 -0.009655036 0.73900002 4283118858
0.072734602 -0.009655036 0.73900002 4283314182
0.074021943 -0.009655036 0.73900002 4283380231
0.075309284 -0.009655036 0.73900002 4283445248
0.076596618 -0.009655036 0.73900002 4283642624
0.077883959 -0.009655036 0.73900002 4283644160
0.079171292 -0.009655036 0.73900002 4284038656
0.080458634 -0.009655036 0.73900002 4285485330
0.081745975 -0.009655036 0.73900002 4285682452
0.083258025 -0.0096811661 0.74100006 4286798651
0.084777057 -0.0097072963 0.74300003 4287587910
0.086071357 -0.0097072963 0.74300003 4288705612
0.08748325 -0.0097203609 0.74400002 4289100370
0.08901795 -0.009746491 0.74600005 4288837462
0.095479026 -0.0098771406 0.75600004 4287324459
0.096924022 -0.0098902062 0.75700003 4287324459
0.098242715 -0.0098902062 0.75700003 4288047418
0.099561408 -0.0098902062 0.75700003 4293771410
0.1008801 -0.0098902062 0.75700003 4292988626
0.035268538 -0.0086507732 0.76400006 4287192112
0.036503613 -0.0086281262 0.76200002 4286468389
0.03783102 -0.0086281262 0.76200002 4286402859
0.039107032 -0.0086168041 0.76100004 4286008101
0.040432695 -0.0086168041 0.76100004 4285548843
0.041758355 -0.0086168041 0.76100004 4285614892
0.042970791 -0.0085941581 0.75900006 4285089830
0.044176254 -0.0085715121 0.75700003 4284629279
0.045314651 -0.008537543 0.75400001 4284955945
0.046628118 -0.008537543 0.75400001 4284232222
0.047814421 -0.008514897 0.75200003 4285347355
0.049059082 -0.0085035739 0.75100005 4286729008
0.050233185 -0.0084809279 0.74900001 4286930950
0.05140033 -0.0084582819 0.74700004 4287654416
0.05263105 -0.0084469598 0.74600005 4286998831
0.053930584 -0.0084469598 0.74600005 4287722297
0.055082045 -0.0084243128 0.74400002 4287130960
0.05630232 -0.0084129898 0.74300003 4286604616
0.05759662 -0.0084129898 0.74300003 4286473000
0.058732413 -0.0083903437 0.74100006 4285683484
0.06002323 -0.0083903437 0.74100006 4285552179
0.061314054 -0.0083903437 0.74100006 4284959786
0.062435895 -0.0083676977 0.73900002 4284631589
0.063723236 -0.0083676977 0.73900002 4284631589
0.065186515 -0.0083903437 0.74100006 4284500259
0.066477343 -0.0083903437 0.74100006 4284302624
0.067768164 -0.0083903437 0.74100006 4284565773
0.069058985 -0.0083903437 0.74100006 4284960531
0.070349805 -0.0083903437 0.74100006 4284959775
0.071447261 -0.0083676977 0.73900002 4284893982
0.072734602 -0.0083676977 0.73900002 4285025831
0.074222274 -0.0083903437 0.74100006 4285025831
0.075309284 -0.0083676977 0.73900002 4286077712
0.076596618 -0.0083676977 0.73900002 4286275092
0.077883959 -0.0083676977 0.73900002 4287392544
0.079385564 -0.0083903437 0.74100006 4287787301
0.080676384 -0.0083903437 0.74100006 4287723594
0.082188442 -0.0084129898 0.74300003 4288184145
0.083482742 -0.0084129898 0.74300003 4287524443
0.084777057 -0.0084129898 0.74300003 4287129942
0.086187199 -0.0084243128 0.74400002 4286797886
0.08771842 -0.0084469598 0.74600005 4286600250
0.094162084 -0.008560189 0.75600004 4287258696
0.095605329 -0.0085715121 0.75700003 4287258920
0.097180091 -0.0085941581 0.75900006 4287390506
0.098502278 -0.0085941581 0.75900006 4287850557
0.099824451 -0.0085941581 0.75900006 4293771671
0.10114663 -0.0085941581 0.75900006 4293447376
0.037930313 -0.0073198848 0.76400006 4286664217
0.039158419 -0.0073007224 0.76200002 4286730010
0.040485825 -0.0073007224 0.76200002 4285812772
0.041758355 -0.0072911419 0.76100004 4285681185
0.042970791 -0.0072719804 0.75900006 4285550631
0.044292971 -0.0072719804 0.75900006 4285155873
0.045494948 -0.007252818 0.75700003 4284693786
0.046751801 -0.0072432365 0.75600004 4284233235
0.047941584 -0.0072240741 0.75400001 4284230659
0.049124405 -0.0072049126 0.75200003 4284625417
0.050367322 -0.0071953321 0.75100005 4286008072
0.051675566 -0.0071953321 0.75100005 4286732051
0.052842703 -0.0071761697 0.74900001 4286339383
0.054002877 -0.0071570072 0.74700004 4287852622
0.055230118 -0.0071474267 0.74600005 4287723344
0.056529652 -0.0071474267 0.74600005 4286999877
0.057674143 -0.0071282643 0.74400002 4287128647
0.058970191 -0.0071282643 0.74400002 4286865475
0.060185231 -0.0071186838 0.74300003 4286342473
0.061479546 -0.0071186838 0.74300003 4286210886
0.062773846 -0.0071186838 0.74300003 4285683768
0.064068154 -0.0071186838 0.74300003 4285617719
0.065362453 -0.0071186838 0.74300003 4285748275
0.066656768 -0.0071186838 0.74300003 4285550896
0.067768164 -0.0070995223 0.74100006 4285616426
0.069058985 -0.0070995223 0.74100006 4285682219
0.070539683 -0.0071186838 0.74300003 4285746983
0.071833991 -0.0071186838 0.74300003 4286207534
0.072931454 -0.0070995223 0.74100006 4286142529
0.074222274 -0.0070995223 0.74100006 4286603080
0.075513095 -0.0070995223 0.74100006 4286996545
0.076803923 -0.0070995223 0.74100006 4286996545
0.078094736 -0.0070995223 0.74100006 4288310602
0.079385564 -0.0070995223 0.74100006 4288508238
0.080676384 -0.0070995223 0.74100006 4288313939
0.082299054 -0.0071282643 0.74400002 4287853388
0.083595105 -0.0071282643 0.74400002 4287064917
0.085119359 -0.0071474267 0.74600005 4286604366
0.086418889 -0.0071474267 0.74600005 4285616676
0.08771842 -0.0071474267 0.74600005 4285221918
0.094286636 -0.007252818 0.75700003 4286997810
0.095857918 -0.0072719804 0.75900006 4287127848
0.097180091 -0.0072719804 0.75900006 4287259690
0.098502278 -0.0072719804 0.75900006 4287587890
0.099824451 -0.0072719804 0.75900006 4293837968
0.10114663 -0.0072719804 0.75900006 4293645012
0.039261203 -0.0059889969 0.76400006 4286865448
0.040592089 -0.0059889969 0.76400006 4286406428
0.041813228 -0.0059733186 0.76200002 4286077206
0.042970791 -0.0059498018 0.75900006 4285879593
0.044292971 -0.0059498018 0.75900006 4285945386
0.045494948 -0.0059341234 0.75700003 4285551385
0.046813641 -0.0059341234 0.75700003 4284366854
0.048068754 -0.0059262845 0.75600004 4284231986
0.049124405 -0.0058949287 0.75200003 4284034350
0.050434388 -0.0058949287 0.75200003 4284100356
0.051675566 -0.0058870898 0.75100005 4284034307
0.052983809 -0.0058870898 0.75100005 4284232708
0.05414746 -0.0058714114 0.74900001 4284495880
0.055304151 -0.005855734 0.74700004 4284957696
0.056529652 -0.0058478951 0.74600005 4285549824
0.057829183 -0.0058478951 0.74600005 4285615140
0.059128713 -0.0058478951 0.74600005 4286009898
0.060266238 -0.0058322162 0.74400002 4286537507
0.061562285 -0.0058322162 0.74400002 4286735143
0.062858328 -0.0058322162 0.74400002 4286538543
0.064154379 -0.0058322162 0.74400002 4286933301
0.06545043 -0.0058322162 0.74400002 4286604851
0.066656768 -0.0058243778 0.74300003 4286670644
0.067951068 -0.0058243778 0.74300003 4286932297
0.069245383 -0.0058243778 0.74300003 4287195469
0.070634618 -0.0058322162 0.74400002 4287063340
0.071930669 -0.0058322162 0.74400002 4287194927
0.07312829 -0.0058243778 0.74300003 4286932297
0.074422605 -0.0058243778 0.74300003 4286734919
0.075716905 -0.0058243778 0.74300003 4286472235
0.07701122 -0.0058243778 0.74300003 4285945890
0.07830552 -0.0058243778 0.74300003 4286075945
0.079599828 -0.0058243778 0.74300003 4285746981
0.080894127 -0.0058243778 0.74300003 4285220634
0.082520291 -0.0058478951 0.74600005 4284628497
0.083819829 -0.0058478951 0.74600005 4284825879
0.085233457 -0.005855734 0.74700004 4285154843
0.086534731 -0.005855734 0.74700004 4285221418
0.088071175 -0.0058714114 0.74900001 4285155625
0.089733914 -0.0058949287 0.75200003 4285484336
0.091286033 -0.0059106066 0.75400001 4286537024
0.092845127 -0.0059262845 0.75600004 4286406705
0.094286636 -0.0059341234 0.75700003 4286735926
0.096110508 -0.0059654796 0.76100004 4287127598
0.097436167 -0.0059654796 0.76100004 4287522356
0.098761834 -0.0059654796 0.76100004 4287785014
