# .PCD v0.7 - Point Cloud Data file format
VERSION 0.7
FIELDS x y z rgba
SIZE 4 4 4 4
TYPE F F F U
COUNT 1 1 1 1
WIDTH 1030
HEIGHT 1
VIEWPOINT 0 0 0 1 0 0 0
POINTS 1030
DATA ascii
0.14077277 -0.059780221 0.73800004 4280688429
0.14205837 -0.059780221 0.73800004 4280950306
0.14295551 -0.059618216 0.73600006 4280752927
0.14423761 -0.059618216 0.73600006 4280557345
0.14551973 -0.059618216 0.73600006 4280557345
0.14680184 -0.059618216 0.73600006 4280557345
0.14808397 -0.059618216 0.73600006 4280491551
0.14936607 -0.059618216 0.73600006 4280884513
0.15064819 -0.059618216 0.73600006 4280884513
0.15193029 -0.059618216 0.73600006 4280884513
0.15300423 -0.059537213 0.73500001 4280752927
0.1542846 -0.059537213 0.73500001 4281080095
0.15556498 -0.059537213 0.73500001 4281145889
0.15684533 -0.059537213 0.73500001 4281015597
0.15769544 -0.059375208 0.73300004 4280949804
0.15897232 -0.059375208 0.73300004 4280623392
0.16024922 -0.059375208 0.73300004 4280623392
0.1615261 -0.059375208 0.73300004 4280754724
0.16213667 -0.059132192 0.73000002 4280820773
0.16340832 -0.059132192 0.73000002 4280557635
0.16467999 -0.059132192 0.73000002 4280623429
0.16595164 -0.059132192 0.73000002 4280031310
0.1672233 -0.059132192 0.73000002 4279767881
0.16849497 -0.059132192 0.73000002 4280096083
0.16976662 -0.059132192 0.73000002 4280293462
0.17127259 -0.059213199 0.73100001 4279966811
0.17254598 -0.059213199 0.73100001 4279637847
0.17429496 -0.059375208 0.73300004 4278192191
0.17557184 -0.059375208 0.73300004 4280236143
0.17733125 -0.059537213 0.73500001 4283385540
-0.014395018 -0.062378414 0.78700006 4293107293
-0.013024065 -0.062378414 0.78700006 4292386425
-0.01165311 -0.062378414 0.78700006 4290544221
-0.010282157 -0.062378414 0.78700006 4290478176
-0.0089112027 -0.062378414 0.78700006 4290149467
-0.0075498288 -0.062457677 0.78800005 4290214992
-0.0048044366 -0.062457677 0.78800005 4291202137
-0.0034273856 -0.062378414 0.78700006 4291399516
-0.0020564313 -0.062378414 0.78700006 4291401817
-0.00068547711 -0.062378414 0.78700006 4291007059
0.00068373507 -0.062219892 0.78500003 4291072082
0.0020512051 -0.062219892 0.78500003 4290940753
0.0034186754 -0.062219892 0.78500003 4290678875
0.0047861454 -0.062219892 0.78500003 4290020946
0.0061536157 -0.062219892 0.78500003 4289691705
0.0075019244 -0.062061373 0.78300005 4289494070
0.0088659106 -0.062061373 0.78300005 4289296679
0.010229897 -0.062061373 0.78300005 4288967714
0.011549461 -0.061823588 0.78000003 4288770583
0.012908221 -0.061823588 0.78000003 4288507667
0.014266982 -0.061823588 0.78000003 4288769288
0.015645776 -0.061902843 0.78100002 4289229839
0.016984502 -0.061823588 0.78000003 4290414411
0.018343262 -0.061823588 0.78000003 4290414411
0.019702023 -0.061823588 0.78000003 4290350151
0.021060782 -0.061823588 0.78000003 4290350151
0.022419542 -0.061823588 0.78000003 4289824055
0.023778303 -0.061823588 0.78000003 4288639524
0.025137061 -0.061823588 0.78000003 4288705794
0.026495824 -0.061823588 0.78000003 4287784704
0.027854582 -0.061823588 0.78000003 4288438272
0.029138438 -0.061665066 0.77800006 4288701696
0.030493714 -0.061665066 0.77800006 4288767744
0.031848989 -0.061665066 0.77800006 4288570368
0.033204265 -0.061665066 0.77800006 4288438272
0.03455954 -0.061665066 0.77800006 4288438272
0.035914816 -0.061665066 0.77800006 4288569344
0.037270095 -0.061665066 0.77800006 4288964096
0.038625371 -0.061665066 0.77800006 4289095952
0.039877865 -0.061506543 0.77600002 4288832781
0.041229662 -0.061506543 0.77600002 4288833537
0.04258145 -0.061506543 0.77600002 4289096452
0.043820012 -0.061348021 0.77400005 4288505344
0.045168322 -0.061348021 0.77400005 4288307712
0.046516631 -0.061348021 0.77400005 4287981056
0.04786494 -0.061348021 0.77400005 4287915008
0.049149666 -0.061268758 0.77300006 4287323392
0.050496232 -0.061268758 0.77300006 4287586560
0.051909864 -0.061348021 0.77400005 4287522304
0.053258173 -0.061348021 0.77400005 4288311808
0.054606482 -0.061348021 0.77400005 4287260160
0.055954788 -0.061348021 0.77400005 4287523072
0.057229061 -0.061268758 0.77300006 4286733316
0.05857563 -0.061268758 0.77300006 4287325454
0.059922196 -0.061268758 0.77300006 4286406162
0.061268758 -0.061268758 0.77300006 4285945611
0.062615328 -0.061268758 0.77300006 4286140416
0.063961893 -0.061268758 0.77300006 4287192832
0.06513948 -0.061110236 0.77100003 4286470144
0.066482566 -0.061110236 0.77100003 4286667776
0.067649707 -0.060951717 0.76900005 4286337280
0.068989307 -0.060951717 0.76900005 4286863616
0.070328899 -0.060951717 0.76900005 4286403328
0.071482107 -0.060793195 0.76700002 4286469120
0.072723284 -0.060713932 0.76600003 4283777608
0.074057654 -0.060713932 0.76600003 4281869611
0.07602524 -0.06015911 0.75900006 4278517852
0.077347428 -0.06015911 0.75900006 4280884513
0.078462295 -0.060000584 0.75700003 4281674029
0.079675607 -0.059921324 0.75600004 4281213984
0.080992557 -0.059921324 0.75600004 4279634696
0.082091756 -0.059762795 0.75400001 4279895315
0.083405226 -0.059762795 0.75400001 4279763986
0.084718689 -0.059762795 0.75400001 4279633162
0.08603216 -0.059762795 0.75400001 4279304198
0.087345622 -0.059762795 0.75400001 4279435278
0.088659093 -0.059762795 0.75400001 4279435278
0.089972571 -0.059762795 0.75400001 4279435265
0.091286033 -0.059762795 0.75400001 4280486673
0.092599504 -0.059762795 0.75400001 4280687118
0.093912967 -0.059762795 0.75400001 4280950290
0.095226437 -0.059762795 0.75400001 4281213478
0.0965399 -0.059762795 0.75400001 4281213478
0.09785337 -0.059762795 0.75400001 4280950556
0.098903798 -0.059604283 0.75200003 4280753433
0.10021379 -0.059604283 0.75200003 4280491050
0.10152377 -0.059604283 0.75200003 4280162085
0.10283376 -0.059604283 0.75200003 4279635480
0.10400525 -0.059525017 0.75100005 4279372051
0.10531349 -0.059525017 0.75100005 4278977799
0.10662173 -0.059525017 0.75100005 4278780421
0.10764254 -0.059366498 0.74900001 4278912004
0.1089473 -0.059366498 0.74900001 4279109383
0.11025206 -0.059366498 0.74900001 4279109383
0.11125894 -0.059207976 0.74700004 4279109383
0.11256021 -0.059207976 0.74700004 4279109383
0.11386149 -0.059207976 0.74700004 4279043590
0.11500859 -0.059128713 0.74600005 4278977293
0.11630813 -0.059128713 0.74600005 4279043342
0.11729235 -0.058970191 0.74400002 4279043592
0.1185884 -0.058970191 0.74400002 4278977799
0.11972331 -0.058890931 0.74300003 4279109383
0.12101763 -0.058890931 0.74300003 4278977797
0.12231193 -0.058890931 0.74300003 4278977293
0.12360624 -0.058890931 0.74300003 4278911500
0.12490054 -0.058890931 0.74300003 4278781967
0.12585516 -0.058732413 0.74100006 4278716174
0.12714598 -0.058732413 0.74100006 4279043840
0.1284368 -0.058732413 0.74100006 4279702027
0.12972763 -0.058732413 0.74100006 4280096030
0.13137208 -0.058890931 0.74300003 4280753704
0.13230927 -0.058732413 0.74100006 4280754724
0.13360009 -0.058732413 0.74100006 4280754724
0.13489093 -0.058732413 0.74100006 4280688935
0.13618174 -0.058732413 0.74100006 4280688935
0.1371015 -0.058573883 0.73900002 4280688935
0.13838886 -0.058573883 0.73900002 4280951850
0.13948719 -0.058494627 0.73800004 4280951850
0.14077277 -0.058494627 0.73800004 4280820521
0.14205837 -0.058494627 0.73800004 4280754724
0.14295551 -0.058336105 0.73600006 4280754724
0.14423761 -0.058336105 0.73600006 4280754724
0.14551973 -0.058336105 0.73600006 4280754724
0.14680184 -0.058336105 0.73600006 4281081892
0.14808397 -0.058336105 0.73600006 4281081892
0.14936607 -0.058336105 0.73600006 4281277988
0.15064819 -0.058336105 0.73600006 4281344037
0.15193029 -0.058336105 0.73600006 4281212195
0.15321241 -0.058336105 0.73600006 4281146402
0.1542846 -0.058256842 0.73500001 4280950306
0.15556498 -0.058256842 0.73500001 4280950306
0.15684533 -0.058256842 0.73500001 4280950306
0.15769544 -0.05809832 0.73300004 4280950306
0.15897232 -0.05809832 0.73300004 4280688931
0.16024922 -0.05809832 0.73300004 4280688931
0.1615261 -0.05809832 0.73300004 4280622886
0.16280298 -0.05809832 0.73300004 4280622886
0.16407987 -0.05809832 0.73300004 4280491077
0.16467999 -0.057860535 0.73000002 4280359491
0.16595164 -0.057860535 0.73000002 4279965769
0.1672233 -0.057860535 0.73000002 4279636804
0.16849497 -0.057860535 0.73000002 4280097105
0.16999918 -0.057939798 0.73100001 4280031312
0.17127259 -0.057939798 0.73100001 4279638099
0.17301807 -0.05809832 0.73300004 4278256446
0.17429496 -0.05809832 0.73300004 4278190143
0.17557184 -0.05809832 0.73300004 4285166520
0.17733125 -0.058256842 0.73500001 4289503428
0.17861162 -0.058256842 0.73500001 4294967295
-0.017136928 -0.061007462 0.78700006 4290741784
-0.015765974 -0.061007462 0.78700006 4290742086
-0.014395018 -0.061007462 0.78700006 4290807879
-0.013024065 -0.061007462 0.78700006 4288967013
-0.01165311 -0.061007462 0.78700006 4287651153
-0.010282157 -0.061007462 0.78700006 4287322401
-0.0089112027 -0.061007462 0.78700006 4286796057
-0.0075498288 -0.061084978 0.78800005 4287453460
-0.0061771329 -0.061084978 0.78800005 4288111133
-0.0048044366 -0.061084978 0.78800005 4287914020
-0.0034317404 -0.061084978 0.78800005 4287782434
-0.0020590443 -0.061084978 0.78800005 4287518231
-0.00068547711 -0.061007462 0.78700006 4286860558
0.00068373507 -0.060852423 0.78500003 4286400512
0.0020512051 -0.060852423 0.78500003 4286203136
0.0034186754 -0.060852423 0.78500003 4286004480
0.0047861454 -0.060852423 0.78500003 4285412352
0.0061536157 -0.060852423 0.78500003 4285607168
0.0075019244 -0.060697384 0.78300005 4285410048
0.0088659106 -0.060697384 0.78300005 4286266368
0.010229897 -0.060697384 0.78300005 4286135040
0.011549461 -0.060464829 0.78000003 4286662912
0.012908221 -0.060464829 0.78000003 4286465536
0.014266982 -0.060464829 0.78000003 4286397696
0.015645776 -0.060542345 0.78100002 4285476608
0.016984502 -0.060464829 0.78000003 4286592768
0.018343262 -0.060464829 0.78000003 4286198272
0.019702023 -0.060464829 0.78000003 4286460416
0.021060782 -0.060464829 0.78000003 4285999872
0.022419542 -0.060464829 0.78000003 4286394112
0.023778303 -0.060464829 0.78000003 4285801728
0.025137061 -0.060464829 0.78000003 4286001152
0.026495824 -0.060464829 0.78000003 4285935360
0.027854582 -0.060464829 0.78000003 4286066176
0.029213343 -0.060464829 0.78000003 4286066176
0.030493714 -0.06030979 0.77800006 4287315968
0.031848989 -0.06030979 0.77800006 4287644672
0.033204265 -0.06030979 0.77800006 4287578880
0.03455954 -0.06030979 0.77800006 4287315968
0.035914816 -0.06030979 0.77800006 4287448327
0.037270095 -0.06030979 0.77800006 4287514376
0.038625371 -0.06030979 0.77800006 4288039946
0.039877865 -0.060154751 0.77600002 4287908360
0.041229662 -0.060154751 0.77600002 4288238608
0.042471711 -0.059999712 0.77400005 4288435987
0.043820012 -0.059999712 0.77400005 4288371993
0.045109969 -0.059922196 0.77300006 4288503579
0.046456534 -0.059922196 0.77300006 4289032739
0.0478031 -0.059922196 0.77300006 4289953841
0.049149666 -0.059922196 0.77300006 4289626712
0.050496232 -0.059922196 0.77300006 4290350692
0.051909864 -0.059999712 0.77400005 4290417011
0.053258173 -0.059999712 0.77400005 4291469700
0.054606482 -0.059999712 0.77400005 4291602040
0.055954788 -0.059999712 0.77400005 4291865211
0.057229061 -0.059922196 0.77300006 4291865228
0.05857563 -0.059922196 0.77300006 4292194192
0.059922196 -0.059922196 0.77300006 4289891730
0.061110236 -0.059767157 0.77100003 4287917684
0.062453318 -0.059767157 0.77100003 4288640880
0.063796401 -0.059767157 0.77100003 4290285705
0.064970508 -0.059612118 0.76900005 4291271501
0.066310108 -0.059612118 0.76900005 4291863381
0.067649707 -0.059612118 0.76900005 4291996786
0.068809874 -0.059457079 0.76700002 4292720253
0.070145994 -0.059457079 0.76700002 4293246883
0.071482107 -0.059457079 0.76700002 4294365107
0.072723284 -0.059379559 0.76600003 4293710305
0.076225579 -0.058991965 0.76100004 4278648832
0.077347428 -0.058836926 0.75900006 4278780171
0.078462295 -0.058681887 0.75700003 4281477683
0.079675607 -0.058604371 0.75600004 4281475616
0.080992557 -0.058604371 0.75600004 4279304448
0.082091756 -0.058449332 0.75400001 4279632409
0.083405226 -0.058449332 0.75400001 4279763995
0.084718689 -0.058449332 0.75400001 4279109383
0.08603216 -0.058449332 0.75400001 4278977797
0.087345622 -0.058449332 0.75400001 4279435278
0.088659093 -0.058449332 0.75400001 4279435278
0.089972571 -0.058449332 0.75400001 4279238667
0.091286033 -0.058449332 0.75400001 4278910982
0.092599504 -0.058449332 0.75400001 4278910976
0.093912967 -0.058449332 0.75400001 4279173120
0.095226437 -0.058449332 0.75400001 4279435276
0.0965399 -0.058449332 0.75400001 4279304203
0.09785337 -0.058449332 0.75400001 4278910976
0.09916684 -0.058449332 0.75400001 4278845440
0.10021379 -0.058294293 0.75200003 4278976795
0.10152377 -0.058294293 0.75200003 4278779929
0.10283376 -0.058294293 0.75200003 4278911500
0.10414374 -0.058294293 0.75200003 4278977293
0.10531349 -0.058216777 0.75100005 4279173120
0.10662173 -0.058216777 0.75100005 4279238912
0.10764254 -0.058061738 0.74900001 4278912004
0.1089473 -0.058061738 0.74900001 4279109383
0.11025206 -0.058061738 0.74900001 4279109383
0.11125894 -0.057906698 0.74700004 4279109383
0.11256021 -0.057906698 0.74700004 4278977799
0.11386149 -0.057906698 0.74700004 4278911750
0.11500859 -0.057829183 0.74600005 4278911500
0.11630813 -0.057829183 0.74600005 4278648840
0.11729235 -0.057674143 0.74400002 4278190080
0.1185884 -0.057674143 0.74400002 4278190080
0.11972331 -0.05759662 0.74300003 4278190080
0.12101763 -0.05759662 0.74300003 4278190080
0.12231193 -0.05759662 0.74300003 4278255616
0.12360624 -0.05759662 0.74300003 4278780675
0.12490054 -0.05759662 0.74300003 4278977293
0.12619485 -0.05759662 0.74300003 4278911500
0.12714598 -0.057441588 0.74100006 4279109383
0.1284368 -0.057441588 0.74100006 4279635727
0.12972763 -0.057441588 0.74100006 4279898395
0.13137208 -0.05759662 0.74300003 4280490788
0.13230927 -0.057441588 0.74100006 4280623392
0.13360009 -0.057441588 0.74100006 4280623392
0.13489093 -0.057441588 0.74100006 4280950054
0.13618174 -0.057441588 0.74100006 4280950054
0.1371015 -0.057286549 0.73900002 4280950054
0.13838886 -0.057286549 0.73900002 4280950054
0.13948719 -0.05720903 0.73800004 4280688935
0.14077277 -0.05720903 0.73800004 4280622886
0.14205837 -0.05720903 0.73800004 4280623138
0.14295551 -0.057053991 0.73600006 4280688931
0.14423761 -0.057053991 0.73600006 4280688935
0.14551973 -0.057053991 0.73600006 4280688935
0.14680184 -0.057053991 0.73600006 4281016099
0.14808397 -0.057053991 0.73600006 4281016099
0.14936607 -0.057053991 0.73600006 4281016099
0.15064819 -0.057053991 0.73600006 4280950306
0.15193029 -0.057053991 0.73600006 4280950306
0.15321241 -0.057053991 0.73600006 4280950306
0.15449451 -0.057053991 0.73600006 4281082142
0.15556498 -0.056976471 0.73500001 4281082142
0.15684533 -0.056976471 0.73500001 4281016349
0.15769544 -0.056821436 0.73300004 4280950556
0.15897232 -0.056821436 0.73300004 4280950306
0.16024922 -0.056821436 0.73300004 4281016099
0.1615261 -0.056821436 0.73300004 4280622384
0.16280298 -0.056821436 0.73300004 4280293675
0.16407987 -0.056821436 0.73300004 4279833928
0.16535676 -0.056821436 0.73300004 4279768135
0.16663364 -0.056821436 0.73300004 4279833678
0.16745238 -0.056666389 0.73100001 4279965265
0.16872577 -0.056666389 0.73100001 4279901268
0.16999918 -0.056666389 0.73100001 4279967061
0.17174119 -0.056821436 0.73300004 4278915418
0.17301807 -0.056821436 0.73300004 4278190145
0.17429496 -0.056821436 0.73300004 4278190669
0.17557184 -0.056821436 0.73300004 4289511679
0.17733125 -0.056976471 0.73500001 4293385208
-0.017136928 -0.059636503 0.78700006 4291197508
-0.015765974 -0.059636503 0.78700006 4289888566
-0.014413309 -0.059712287 0.78800005 4289690931
-0.013040613 -0.059712287 0.78800005 4286999333
-0.011667917 -0.059712287 0.78800005 4286275353
-0.010295222 -0.059712287 0.78800005 4285614336
-0.0089225248 -0.059712287 0.78800005 4285943296
-0.0075498288 -0.059712287 0.78800005 4286007559
-0.0061771329 -0.059712287 0.78800005 4286139145
-0.0048044366 -0.059712287 0.78800005 4285285376
-0.0034317404 -0.059712287 0.78800005 4286140416
-0.0020590443 -0.059712287 0.78800005 4285089537
-0.00068547711 -0.059636503 0.78700006 4284431616
0.00068547711 -0.059636503 0.78700006 4282916352
0.0020512051 -0.059484955 0.78500003 4282850560
0.0034186754 -0.059484955 0.78500003 4283173632
0.0047861454 -0.059484955 0.78500003 4284160512
0.0061536157 -0.059484955 0.78500003 4284620544
0.0075210854 -0.059484955 0.78500003 4285081088
0.0088659106 -0.059333395 0.78300005 4285608704
0.010229897 -0.059333395 0.78300005 4286003456
0.011549461 -0.059106063 0.78000003 4286267904
0.012908221 -0.059106063 0.78000003 4286399488
0.014285273 -0.059181839 0.78100002 4286594816
0.015645776 -0.059181839 0.78100002 4286331904
0.017006276 -0.059181839 0.78100002 4286789632
0.018366778 -0.059181839 0.78100002 4286987008
0.01972728 -0.059181839 0.78100002 4286856448
0.030572103 -0.059106063 0.78000003 4289357886
0.03193086 -0.059106063 0.78000003 4290410575
0.033204265 -0.058954515 0.77800006 4290543710
0.03455954 -0.058954515 0.77800006 4291201383
0.035914816 -0.058954515 0.77800006 4291400322
0.037270095 -0.058954515 0.77800006 4291532165
0.038625371 -0.058954515 0.77800006 4291730309
0.039877865 -0.058802955 0.77600002 4292059018
0.041229662 -0.058802955 0.77600002 4292257169
0.042471711 -0.058651406 0.77400005 4292651671
0.043820012 -0.058651406 0.77400005 4292718499
0.045109969 -0.05857563 0.77300006 4292850086
0.046456534 -0.05857563 0.77300006 4292916905
0.0478031 -0.05857563 0.77300006 4293114541
0.049149666 -0.05857563 0.77300006 4293246642
0.050496232 -0.05857563 0.77300006 4293246642
0.051909864 -0.058651406 0.77400005 4293312687
0.053258173 -0.058651406 0.77400005 4293707445
0.054606482 -0.058651406 0.77400005 4293905086
0.055954788 -0.058651406 0.77400005 4293971135
0.057229061 -0.05857563 0.77300006 4294102480
0.05857563 -0.05857563 0.77300006 4293707723
0.059922196 -0.05857563 0.77300006 4292194243
0.061110236 -0.058424074 0.77100003 4289496730
0.062453318 -0.058424074 0.77100003 4290941307
0.063796401 -0.058424074 0.77100003 4292454546
0.064970508 -0.058272522 0.76900005 4293242513
0.066310108 -0.058272522 0.76900005 4293834906
0.067473762 -0.058120966 0.76700002 4294034096
0.068809874 -0.058120966 0.76700002 4294428854
0.070145994 -0.058120966 0.76700002 4294824139
0.071482107 -0.058120966 0.76700002 4294965491
0.076225579 -0.057666302 0.76100004 4278190097
0.077347428 -0.057514749 0.75900006 4278190080
0.078462295 -0.057363193 0.75700003 4281742384
0.079780996 -0.057363193 0.75700003 4281410857
0.081099689 -0.057363193 0.75700003 4279173895
0.082091756 -0.057135861 0.75400001 4279174425
0.083405226 -0.057135861 0.75400001 4279371803
0.084718689 -0.057135861 0.75400001 4279175178
0.08603216 -0.057135861 0.75400001 4279240972
0.087345622 -0.057135861 0.75400001 4279372051
0.088659093 -0.057135861 0.75400001 4279240722
0.089972571 -0.057135861 0.75400001 4278977293
0.091286033 -0.057135861 0.75400001 4278452229
0.092599504 -0.057135861 0.75400001 4278845440
0.093912967 -0.057135861 0.75400001 4279173376
0.095226437 -0.057135861 0.75400001 4279173120
0.0965399 -0.057135861 0.75400001 4279173120
0.09785337 -0.057135861 0.75400001 4278779904
0.09916684 -0.057135861 0.75400001 4278779904
0.10048031 -0.057135861 0.75400001 4278910982
0.10152377 -0.056984309 0.75200003 4278845445
0.10283376 -0.056984309 0.75200003 4278910976
0.10414374 -0.056984309 0.75200003 4279238659
0.10545372 -0.056984309 0.75200003 4279238912
0.10662173 -0.056908537 0.75100005 4279436288
0.10792998 -0.056908537 0.75100005 4279633410
0.1089473 -0.056756977 0.74900001 4279765253
0.11025206 -0.056756977 0.74900001 4279372301
0.11125894 -0.056605428 0.74700004 4279372301
0.11256021 -0.056605428 0.74700004 4279372301
0.11386149 -0.056605428 0.74700004 4279043592
0.11500859 -0.056529652 0.74600005 4278452224
0.11630813 -0.056529652 0.74600005 4278190080
0.11760767 -0.056529652 0.74600005 4278190080
0.1185884 -0.056378096 0.74400002 4278190080
0.11988445 -0.056378096 0.74400002 4278190124
0.12101763 -0.05630232 0.74300003 4278190119
0.12231193 -0.05630232 0.74300003 4278452243
0.12360624 -0.05630232 0.74300003 4278648854
0.12490054 -0.05630232 0.74300003 4278780421
0.12619485 -0.05630232 0.74300003 4279043592
0.12748915 -0.05630232 0.74300003 4279372301
0.1284368 -0.056150764 0.74100006 4279504143
0.12972763 -0.056150764 0.74100006 4280030237
0.13137208 -0.05630232 0.74300003 4280819497
0.13266638 -0.05630232 0.74300003 4280754724
0.13360009 -0.056150764 0.74100006 4280754724
0.13489093 -0.056150764 0.74100006 4281016099
0.13618174 -0.056150764 0.74100006 4281016099
0.13747256 -0.056150764 0.74100006 4281016099
0.13838886 -0.055999205 0.73900002 4281016099
0.13948719 -0.055923432 0.73800004 4280688935
0.14077277 -0.055923432 0.73800004 4280688935
0.14205837 -0.055923432 0.73800004 4280622886
0.14334397 -0.055923432 0.73800004 4280688935
0.14423761 -0.05577188 0.73600006 4280754728
0.14551973 -0.05577188 0.73600006 4280754728
0.14680184 -0.05577188 0.73600006 4280754728
0.14808397 -0.05577188 0.73600006 4280754728
0.14977196 -0.055923432 0.73800004 4281081640
0.15064819 -0.05577188 0.73600006 4281015847
0.15193029 -0.05577188 0.73600006 4281016099
0.15321241 -0.05577188 0.73600006 4281016099
0.15449451 -0.05577188 0.73600006 4281016099
0.15577663 -0.05577188 0.73600006 4281016099
0.15705873 -0.05577188 0.73600006 4280950306
0.15769544 -0.055544548 0.73300004 4280950306
0.15897232 -0.055544548 0.73300004 4280622886
0.16024922 -0.055544548 0.73300004 4280688935
0.16196682 -0.0556961 0.73500001 4280360495
0.16280298 -0.055544548 0.73300004 4280229166
0.16407987 -0.055544548 0.73300004 4280031560
0.16535676 -0.055544548 0.73300004 4279636802
0.16663364 -0.055544548 0.73300004 4279833678
0.16791053 -0.055544548 0.73300004 4279965265
0.16918741 -0.055544548 0.73300004 4280228434
0.17046431 -0.055544548 0.73300004 4279570761
0.17174119 -0.055544548 0.73300004 4278194750
0.17301807 -0.055544548 0.73300004 4278190120
0.17477052 -0.0556961 0.73500001 4278522699
0.17605089 -0.0556961 0.73500001 4292931071
0.17733125 -0.0556961 0.73500001 4294703871
-0.017136928 -0.058265552 0.78700006 4289298617
-0.015765974 -0.058265552 0.78700006 4289428043
-0.014413309 -0.058339588 0.78800005 4289757008
-0.013040613 -0.058339588 0.78800005 4289627746
-0.011667917 -0.058339588 0.78800005 4290417261
-0.010295222 -0.058339588 0.78800005 4290614102
-0.0089225248 -0.058339588 0.78800005 4291140446
-0.0075498288 -0.058339588 0.78800005 4291404436
-0.0061771329 -0.058339588 0.78800005 4291536278
-0.0048044366 -0.058339588 0.78800005 4292259467
-0.0034317404 -0.058339588 0.78800005 4292983191
-0.0020590443 -0.058339588 0.78800005 4292983988
-0.00068547711 -0.058265552 0.78700006 4293115574
0.00068547711 -0.058265552 0.78700006 4293576636
0.0020564313 -0.058265552 0.78700006 4294037187
0.0034186754 -0.058117479 0.78500003 4294301629
0.0047861454 -0.058117479 0.78500003 4294959815
0.0061536157 -0.058117479 0.78500003 4294895324
0.0075210854 -0.058117479 0.78500003 4294961631
0.0088659106 -0.057969414 0.78300005 4294962915
0.010229897 -0.057969414 0.78300005 4294964457
0.011564268 -0.057821341 0.78100002 4294964972
0.012924771 -0.057821341 0.78100002 4294965486
0.03193086 -0.057747304 0.78000003 4294967295
0.033289623 -0.057747304 0.78000003 4294967295
0.034648385 -0.057747304 0.78000003 4294967295
0.036007144 -0.057747304 0.78000003 4294967295
0.037270095 -0.057599239 0.77800006 4294967295
0.038625371 -0.057599239 0.77800006 4294967295
0.039877865 -0.057451162 0.77600002 4294967295
0.041229662 -0.057451162 0.77600002 4294967295
0.042471711 -0.057303093 0.77400005 4294967295
0.043763399 -0.057229061 0.77300006 4294967295
0.045109969 -0.057229061 0.77300006 4294967295
0.046456534 -0.057229061 0.77300006 4294967295
0.0478031 -0.057229061 0.77300006 4294967295
0.049149666 -0.057229061 0.77300006 4294967295
0.050496232 -0.057229061 0.77300006 4294967295
0.051909864 -0.057303093 0.77400005 4294967295
0.053258173 -0.057303093 0.77400005 4294967295
0.054606482 -0.057303093 0.77400005 4294967295
0.055954788 -0.057303093 0.77400005 4294967295
0.057229061 -0.057229061 0.77300006 4294967295
0.05857563 -0.057229061 0.77300006 4294967295
0.059922196 -0.057229061 0.77300006 4293646840
0.061110236 -0.057080992 0.77100003 4291146450
0.062453318 -0.057080992 0.77100003 4292198106
0.063796401 -0.057080992 0.77100003 4294964991
0.064970508 -0.056932922 0.76900005 4294966521
0.066310108 -0.056932922 0.76900005 4294967295
0.076225579 -0.056340642 0.76100004 4278648832
0.077347428 -0.056192573 0.75900006 4278190091
0.078462295 -0.0560445 0.75700003 4280756806
0.079780996 -0.0560445 0.75700003 4282003244
0.081099689 -0.0560445 0.75700003 4279108352
0.082309514 -0.055970464 0.75600004 4279174175
0.083405226 -0.055822399 0.75400001 4279437346
0.084718689 -0.055822399 0.75400001 4279240722
0.08603216 -0.055822399 0.75400001 4279240722
0.087345622 -0.055822399 0.75400001 4279240218
0.088659093 -0.055822399 0.75400001 4278977045
0.089972571 -0.055822399 0.75400001 4278648832
0.091286033 -0.055822399 0.75400001 4278255616
0.092599504 -0.055822399 0.75400001 4278779908
0.093912967 -0.055822399 0.75400001 4279830292
0.095226437 -0.055822399 0.75400001 4280092160
0.0965399 -0.055822399 0.75400001 4280815622
0.09785337 -0.055822399 0.75400001 4280225024
0.09916684 -0.055822399 0.75400001 4279698688
0.10048031 -0.055822399 0.75400001 4279173376
0.10152377 -0.055674326 0.75200003 4279107584
0.10283376 -0.055674326 0.75200003 4278190080
0.10414374 -0.055674326 0.75200003 4278190080
0.10545372 -0.055674326 0.75200003 4278190080
0.10662173 -0.055600289 0.75100005 4278190080
0.10792998 -0.055600289 0.75100005 4278321152
0.10923822 -0.055600289 0.75100005 4278715136
0.11054646 -0.055600289 0.75100005 4278780421
0.11155681 -0.05545222 0.74900001 4278780421
0.11286157 -0.05545222 0.74900001 4278780421
0.11416633 -0.05545222 0.74900001 4278255616
0.11516277 -0.055304151 0.74700004 4278190080
0.11646404 -0.055304151 0.74700004 4281215777
0.11760767 -0.055230118 0.74600005 4285620760
0.11890719 -0.055230118 0.74600005 4287462964
0.12020673 -0.055230118 0.74600005 4287199097
0.1211805 -0.055082045 0.74400002 4285619808
0.12247654 -0.055082045 0.74400002 4283255880
0.1237726 -0.055082045 0.74400002 4278190080
0.12490054 -0.055008009 0.74300003 4278190080
0.12619485 -0.055008009 0.74300003 4278652428
0.12748915 -0.055008009 0.74300003 4279635480
0.12878346 -0.055008009 0.74300003 4279898395
0.13007776 -0.055008009 0.74300003 4280095779
0.13137208 -0.055008009 0.74300003 4280885294
0.13266638 -0.055008009 0.74300003 4280688935
0.13396069 -0.055008009 0.74300003 4280754728
0.13489093 -0.054859944 0.74100006 4280884261
0.13618174 -0.054859944 0.74100006 4280950054
0.13747256 -0.054859944 0.74100006 4280884261
0.13838886 -0.054711871 0.73900002 4281015847
0.13948719 -0.054637838 0.73800004 4281081640
0.14077277 -0.054637838 0.73800004 4281081640
0.14205837 -0.054637838 0.73800004 4280949804
0.14334397 -0.054637838 0.73800004 4281015597
0.14462957 -0.054637838 0.73800004 4280754728
0.14591515 -0.054637838 0.73800004 4280754728
0.14720076 -0.054637838 0.73800004 4281081640
0.14848636 -0.054637838 0.73800004 4281147433
0.14977196 -0.054637838 0.73800004 4281015847
0.15126224 -0.054711871 0.73900002 4281015847
0.15234314 -0.054637838 0.73800004 4281016099
0.15362874 -0.054637838 0.73800004 4281081892
0.15491433 -0.054637838 0.73800004 4281016099
0.15577663 -0.054489769 0.73600006 4281016099
0.15705873 -0.054489769 0.73600006 4281016099
0.1581257 -0.054415729 0.73500001 4281016099
0.15940608 -0.054415729 0.73500001 4281015847
0.16068645 -0.054415729 0.73500001 4281213482
0.16196682 -0.054415729 0.73500001 4280621882
0.16324718 -0.054415729 0.73500001 4280687931
0.16407987 -0.054267664 0.73300004 4280097868
0.16535676 -0.054267664 0.73300004 4279966282
0.16663364 -0.054267664 0.73300004 4280031060
0.16791053 -0.054267664 0.73300004 4280491611
0.16918741 -0.054267664 0.73300004 4279572306
0.17092942 -0.054415729 0.73500001 4278190138
0.17220977 -0.054415729 0.73500001 4278190102
0.17349014 -0.054415729 0.73500001 4283652475
0.17477052 -0.054415729 0.73500001 4286869723
0.17605089 -0.054415729 0.73500001 4294965247
-0.017136928 -0.0568946 0.78700006 4292259747
-0.015786005 -0.056966893 0.78800005 4291666309
-0.014413309 -0.056966893 0.78800005 4292192909
-0.013040613 -0.056966893 0.78800005 4292718490
-0.011667917 -0.056966893 0.78800005 4292915612
-0.010295222 -0.056966893 0.78800005 4293113498
-0.0089225248 -0.056966893 0.78800005 4293836964
-0.0075689908 -0.057111472 0.79000002 4294035906
-0.0061771329 -0.056966893 0.78800005 4294496457
-0.0048044366 -0.056966893 0.78800005 4294891983
-0.0034317404 -0.056966893 0.78800005 4294959318
-0.0020590443 -0.056966893 0.78800005 4294961127
-0.00068634807 -0.056966893 0.78800005 4294966267
0.00068547711 -0.0568946 0.78700006 4294967295
0.0020564313 -0.0568946 0.78700006 4294967295
0.0034273856 -0.0568946 0.78700006 4294967295
0.0047983397 -0.0568946 0.78700006 4294967295
0.0061536157 -0.056750007 0.78500003 4294967295
0.0075210854 -0.056750007 0.78500003 4294967295
0.034648385 -0.05638855 0.78000003 4294967295
0.036007144 -0.05638855 0.78000003 4294967295
0.037270095 -0.056243964 0.77800006 4294967295
0.038625371 -0.056243964 0.77800006 4294967295
0.03998065 -0.056243964 0.77800006 4294967295
0.041229662 -0.056099374 0.77600002 4294967295
0.04258145 -0.056099374 0.77600002 4294967295
0.045109969 -0.055882495 0.77300006 4294967295
0.046456534 -0.055882495 0.77300006 4294967295
0.0478031 -0.055882495 0.77300006 4294967295
0.049149666 -0.055882495 0.77300006 4294967295
0.050496232 -0.055882495 0.77300006 4294967295
0.051909864 -0.055954788 0.77400005 4294967295
0.053258173 -0.055954788 0.77400005 4294967295
0.054747581 -0.056099374 0.77600002 4294967295
0.055954788 -0.055954788 0.77400005 4294967295
0.057303093 -0.055954788 0.77400005 4294967295
0.05857563 -0.055882495 0.77300006 4294967295
0.059922196 -0.055882495 0.77300006 4294107889
0.061110236 -0.055737909 0.77100003 4290949568
0.062453318 -0.055737909 0.77100003 4292592573
0.077347428 -0.054870397 0.75900006 4279173120
0.078462295 -0.054725807 0.75700003 4282063127
0.079780996 -0.054725807 0.75700003 4281149486
0.081099689 -0.054725807 0.75700003 4278583302
0.082418382 -0.054725807 0.75700003 4279697414
0.083626464 -0.054653514 0.75600004 4280157197
0.084943414 -0.054653514 0.75600004 4279502081
0.08603216 -0.054508924 0.75400001 4279370496
0.087345622 -0.054508924 0.75400001 4278780928
0.088659093 -0.054508924 0.75400001 4278321152
0.089972571 -0.054508924 0.75400001 4278255616
0.091286033 -0.054508924 0.75400001 4278255616
0.092599504 -0.054508924 0.75400001 4278386688
0.093912967 -0.054508924 0.75400001 4278190080
0.095479026 -0.054653514 0.75600004 4278190080
0.096795984 -0.054653514 0.75600004 4278517760
0.09785337 -0.054508924 0.75400001 4279042048
0.09916684 -0.054508924 0.75400001 4278976512
0.10048031 -0.054508924 0.75400001 4278779904
0.10152377 -0.054364342 0.75200003 4278583296
0.10283376 -0.054364342 0.75200003 4278190080
0.10414374 -0.054364342 0.75200003 4278190080
0.10545372 -0.054364342 0.75200003 4278190095
0.10662173 -0.054292049 0.75100005 4278190093
0.10792998 -0.054292049 0.75100005 4278190080
0.10923822 -0.054292049 0.75100005 4278190080
0.11054646 -0.054292049 0.75100005 4278190080
0.1118547 -0.054292049 0.75100005 4278190085
0.11316294 -0.054292049 0.75100005 4278190097
0.11416633 -0.05414746 0.74900001 4278190084
0.11547109 -0.05414746 0.74900001 4278190080
0.11646404 -0.054002877 0.74700004 4284174411
0.11760767 -0.053930584 0.74600005 4286670200
0.11890719 -0.053930584 0.74600005 4288841368
0.12020673 -0.053930584 0.74600005 4289303201
0.12150626 -0.053930584 0.74600005 4289171615
0.12280578 -0.053930584 0.74600005 4284248208
0.1237726 -0.053785998 0.74400002 4280169042
0.12506865 -0.053785998 0.74400002 4278191393
0.12636469 -0.053785998 0.74400002 4278194477
0.12766074 -0.053785998 0.74400002 4280093961
0.12895678 -0.053785998 0.74400002 4280225804
0.13025284 -0.053785998 0.74400002 4280294177
0.13137208 -0.053713705 0.74300003 4280951850
0.13266638 -0.053713705 0.74300003 4281018146
0.13396069 -0.053713705 0.74300003 4280952352
0.13489093 -0.053569123 0.74100006 4280820773
0.13618174 -0.053569123 0.74100006 4280557345
0.13747256 -0.053569123 0.74100006 4280688931
0.13876338 -0.053569123 0.74100006 4280820773
0.14005421 -0.053569123 0.74100006 4281213478
0.14096352 -0.053424533 0.73900002 4280884513
0.14225085 -0.053424533 0.73900002 4280884261
0.14353821 -0.053424533 0.73900002 4280950054
0.14482555 -0.053424533 0.73900002 4281081892
0.14611287 -0.053424533 0.73900002 4281016099
0.14740022 -0.053424533 0.73900002 4281146402
0.14868754 -0.053424533 0.73900002 4281146402
0.1499749 -0.053424533 0.73900002 4281146652
0.15126224 -0.053424533 0.73900002 4281278494
0.15254956 -0.053424533 0.73900002 4281344287
0.15383691 -0.053424533 0.73900002 4281475616
0.15491433 -0.05335224 0.73800004 4281345314
0.15619993 -0.05335224 0.73800004 4281147935
0.15705873 -0.053207655 0.73600006 4281212445
0.1581257 -0.053135358 0.73500001 4281344287
0.15940608 -0.053135358 0.73500001 4281474853
0.16068645 -0.053135358 0.73500001 4281737769
0.16196682 -0.053135358 0.73500001 4281476148
0.16324718 -0.053135358 0.73500001 4280884011
0.16452757 -0.053135358 0.73500001 4280882240
0.16580793 -0.053135358 0.73500001 4280948033
0.1670883 -0.053135358 0.73500001 4280359493
0.16836867 -0.053135358 0.73500001 4280030528
0.16964905 -0.053135358 0.73500001 4278585649
0.17046431 -0.052990776 0.73300004 4278190103
0.17174119 -0.052990776 0.73300004 4278190080
0.17349014 -0.053135358 0.73500001 4287139466
0.17477052 -0.053135358 0.73500001 4292921302
-0.015786005 -0.055594195 0.78800005 4294967295
-0.014413309 -0.055594195 0.78800005 4294967295
-0.013040613 -0.055594195 0.78800005 4294967295
-0.011667917 -0.055594195 0.78800005 4294967295
-0.010295222 -0.055594195 0.78800005 4294967295
-0.0089451708 -0.055735294 0.79000002 4294967295
-0.0075689908 -0.055735294 0.79000002 4294967295
-0.0061928104 -0.055735294 0.79000002 4294967295
-0.0048166304 -0.055735294 0.79000002 4294967295
-0.0034404502 -0.055735294 0.79000002 4294967295
-0.0020642702 -0.055735294 0.79000002 4294967295
-0.00068634807 -0.055594195 0.78800005 4294967295
0.00068634807 -0.055594195 0.78800005 4294967295
0.0020564313 -0.055523645 0.78700006 4294967295
0.0034273856 -0.055523645 0.78700006 4294967295
0.0478031 -0.054535933 0.77300006 4294967295
0.049149666 -0.054535933 0.77300006 4294967295
0.050496232 -0.054535933 0.77300006 4294967295
0.051909864 -0.054606482 0.77400005 4294967295
0.053258173 -0.054606482 0.77400005 4294967295
0.054606482 -0.054606482 0.77400005 4294967295
0.057303093 -0.054606482 0.77400005 4294967295
0.078462295 -0.05340711 0.75700003 4278191226
0.079780996 -0.05340711 0.75700003 4278192394
0.081099689 -0.05340711 0.75700003 4278190080
0.082418382 -0.05340711 0.75700003 4278190080
0.083626464 -0.053336564 0.75600004 4278387968
0.084943414 -0.053336564 0.75600004 4278779904
0.08603216 -0.053195458 0.75400001 4278190080
0.087345622 -0.053195458 0.75400001 4278190080
0.088659093 -0.053195458 0.75400001 4278255616
0.089972571 -0.053195458 0.75400001 4278779904
0.091286033 -0.053195458 0.75400001 4279500800
0.092599504 -0.053195458 0.75400001 4281729045
0.094162084 -0.053336564 0.75600004 4283698740
0.095479026 -0.053336564 0.75600004 4283635788
0.096795984 -0.053336564 0.75600004 4286201972
0.09785337 -0.053195458 0.75400001 4285682021
0.09916684 -0.053195458 0.75400001 4287063674
0.10048031 -0.053195458 0.75400001 4286868832
0.10152377 -0.053054359 0.75200003 4287066211
0.10283376 -0.053054359 0.75200003 4285748598
0.10414374 -0.053054359 0.75200003 4285682805
0.10545372 -0.053054359 0.75200003 4283574653
0.10676371 -0.053054359 0.75200003 4282719345
0.10807369 -0.053054359 0.75200003 4280943128
0.10938368 -0.053054359 0.75200003 4279566339
0.11069366 -0.053054359 0.75200003 4278190093
0.11200365 -0.053054359 0.75200003 4278190091
0.11331363 -0.053054359 0.75200003 4278190106
0.11776531 -0.052701604 0.74700004 4287526522
0.11890719 -0.05263105 0.74600005 4286144869
0.12020673 -0.05263105 0.74600005 4286539897
0.12150626 -0.05263105 0.74600005 4287987343
0.12297041 -0.052701604 0.74700004 4285555875
0.12427168 -0.052701604 0.74700004 4284700566
0.12540485 -0.05263105 0.74600005 4281547602
0.12670439 -0.05263105 0.74600005 4278190359
0.12800391 -0.05263105 0.74600005 4278717441
0.12930346 -0.05263105 0.74600005 4279770130
0.13025284 -0.052489948 0.74400002 4280490800
0.13154888 -0.052489948 0.74400002 4281082937
0.13284492 -0.052489948 0.74400002 4281213984
0.13396069 -0.052419398 0.74300003 4281082142
0.13525499 -0.052419398 0.74300003 4281081892
0.13654929 -0.052419398 0.74300003 4280950306
0.13784359 -0.052419398 0.74300003 4280950306
0.13876338 -0.052278299 0.74100006 4281345064
0.14005421 -0.052278299 0.74100006 4281213984
0.14134502 -0.052278299 0.74100006 4281147935
0.14263585 -0.052278299 0.74100006 4281147685
0.14392667 -0.052278299 0.74100006 4281081892
0.14521749 -0.052278299 0.74100006 4281081892
0.14650832 -0.052278299 0.74100006 4281213478
0.14779913 -0.052278299 0.74100006 4281082392
0.14908996 -0.052278299 0.74100006 4281016599
0.15038079 -0.052278299 0.74100006 4281080345
0.1516716 -0.052278299 0.74100006 4281146139
0.15296243 -0.052278299 0.74100006 4280884763
0.15383691 -0.052137192 0.73900002 4280884763
0.15512423 -0.052137192 0.73900002 4280687638
0.15641159 -0.052137192 0.73900002 4280950554
0.15705873 -0.051925544 0.73600006 4281146642
0.15834086 -0.051925544 0.73600006 4281080849
0.15962297 -0.051925544 0.73600006 4280753681
0.16090509 -0.051925544 0.73600006 4280885010
0.16196682 -0.051854987 0.73500001 4280623392
0.16324718 -0.051854987 0.73500001 4280557343
0.16452757 -0.051854987 0.73500001 4279898931
0.16580793 -0.051854987 0.73500001 4279109415
0.1670883 -0.051854987 0.73500001 4278190117
0.16836867 -0.051854987 0.73500001 4278190108
0.16964905 -0.051854987 0.73500001 4278190153
0.17046431 -0.051713891 0.73300004 4286476234
0.17174119 -0.051713891 0.73300004 4291146663
0.17301807 -0.051713891 0.73300004 4294967286
-0.011667917 -0.054221496 0.78800005 4294967295
-0.010295222 -0.054221496 0.78800005 4294967295
-0.0089451708 -0.054359112 0.79000002 4294967295
-0.0075689908 -0.054359112 0.79000002 4294967295
-0.0061928104 -0.054359112 0.79000002 4294967295
-0.00068809005 -0.054359112 0.79000002 4294967295
0.079780996 -0.052088417 0.75700003 4278194266
0.081099689 -0.052088417 0.75700003 4278190136
0.082091756 -0.051881991 0.75400001 4278190080
0.083405226 -0.051881991 0.75400001 4278190080
0.084943414 -0.052019611 0.75600004 4278190080
0.08603216 -0.051881991 0.75400001 4278190080
0.087345622 -0.051881991 0.75400001 4279173120
0.088659093 -0.051881991 0.75400001 4279500800
0.089972571 -0.051881991 0.75400001 4282974208
0.091286033 -0.051881991 0.75400001 4286524449
0.092845127 -0.052019611 0.75600004 4287978571
0.094162084 -0.052019611 0.75600004 4290281326
0.095605329 -0.052088417 0.75700003 4291140500
0.096924022 -0.052088417 0.75700003 4291535002
0.10048031 -0.051881991 0.75400001 4291473325
0.10179378 -0.051881991 0.75400001 4291341738
0.10310724 -0.051881991 0.75400001 4291275180
0.10442071 -0.051881991 0.75400001 4291275180
0.10573418 -0.051881991 0.75400001 4291012274
0.10704765 -0.051881991 0.75400001 4290222758
0.10836112 -0.051881991 0.75400001 4288843406
0.10967459 -0.051881991 0.75400001 4287329911
0.11098806 -0.051881991 0.75400001 4285094238
0.12036786 -0.05140033 0.74700004 4284109683
0.12166914 -0.05140033 0.74700004 4285096578
0.12297041 -0.05140033 0.74700004 4286277491
0.12427168 -0.05140033 0.74700004 4285619560
0.12557295 -0.05140033 0.74700004 4284764040
0.12687422 -0.05140033 0.74700004 4278845487
0.12817551 -0.05140033 0.74700004 4278190080
0.12947679 -0.05140033 0.74700004 4279703569
0.13060299 -0.051331524 0.74600005 4280621845
0.13190252 -0.051331524 0.74600005 4281082396
0.13320205 -0.051331524 0.74600005 4281080859
0.13450158 -0.051331524 0.74600005 4280883736
0.13543703 -0.0511939 0.74400002 4280882460
0.13673308 -0.0511939 0.74400002 4280816667
0.13784359 -0.051125091 0.74300003 4280816667
0.13913791 -0.051125091 0.74300003 4280816667
0.14043221 -0.051125091 0.74300003 4280555035
0.14134502 -0.050987478 0.74100006 4280752157
0.14263585 -0.050987478 0.74100006 4280491551
0.14392667 -0.050987478 0.74100006 4280096794
0.14521749 -0.050987478 0.74100006 4279832852
0.14650832 -0.050987478 0.74100006 4279635729
0.14779913 -0.050987478 0.74100006 4279438598
0.14908996 -0.050987478 0.74100006 4279109633
0.15038079 -0.050987478 0.74100006 4279173123
0.1516716 -0.050987478 0.74100006 4279107586
0.15296243 -0.050987478 0.74100006 4279304198
0.15425324 -0.050987478 0.74100006 4279173123
0.15554407 -0.050987478 0.74100006 4279107584
0.1568349 -0.050987478 0.74100006 4278845440
0.15769891 -0.050849855 0.73900002 4278976512
0.15898626 -0.050849855 0.73900002 4279107584
0.1602736 -0.050849855 0.73900002 4278714368
0.16156092 -0.050849855 0.73900002 4279240704
0.16859776 -0.050643433 0.73600006 4278716928
0.16987985 -0.050643433 0.73600006 4283577885
0.17092942 -0.050574619 0.73500001 4289433463
0.084943414 -0.050702658 0.75600004 4284690770
0.086260363 -0.050702658 0.75600004 4292388294
0.087577321 -0.050702658 0.75600004 4294965360
0.08889427 -0.050702658 0.75600004 4294967167
0.089972571 -0.050568525 0.75400001 4294967295
0.12817551 -0.050099056 0.74700004 4278190098
0.12947679 -0.050099056 0.74700004 4278190094
0.13077804 -0.050099056 0.74700004 4278190080
0.13190252 -0.05003199 0.74600005 4278780684
0.13320205 -0.05003199 0.74600005 4280287232
0.13450158 -0.05003199 0.74600005 4280025088
0.13543703 -0.049897853 0.74400002 4279828480
0.13673308 -0.049897853 0.74400002 4279697408
0.13802911 -0.049897853 0.74400002 4280221725
0.13913791 -0.049830787 0.74300003 4281204780
0.14043221 -0.049830787 0.74300003 4281663505
0.14172652 -0.049830787 0.74300003 4281401356
0.14263585 -0.049696654 0.74100006 4281139225
0.14392667 -0.049696654 0.74100006 4282717488
0.14521749 -0.049696654 0.74100006 4282523178
0.14650832 -0.049696654 0.74100006 4282260006
0.14779913 -0.049696654 0.74100006 4282588219
0.14908996 -0.049696654 0.74100006 4284167252
0.15038079 -0.049696654 0.74100006 4283904577
0.15208097 -0.049830787 0.74300003 4283444026
0.15337527 -0.049830787 0.74300003 4283640917
0.15466958 -0.049830787 0.74300003 4285351534
0.15596388 -0.049830787 0.74300003 4285156951
0.1572582 -0.049830787 0.74300003 4285485660
0.1585525 -0.049830787 0.74300003 4285748827
0.15984681 -0.049830787 0.74300003 4286341221
0.16114111 -0.049830787 0.74300003 4286539856
0.12817551 -0.048797779 0.74700004 4280418304
0.12947679 -0.048797779 0.74700004 4279631872
0.13077804 -0.048797779 0.74700004 4279042048
0.13190252 -0.048732456 0.74600005 4281011209
0.13320205 -0.048732456 0.74600005 4283640596
0.13450158 -0.048732456 0.74600005 4283311887
0.13580112 -0.048732456 0.74600005 4283114504
0.13710064 -0.048732456 0.74600005 4283180297
0.13802911 -0.048601806 0.74400002 4284427552
0.13932517 -0.048601806 0.74400002 4286137914
0.14043221 -0.048536479 0.74300003 4286402637
0.14172652 -0.048536479 0.74300003 4286402637
0.14302082 -0.048536479 0.74300003 4286404432
0.14431514 -0.048536479 0.74300003 4287852134
0.14560944 -0.048536479 0.74300003 4288381308
0.14690375 -0.048536479 0.74300003 4288052086
0.14819805 -0.048536479 0.74300003 4288183159
0.14949237 -0.048536479 0.74300003 4289367433
0.15078667 -0.048536479 0.74300003 4290221975
0.15208097 -0.048536479 0.74300003 4290024595
0.15337527 -0.048536479 0.74300003 4290024080
0.15487775 -0.048601806 0.74400002 4290616217
0.1561738 -0.048601806 0.74400002 4290814879
0.1572582 -0.048536479 0.74300003 4290946465
0.1585525 -0.048536479 0.74300003 4291209889
0.16006194 -0.048601806 0.74400002 4291143840
0.16114111 -0.048536479 0.74300003 4291012764
0.13190252 -0.047432926 0.74600005 4294964712
0.13320205 -0.047432926 0.74600005 4294967295
0.13450158 -0.047432926 0.74600005 4294967295
0.13580112 -0.047432926 0.74600005 4294967295
0.13710064 -0.047432926 0.74600005 4294967295
0.13840018 -0.047432926 0.74600005 4294967295
0.13932517 -0.047305755 0.74400002 4294967295
0.14062122 -0.047305755 0.74400002 4294967295
0.14191727 -0.047305755 0.74400002 4294967295
0.14302082 -0.047242172 0.74300003 4294967295
0.14431514 -0.047242172 0.74300003 4294967295
0.14560944 -0.047242172 0.74300003 4294967295
0.14690375 -0.047242172 0.74300003 4294967295
0.14819805 -0.047242172 0.74300003 4294967295
0.14949237 -0.047242172 0.74300003 4294967295
0.15078667 -0.047242172 0.74300003 4294967295
0.15208097 -0.047242172 0.74300003 4294967295
0.15337527 -0.047242172 0.74300003 4294967295
0.14690375 -0.045947868 0.74300003 4294967295
0.14819805 -0.045947868 0.74300003 4294967295
0.14949237 -0.045947868 0.74300003 4294967295
0.15078667 -0.045947868 0.74300003 4294967295
0.15208097 -0.045947868 0.74300003 4294967295
0.16172355 -0.059814952 0.73044264 4278190080
0.16289791 -0.059431519 0.73009968 4278190080
0.12116573 -0.065889597 0.7434715 4278190080
0.12235127 -0.065502509 0.74312532 4278190080
0.12736672 -0.065972216 0.74170274 4278190080
0.12854908 -0.065586172 0.74135751 4278190080
0.12973146 -0.065200128 0.74101222 4278190080
0.14566559 -0.065265812 0.73646438 4278190080
0.14683998 -0.064882368 0.73612142 4278190080
0.15046944 -0.064751036 0.73508263 4278190080
0.15750617 -0.062453523 0.73302782 4278190080
0.16219732 -0.060921848 0.73165792 4278190080
0.16337012 -0.060538925 0.73131543 4278190080
0.16614348 -0.064901643 0.73061067 4278190080
0.16730829 -0.06452132 0.73027056 4278190080
0.060493104 -0.054308318 0.76195759 4278190080
0.061726529 -0.053905603 0.76159745 4278190080
0.078467391 -0.065293506 0.75701624 4278190080
0.087109812 -0.063525081 0.75451177 4278190080
0.088316105 -0.063131221 0.75415951 4278190080
0.11232246 -0.062666647 0.74728382 4278190080
0.11620877 -0.063504457 0.74618739 4278190080
0.12022159 -0.065354377 0.74507326 4278190080
0.12155281 -0.065973073 0.74470371 4278190080
0.12273836 -0.065585993 0.74435753 4278190080
0.12392393 -0.065198898 0.74401134 4278190080
0.12510948 -0.064811818 0.74366516 4278190080
0.1265704 -0.066441514 0.74327695 4278190080
0.12775277 -0.066055469 0.74293166 4278190080
0.12893513 -0.065669425 0.74258643 4278190080
0.13011749 -0.06528338 0.74224114 4278190080
0.13129985 -0.064897336 0.74189585 4278190080
0.13248222 -0.064511292 0.74155062 4278190080
0.13366458 -0.064125247 0.74120533 4278190080
0.13721167 -0.062967114 0.74016958 4278190080
0.13863753 -0.064608328 0.73979163 4278190080
0.13981669 -0.064223334 0.7394473 4278190080
0.1411144 -0.064852975 0.73908752 4278190080
0.14229198 -0.064468488 0.73874366 4278190080
0.14346956 -0.064084008 0.7383998 4278190080
0.14464714 -0.063699529 0.73805594 4278190080
0.14604902 -0.065348499 0.73768502 4278190080
0.14722341 -0.064965062 0.73734206 4278190080
0.1483978 -0.064581618 0.73699915 4278190080
0.14957218 -0.064198181 0.73665619 4278190080
0.15085235 -0.064833611 0.7363016 4278190080
0.15202515 -0.064450696 0.73595911 4278190080
0.15319793 -0.064067781 0.73561662 4278190080
0.15437073 -0.063684858 0.7352742 4278190080
0.15788908 -0.062536106 0.73424679 4278190080
0.15906188 -0.062153183 0.7339043 4278190080
0.16023467 -0.061770264 0.73356181 4278190080
0.16140746 -0.061387345 0.73321939 4278190080
0.16535899 -0.065363966 0.73216152 4278190080
0.16652378 -0.064983658 0.73182136 4278190080
0.16768861 -0.064603344 0.73148125 4278190080
0.16885342 -0.064223029 0.73114109 4278190080
0.17001823 -0.063842714 0.73080099 4278190080
0.060895823 -0.054395169 0.76323962 4278190080
0.062129244 -0.053992454 0.76287943 4278190080
0.063790202 -0.055556346 0.76242924 4278190080
0.066671796 -0.056721628 0.76162255 4278190080
0.067898832 -0.056320999 0.76126426 4278190080
0.078861773 -0.065378554 0.75827169 4278190080
0.080069676 -0.064984173 0.75791901 4278190080
