# .PCD v0.7 - Point Cloud Data file format
VERSION 0.7
FIELDS x y z rgba
SIZE 4 4 4 4
TYPE F F F U
COUNT 1 1 1 1
WIDTH 1023
HEIGHT 1
VIEWPOINT 0 0 0 1 0 0 0
POINTS 1023
DATA ascii
0.084217876 -0.096882217 0.72700006 4289759836
0.085484304 -0.096882217 0.72700006 4289759836
0.086750738 -0.096882217 0.72700006 4289760090
0.088017173 -0.096882217 0.72700006 4289825883
0.089406416 -0.097015478 0.72800004 4289628763
0.090674594 -0.097015478 0.72800004 4289497434
0.092195362 -0.097282 0.73000002 4289628248
0.09359505 -0.097415261 0.73100001 4289628248
0.095128015 -0.097681791 0.73300004 4289759566
0.096404903 -0.097681791 0.73300004 4289628236
0.097948313 -0.097948313 0.73500001 4289759052
0.099363692 -0.098081581 0.73600006 4289430344
0.1009193 -0.098348111 0.73800004 4288641856
0.10234338 -0.098481365 0.73900002 4289628752
0.039158419 -0.10021901 0.76200002 4286869614
0.044833858 -0.098114684 0.74600005 4289760071
0.045947868 -0.097720116 0.74300003 4289628486
0.047115009 -0.097457074 0.74100006 4289497163
0.04827518 -0.097194031 0.73900002 4289365834
0.049495451 -0.097062506 0.73800004 4289366086
0.050781045 -0.097062506 0.73800004 4289629001
0.051854987 -0.096667938 0.73500001 4289628248
0.053135358 -0.096667938 0.73500001 4289628248
0.054267664 -0.096404903 0.73300004 4289760090
0.055544548 -0.096404903 0.73300004 4289825883
0.056666389 -0.09614186 0.73100001 4289694041
0.057860535 -0.096010342 0.73000002 4289562454
0.058970191 -0.095747299 0.72800004 4289693511
0.060155623 -0.095615782 0.72700006 4289759304
0.061422057 -0.095615782 0.72700006 4289562456
0.062688492 -0.095615782 0.72700006 4289562456
0.063954927 -0.095615782 0.72700006 4289432154
0.065221362 -0.095615782 0.72700006 4289234775
0.066487797 -0.095615782 0.72700006 4289037133
0.067754231 -0.095615782 0.72700006 4288971339
0.068830781 -0.095352739 0.72500002 4289168210
0.070093736 -0.095352739 0.72500002 4288971087
0.071356684 -0.095352739 0.72500002 4289035595
0.072519466 -0.095221214 0.72400004 4289298767
0.073780678 -0.095221214 0.72400004 4289167697
0.075041883 -0.095221214 0.72400004 4289101903
0.076408483 -0.095352739 0.72500002 4288904250
0.077671431 -0.095352739 0.72500002 4289299007
0.078934379 -0.095352739 0.72500002 4289298515
0.080197334 -0.095352739 0.72500002 4289627736
0.081460282 -0.095352739 0.72500002 4289628761
0.082951441 -0.095615782 0.72700006 4289694554
0.084217876 -0.095615782 0.72700006 4289628761
0.085601889 -0.095747299 0.72800004 4289628761
0.086870067 -0.095747299 0.72800004 4289694041
0.088138245 -0.095747299 0.72800004 4289760090
0.089406416 -0.095747299 0.72800004 4289628250
0.090923697 -0.096010342 0.73000002 4289628250
0.092321657 -0.09614186 0.73100001 4289628248
0.093851134 -0.096404903 0.73300004 4289628248
0.095387571 -0.096667938 0.73500001 4289825100
0.096667938 -0.096667938 0.73500001 4289825100
0.098081581 -0.09679947 0.73600006 4289824850
0.099633701 -0.097062506 0.73800004 4289298505
0.10105604 -0.097194031 0.73900002 4288445245
0.037930313 -0.099151164 0.76400006 4294963438
0.039158419 -0.098891608 0.76200002 4287001200
0.040326435 -0.098502278 0.75900006 4288702978
0.046009708 -0.096555583 0.74400002 4289627716
0.047242172 -0.096425802 0.74300003 4289430603
0.048405834 -0.096166253 0.74100006 4289430603
0.049562518 -0.09590669 0.73900002 4289365330
0.050781045 -0.095776916 0.73800004 4289628502
0.051925544 -0.09551736 0.73600006 4289628502
0.053207655 -0.09551736 0.73600006 4289628502
0.054415729 -0.095387571 0.73500001 4289628252
0.055544548 -0.095128015 0.73300004 4289694045
0.056821436 -0.095128015 0.73300004 4289759836
0.05809832 -0.095128015 0.73300004 4289825629
0.059213199 -0.094868451 0.73100001 4289760340
0.060403854 -0.094738677 0.73000002 4289957462
0.061675519 -0.094738677 0.73000002 4289431386
0.062774718 -0.094479121 0.72800004 4289365593
0.063954927 -0.094349347 0.72700006 4289365843
0.065221362 -0.094349347 0.72700006 4289365843
0.066487797 -0.094349347 0.72700006 4289103189
0.067754231 -0.094349347 0.72700006 4289103189
0.069020659 -0.094349347 0.72700006 4289168982
0.070287094 -0.094349347 0.72700006 4289234775
0.071356684 -0.094089784 0.72500002 4289365343
0.072619632 -0.094089784 0.72500002 4289167708
0.073882587 -0.094089784 0.72500002 4289167699
0.075145528 -0.094089784 0.72500002 4289036112
0.076408483 -0.094089784 0.72500002 4289101626
0.077671431 -0.094089784 0.72500002 4289233212
0.078934379 -0.094089784 0.72500002 4289167447
0.080197334 -0.094089784 0.72500002 4289233240
0.081460282 -0.094089784 0.72500002 4289628750
0.08306554 -0.094479121 0.72800004 4289694543
0.08433371 -0.094479121 0.72800004 4289562708
0.085601889 -0.094479121 0.72800004 4289628502
0.086870067 -0.094479121 0.72800004 4289628248
0.088380374 -0.094738677 0.73000002 4289628248
0.089652039 -0.094738677 0.73000002 4289628250
0.091297358 -0.095128015 0.73300004 4289628250
0.092574246 -0.095128015 0.73300004 4289628752
0.094107203 -0.095387571 0.73500001 4289628752
0.09551736 -0.09551736 0.73600006 4289693511
0.09679947 -0.09551736 0.73600006 4289693511
0.098348111 -0.095776916 0.73800004 4289759056
0.099768706 -0.09590669 0.73900002 4289561421
0.10132954 -0.096166253 0.74100006 4288905535
0.036503613 -0.097564198 0.76200002 4294967295
0.03783102 -0.097564198 0.76200002 4294962669
0.039158419 -0.097564198 0.76200002 4286935409
0.040432695 -0.097436167 0.76100004 4288702978
0.041648615 -0.097180091 0.75900006 4290808353
0.046133392 -0.095515616 0.74600005 4289562693
0.047305755 -0.09525954 0.74400002 4289364810
0.048536479 -0.095131502 0.74300003 4289364810
0.049696654 -0.094875433 0.74100006 4289365332
0.050849855 -0.094619349 0.73900002 4289496661
0.052066643 -0.094491318 0.73800004 4289628250
0.05335224 -0.094491318 0.73800004 4289628250
0.054489769 -0.094235249 0.73600006 4289627736
0.05577188 -0.094235249 0.73600006 4289890652
0.057053991 -0.094235249 0.73600006 4289956962
0.058256842 -0.094107203 0.73500001 4289825633
0.059375208 -0.093851134 0.73300004 4289760853
0.0604866 -0.09359505 0.73100001 4289760853
0.061675519 -0.093467019 0.73000002 4289497184
0.062774718 -0.09321095 0.72800004 4289365341
0.064042896 -0.09321095 0.72800004 4289365332
0.065311067 -0.09321095 0.72800004 4289365332
0.066579245 -0.09321095 0.72800004 4289365332
0.067754231 -0.093082912 0.72700006 4289496661
0.069020659 -0.093082912 0.72700006 4289235029
0.070287094 -0.093082912 0.72700006 4289235029
0.071553536 -0.093082912 0.72700006 4289234523
0.072619632 -0.092826836 0.72500002 4289102937
0.073882587 -0.092826836 0.72500002 4289036881
0.075145528 -0.092826836 0.72500002 4288971087
0.076408483 -0.092826836 0.72500002 4289168199
0.077671431 -0.092826836 0.72500002 4289300041
0.079152137 -0.093082912 0.72700006 4289299285
0.080418572 -0.093082912 0.72700006 4289365078
0.081684999 -0.093082912 0.72700006 4289628498
0.08306554 -0.09321095 0.72800004 4289628498
0.08433371 -0.09321095 0.72800004 4289496659
0.085837059 -0.093467019 0.73000002 4289562708
0.087108716 -0.093467019 0.73000002 4289628248
0.088501446 -0.09359505 0.73100001 4289694041
0.09002047 -0.093851134 0.73300004 4289628511
0.091297358 -0.093851134 0.73300004 4289497182
0.092826836 -0.094107203 0.73500001 4289628498
0.094235249 -0.094235249 0.73600006 4289628498
0.09551736 -0.094235249 0.73600006 4289759306
0.097062506 -0.094491318 0.73800004 4289693513
0.098481365 -0.094619349 0.73900002 4289626705
0.10003872 -0.094875433 0.74100006 4289429069
0.03517621 -0.096236803 0.76200002 4294967295
0.036503613 -0.096236803 0.76200002 4294967295
0.03783102 -0.096236803 0.76200002 4294964467
0.039158419 -0.096236803 0.76200002 4287001715
0.040432695 -0.096110508 0.76100004 4288901642
0.041648615 -0.095857918 0.75900006 4290875432
0.042857558 -0.095605329 0.75700003 4290218824
0.047305755 -0.093963489 0.74400002 4289562195
0.048601806 -0.093963489 0.74400002 4289496146
0.049696654 -0.093584605 0.74100006 4289496409
0.050849855 -0.093332015 0.73900002 4289496409
0.052137192 -0.093332015 0.73900002 4289562202
0.05335224 -0.09320572 0.73800004 4289694045
0.054637838 -0.09320572 0.73800004 4289693791
0.05577188 -0.092953131 0.73600006 4290022755
0.057053991 -0.092953131 0.73600006 4289891687
0.058256842 -0.092826836 0.73500001 4289825894
0.059375208 -0.092574246 0.73300004 4289826133
0.060652092 -0.092574246 0.73300004 4289760340
0.061759997 -0.092321657 0.73100001 4289759586
0.062947176 -0.092195362 0.73000002 4289759586
0.064218834 -0.092195362 0.73000002 4289628248
0.065490499 -0.092195362 0.73000002 4289496661
0.066579245 -0.091942772 0.72800004 4289365080
0.067847423 -0.091942772 0.72800004 4289496409
0.069020659 -0.091816477 0.72700006 4289365843
0.070287094 -0.091816477 0.72700006 4289234257
0.071553536 -0.091816477 0.72700006 4289234003
0.072819963 -0.091816477 0.72700006 4289168210
0.074086398 -0.091816477 0.72700006 4288971089
0.075352833 -0.091816477 0.72700006 4288971089
0.076619267 -0.091816477 0.72700006 4288971089
0.077885702 -0.091816477 0.72700006 4289234005
0.079152137 -0.091816477 0.72700006 4289299287
0.080418572 -0.091816477 0.72700006 4289825631
0.081797361 -0.091942772 0.72800004 4289760090
0.083293736 -0.092195362 0.73000002 4289628248
0.084565401 -0.092195362 0.73000002 4289628502
0.085954636 -0.092321657 0.73100001 4289562708
0.087466702 -0.092574246 0.73300004 4289562958
0.08874359 -0.092574246 0.73300004 4289826131
0.090266094 -0.092826836 0.73500001 4289694304
0.091546461 -0.092826836 0.73500001 4289497182
0.092953131 -0.092953131 0.73600006 4289628498
0.094491318 -0.09320572 0.73800004 4289628498
0.095776916 -0.09320572 0.73800004 4289693259
0.097194031 -0.093332015 0.73900002 4289693259
0.098481365 -0.093332015 0.73900002 4289758552
0.10071374 -0.094216079 0.74600005 4289298001
0.10215002 -0.094342373 0.74700004 4288838445
0.10345129 -0.094342373 0.74700004 4294627972
0.03517621 -0.094909392 0.76200002 4294967295
0.036503613 -0.094909392 0.76200002 4294967295
0.03783102 -0.094909392 0.76200002 4294965493
0.039158419 -0.094909392 0.76200002 4287462264
0.040432695 -0.094784841 0.76100004 4288966922
0.041648615 -0.094535738 0.75900006 4290743332
0.042857558 -0.094286636 0.75700003 4290284104
0.044001181 -0.093912967 0.75400001 4290218311
0.045194451 -0.093663864 0.75200003 4290152777
0.046442598 -0.093539312 0.75100005 4290021447
0.047432926 -0.092916548 0.74600005 4289825102
0.048601806 -0.092667446 0.74400002 4289759052
0.049830787 -0.092542894 0.74300003 4289693261
0.050987478 -0.092293784 0.74100006 4289759054
0.052137192 -0.092044674 0.73900002 4289758818
0.053424533 -0.092044674 0.73900002 4289824611
0.054711871 -0.092044674 0.73900002 4289956447
0.055923432 -0.091920123 0.73800004 4290022240
0.05720903 -0.091920123 0.73800004 4289956960
0.058336105 -0.09167102 0.73600006 4289956960
0.059537213 -0.091546461 0.73500001 4290088537
0.060652092 -0.091297358 0.73300004 4289956951
0.06192898 -0.091297358 0.73300004 4289824861
0.063033409 -0.091048248 0.73100001 4289759068
0.064306803 -0.091048248 0.73100001 4289431386
0.065490499 -0.090923697 0.73000002 4289365593
0.066762157 -0.090923697 0.73000002 4289365332
0.067847423 -0.090674594 0.72800004 4289496661
0.069115601 -0.090674594 0.72800004 4289365843
0.07038378 -0.090674594 0.72800004 4289300050
0.071651958 -0.090674594 0.72800004 4289103187
0.072920129 -0.090674594 0.72800004 4289103187
0.074086398 -0.090550043 0.72700006 4289037133
0.075352833 -0.090550043 0.72700006 4288905546
0.076619267 -0.090550043 0.72700006 4288971089
0.077885702 -0.090550043 0.72700006 4289234005
0.079261012 -0.090674594 0.72800004 4289299287
0.080529191 -0.090674594 0.72800004 4289759838
0.081797361 -0.090674594 0.72800004 4289694556
0.083407834 -0.091048248 0.73100001 4289694556
0.084681235 -0.091048248 0.73100001 4289694041
0.086189814 -0.091297358 0.73300004 4289562454
0.087705351 -0.091546461 0.73500001 4289430855
0.088985719 -0.091546461 0.73500001 4289759820
0.090266094 -0.091546461 0.73500001 4289497434
0.091920123 -0.091920123 0.73800004 4289497434
0.09320572 -0.091920123 0.73800004 4289629011
0.094619349 -0.092044674 0.73900002 4289629011
0.09590669 -0.092044674 0.73900002 4289693511
0.097457074 -0.092293784 0.74100006 4289759304
0.098747894 -0.092293784 0.74100006 4289824850
0.10071374 -0.092916548 0.74600005 4289166663
0.10215002 -0.0930411 0.74700004 4289232181
0.10345129 -0.0930411 0.74700004 4294958228
0.035268538 -0.093827613 0.76400006 4294967295
0.036599427 -0.093827613 0.76400006 4294967295
0.037930313 -0.093827613 0.76400006 4294964205
0.039158419 -0.093581989 0.76200002 4287921783
0.040485825 -0.093581989 0.76200002 4289032726
0.041758355 -0.093459181 0.76100004 4290545965
0.042970791 -0.093213566 0.75900006 4290152779
0.044117898 -0.092845127 0.75600004 4290218572
0.045314651 -0.092599504 0.75400001 4290152781
0.046504438 -0.09235388 0.75200003 4290021196
0.047623672 -0.091985449 0.74900001 4289956690
0.048732456 -0.091617018 0.74600005 4290351192
0.049897853 -0.091371387 0.74400002 4290285650
0.050987478 -0.091002963 0.74100006 4290351444
0.052278299 -0.091002963 0.74100006 4289956460
0.053424533 -0.09075734 0.73900002 4289759338
0.054711871 -0.09075734 0.73900002 4290087263
0.055999205 -0.09075734 0.73900002 4290153312
0.05720903 -0.090634532 0.73800004 4289890652
0.058494627 -0.090634532 0.73800004 4289890652
0.059618216 -0.090388909 0.73600006 4289824859
0.060900331 -0.090388909 0.73600006 4289824859
0.062097948 -0.090266094 0.73500001 4289627736
0.063205861 -0.09002047 0.73300004 4289561943
0.064306803 -0.089774847 0.73100001 4289299285
0.065580204 -0.089774847 0.73100001 4289299285
0.066853605 -0.089774847 0.73100001 4289299537
0.068033814 -0.089652039 0.73000002 4289365330
0.069305472 -0.089652039 0.73000002 4289299539
0.07057713 -0.089652039 0.73000002 4289233490
0.071651958 -0.089406416 0.72800004 4289233490
0.072920129 -0.089406416 0.72800004 4289167697
0.074392118 -0.089652039 0.73000002 4288971339
0.075456478 -0.089406416 0.72800004 4288905546
0.076724656 -0.089406416 0.72800004 4289167960
0.077992834 -0.089406416 0.72800004 4289365595
0.079261012 -0.089406416 0.72800004 4289365082
0.080529191 -0.089406416 0.72800004 4289759584
0.082134441 -0.089774847 0.73100001 4289759836
0.083636038 -0.09002047 0.73300004 4289694043
0.085144617 -0.090266094 0.73500001 4289627736
0.086424977 -0.090266094 0.73500001 4289561943
0.087824687 -0.090388909 0.73600006 4289430594
0.089348935 -0.090634532 0.73800004 4289693509
0.090634532 -0.090634532 0.73800004 4289628248
0.092044674 -0.09075734 0.73900002 4289628248
0.093332015 -0.09075734 0.73900002 4289694797
0.094619349 -0.09075734 0.73900002 4289760590
0.096166253 -0.091002963 0.74100006 4289758804
0.097457074 -0.091002963 0.74100006 4290087769
0.099014416 -0.091248579 0.74300003 4290087515
0.10084874 -0.091739826 0.74700004 4289364049
0.10215002 -0.091739826 0.74700004 4288641845
0.10345129 -0.091739826 0.74700004 4294960800
0.036599427 -0.09249673 0.76400006 4294967295
0.037930313 -0.09249673 0.76400006 4294963689
0.039261203 -0.09249673 0.76400006 4287724659
0.040485825 -0.092254587 0.76200002 4289032989
0.041758355 -0.092133522 0.76100004 4290480435
0.042970791 -0.091891386 0.75900006 4289693250
0.044176254 -0.091649242 0.75700003 4290153801
0.045314651 -0.091286033 0.75400001 4290284365
0.046504438 -0.091043897 0.75200003 4290218572
0.047750838 -0.090922832 0.75100005 4289891406
0.048732456 -0.090317488 0.74600005 4290220370
0.05003199 -0.090317488 0.74600005 4290155094
0.0511939 -0.090075344 0.74400002 4290155094
0.052419398 -0.089954279 0.74300003 4290087265
0.053569123 -0.089712143 0.74100006 4289890143
0.054859944 -0.089712143 0.74100006 4289890643
0.055999205 -0.089469999 0.73900002 4290153814
0.057286549 -0.089469999 0.73900002 4289956949
0.058494627 -0.089348935 0.73800004 4289956949
0.059780221 -0.089348935 0.73800004 4289628250
0.060900331 -0.089106798 0.73600006 4289562456
0.062182441 -0.089106798 0.73600006 4289562456
0.063378319 -0.088985719 0.73500001 4289496663
0.064482749 -0.08874359 0.73300004 4289299539
0.065759636 -0.08874359 0.73300004 4289299539
0.066853605 -0.088501446 0.73100001 4289169234
0.068127014 -0.088501446 0.73100001 4289169234
0.069400415 -0.088501446 0.73100001 4289036883
0.070673816 -0.088501446 0.73100001 4289036883
0.071848802 -0.088380374 0.73000002 4289233490
0.07312046 -0.088380374 0.73000002 4289167697
0.074494019 -0.088501446 0.73100001 4289036362
0.075663775 -0.088380374 0.73000002 4289167949
0.076935433 -0.088380374 0.73000002 4289299539
0.078207098 -0.088380374 0.73000002 4289628248
0.079478756 -0.088380374 0.73000002 4289497180
0.080750413 -0.088380374 0.73000002 4289760351
0.082359158 -0.08874359 0.73300004 4289891687
0.083864242 -0.088985719 0.73500001 4289694308
0.085260458 -0.089106798 0.73600006 4289627736
0.086542569 -0.089106798 0.73600006 4289561943
0.088063337 -0.089348935 0.73800004 4289692746
0.089469999 -0.089469999 0.73900002 4290021711
0.09075734 -0.089469999 0.73900002 4289825363
0.092044674 -0.089469999 0.73900002 4289759570
0.093332015 -0.089469999 0.73900002 4289825865
0.094875433 -0.089712143 0.74100006 4289760071
0.096166253 -0.089712143 0.74100006 4289890895
0.097720116 -0.089954279 0.74300003 4290219603
0.099414214 -0.090317488 0.74600005 4290219855
0.10084874 -0.090438552 0.74700004 4289167167
0.10215002 -0.090438552 0.74700004 4288313646
0.10345129 -0.090438552 0.74700004 4294962594
0.036599427 -0.091165841 0.76400006 4294967295
0.037930313 -0.091165841 0.76400006 4294961890
0.039261203 -0.091165841 0.76400006 4287526510
0.040485825 -0.090927184 0.76200002 4289033256
0.041813228 -0.090927184 0.76200002 4290480702
0.043084022 -0.090807855 0.76100004 4290218574
0.044176254 -0.090330549 0.75700003 4290350160
0.045434847 -0.09021122 0.75600004 4290284619
0.046504438 -0.089733914 0.75200003 4290284619
0.047750838 -0.089614592 0.75100005 4290088521
0.048928428 -0.089375928 0.74900001 4290154314
0.05003199 -0.08901795 0.74600005 4290285653
0.051331524 -0.08901795 0.74600005 4290351446
0.052489948 -0.088779293 0.74400002 4290219353
0.053713705 -0.088659965 0.74300003 4290087767
0.055008009 -0.088659965 0.74300003 4290219353
0.056150764 -0.088421315 0.74100006 4290548318
0.057286549 -0.088182665 0.73900002 4290219605
0.058573883 -0.088182665 0.73900002 4290153812
0.059861224 -0.088182665 0.73900002 4289759584
0.061065815 -0.088063337 0.73800004 4289627998
0.062351417 -0.088063337 0.73800004 4289759320
0.063464552 -0.087824687 0.73600006 4289561941
0.064658687 -0.087705351 0.73500001 4289430355
0.065759636 -0.087466702 0.73300004 4289430355
0.067036524 -0.087466702 0.73300004 4289430603
0.068313412 -0.087466702 0.73300004 4289430603
0.069590293 -0.087466702 0.73300004 4289299033
0.070673816 -0.087228045 0.73100001 4289233240
0.071947224 -0.087228045 0.73100001 4289430353
0.073220618 -0.087228045 0.73100001 4289430353
0.074494019 -0.087228045 0.73100001 4289167697
0.07576742 -0.087228045 0.73100001 4289299539
0.077040829 -0.087228045 0.73100001 4289299285
0.07831423 -0.087228045 0.73100001 4289694043
0.079587631 -0.087228045 0.73100001 4289694043
0.08108227 -0.087466702 0.73300004 4290417765
0.082359158 -0.087466702 0.73300004 4290088297
0.083978347 -0.087824687 0.73600006 4289825381
0.085492149 -0.088063337 0.73800004 4289759066
0.086777739 -0.088063337 0.73800004 4289627736
0.088182665 -0.088182665 0.73900002 4289890393
0.089469999 -0.088182665 0.73900002 4290613859
0.09075734 -0.088182665 0.73900002 4290088787
0.092293784 -0.088421315 0.74100006 4289759566
0.093584605 -0.088421315 0.74100006 4289628999
0.094875433 -0.088421315 0.74100006 4289628999
0.096425802 -0.088659965 0.74300003 4289890895
0.098114684 -0.08901795 0.74600005 4290351446
0.099547476 -0.089137278 0.74700004 4290284615
0.10084874 -0.089137278 0.74700004 4288837169
0.10215002 -0.089137278 0.74700004 4288838970
0.10372827 -0.089375928 0.74900001 4294964915
0.039261203 -0.089834951 0.76400006 4287658351
0.040592089 -0.089834951 0.76400006 4289296166
0.041813228 -0.089599781 0.76200002 4290677819
0.043084022 -0.089482196 0.76100004 4290480717
0.044292971 -0.089247033 0.75900006 4290546510
0.045494948 -0.089011855 0.75700003 4290284619
0.046628118 -0.088659093 0.75400001 4290284619
0.047814421 -0.08842393 0.75200003 4290284617
0.049059082 -0.088306352 0.75100005 4290350410
0.050099056 -0.087836005 0.74700004 4290415705
0.051331524 -0.08771842 0.74600005 4290744414
0.052489948 -0.08748325 0.74400002 4290285912
0.053785998 -0.08748325 0.74400002 4290022996
0.055008009 -0.087365665 0.74300003 4290285660
0.056150764 -0.087130502 0.74100006 4290351709
0.057441588 -0.087130502 0.74100006 4290089051
0.058573883 -0.086895317 0.73900002 4290089051
0.059861224 -0.086895317 0.73900002 4289694043
0.061148562 -0.086895317 0.73900002 4289628250
0.062435895 -0.086895317 0.73900002 4289759066
0.063637011 -0.086777739 0.73800004 4289496150
0.064746663 -0.086542569 0.73600006 4289430353
0.065939061 -0.086424977 0.73500001 4289430353
0.067219429 -0.086424977 0.73500001 4289365314
0.068499804 -0.086424977 0.73500001 4289431107
0.069780171 -0.086424977 0.73500001 4289430353
0.070867181 -0.086189814 0.73300004 4289430353
0.072144069 -0.086189814 0.73300004 4289430603
0.073420957 -0.086189814 0.73300004 4289430603
0.074697837 -0.086189814 0.73300004 4289299787
0.076182023 -0.086424977 0.73500001 4289233994
0.077462398 -0.086424977 0.73500001 4289299015
0.078528501 -0.086189814 0.73300004 4289562443
0.079805389 -0.086189814 0.73300004 4289628250
0.0813035 -0.086424977 0.73500001 4290417765
0.082583874 -0.086424977 0.73500001 4289891687
0.084206544 -0.086777739 0.73800004 4289694308
0.085492149 -0.086777739 0.73800004 4289824859
0.086777739 -0.086777739 0.73800004 4289759066
0.088182665 -0.086895317 0.73900002 4289890652
0.089469999 -0.086895317 0.73900002 4290548838
0.091002963 -0.087130502 0.74100006 4289827161
0.092293784 -0.087130502 0.74100006 4289563990
0.093584605 -0.087130502 0.74100006 4289760603
0.095131502 -0.087365665 0.74300003 4289826396
0.096815147 -0.08771842 0.74600005 4290022996
0.098246194 -0.087836005 0.74700004 4290220119
0.099547476 -0.087836005 0.74700004 4290153283
0.10084874 -0.087836005 0.74700004 4288903216
0.10242351 -0.088071175 0.74900001 4289757810
0.040592089 -0.088504061 0.76400006 4289493286
0.041922979 -0.088504061 0.76400006 4291006781
0.043084022 -0.088156536 0.76100004 4290546510
0.044292971 -0.087924846 0.75900006 4290480717
0.045494948 -0.087693162 0.75700003 4290481228
0.046628118 -0.087345622 0.75400001 4290349899
0.047814421 -0.087113947 0.75200003 4290350147
0.049059082 -0.086998098 0.75100005 4290547525
0.050233185 -0.086766414 0.74900001 4290547303
0.05140033 -0.086534731 0.74700004 4290415717
0.05263105 -0.086418889 0.74600005 4290088789
0.053785998 -0.086187199 0.74400002 4290022996
0.055082045 -0.086187199 0.74400002 4290022744
0.05630232 -0.086071357 0.74300003 4290088537
0.057441588 -0.085839674 0.74100006 4290089051
0.058732413 -0.085839674 0.74100006 4290154844
0.06002323 -0.085839674 0.74100006 4290023509
0.061148562 -0.085607983 0.73900002 4289562958
0.062435895 -0.085607983 0.73900002 4289496409
0.063723236 -0.085607983 0.73900002 4289299287
0.064922601 -0.085492149 0.73800004 4289167435
0.066028781 -0.085260458 0.73600006 4289101642
0.067310892 -0.085260458 0.73600006 4289233210
0.068593003 -0.085260458 0.73600006 4289365052
0.069875114 -0.085260458 0.73600006 4289365062
0.071157224 -0.085260458 0.73600006 4289957199
0.072439335 -0.085260458 0.73600006 4289760060
0.073721454 -0.085260458 0.73600006 4289299509
0.075003564 -0.085260458 0.73600006 4289365062
0.076285675 -0.085260458 0.73600006 4289299269
0.077567786 -0.085260458 0.73600006 4289299518
0.078849897 -0.085260458 0.73600006 4289365312
0.080132015 -0.085260458 0.73600006 4289496659
0.081414126 -0.085260458 0.73600006 4290549604
0.082696237 -0.085260458 0.73600006 4290220370
0.084206544 -0.085492149 0.73800004 4289759820
0.085607983 -0.085607983 0.73900002 4289824859
0.086895317 -0.085607983 0.73900002 4289824859
0.088182665 -0.085607983 0.73900002 4289890652
0.089712143 -0.085839674 0.74100006 4290417252
0.091248579 -0.086071357 0.74300003 4290023257
0.092542894 -0.086071357 0.74300003 4289957464
0.093837194 -0.086071357 0.74300003 4290088810
0.09525954 -0.086187199 0.74400002 4289957481
0.096815147 -0.086418889 0.74600005 4290415705
0.098246194 -0.086534731 0.74700004 4290349912
0.099547476 -0.086534731 0.74700004 4289759043
0.10111875 -0.086766414 0.74900001 4289561664
0.040698349 -0.087401375 0.76600003 4289296425
0.041922979 -0.087173179 0.76400006 4290612285
0.043140635 -0.086944975 0.76200002 4290546769
0.044292971 -0.086602673 0.75900006 4290480976
0.045494948 -0.086374469 0.75700003 4290480724
0.046751801 -0.086260363 0.75600004 4290480724
0.047941584 -0.08603216 0.75400001 4290350162
0.049124405 -0.085803956 0.75200003 4290415955
0.050367322 -0.085689858 0.75100005 4290219605
0.05140033 -0.085233457 0.74700004 4290219605
0.05263105 -0.085119359 0.74600005 4290088789
0.053930584 -0.085119359 0.74600005 4290088789
0.055082045 -0.084891155 0.74400002 4290088787
0.05630232 -0.084777057 0.74300003 4290286166
0.05759662 -0.084777057 0.74300003 4290154855
0.058732413 -0.084548853 0.74100006 4290154855
0.06002323 -0.084548853 0.74100006 4290155357
0.061314054 -0.084548853 0.74100006 4289497684
0.062435895 -0.08432065 0.73900002 4289430090
0.063723236 -0.08432065 0.73900002 4289298503
0.06501057 -0.08432065 0.73900002 4289364551
0.066208199 -0.084206544 0.73800004 4289298501
0.067493796 -0.084206544 0.73800004 4289168187
0.068779394 -0.084206544 0.73800004 4289299516
0.070064984 -0.084206544 0.73800004 4289430342
0.071350589 -0.084206544 0.73800004 4289759306
0.07263618 -0.084206544 0.73800004 4289628236
0.073721454 -0.083978347 0.73600006 4289430857
0.075003564 -0.083978347 0.73600006 4289365064
0.076285675 -0.083978347 0.73600006 4289430857
0.077567786 -0.083978347 0.73600006 4289430855
0.078849897 -0.083978347 0.73600006 4289365062
0.080349758 -0.084206544 0.73800004 4289299539
0.081635356 -0.084206544 0.73800004 4290220641
0.082920954 -0.084206544 0.73800004 4289893723
0.084206544 -0.084206544 0.73800004 4289367379
0.085607983 -0.08432065 0.73900002 4289759320
0.087130502 -0.084548853 0.74100006 4289825113
0.088421315 -0.084548853 0.74100006 4289694041
0.089954279 -0.084777057 0.74300003 4290023005
0.091371387 -0.084891155 0.74400002 4289957716
0.092667446 -0.084891155 0.74400002 4289826131
0.093963489 -0.084891155 0.74400002 4289956962
0.095515616 -0.085119359 0.74600005 4289759584
0.096944928 -0.085233457 0.74700004 4290349645
0.042032722 -0.086066999 0.76600003 4290612285
0.043253865 -0.085842289 0.76400006 4290020166
0.044409681 -0.08550521 0.76100004 4289493822
0.045615148 -0.085280493 0.75900006 4288902214
0.046751801 -0.084943414 0.75600004 4288836165
0.047941584 -0.084718689 0.75400001 4289493822
0.049124405 -0.08449398 0.75200003 4289822531
0.050367322 -0.084381618 0.75100005 4290020916
0.051537946 -0.084156901 0.74900001 4290349881
0.052701604 -0.083932184 0.74700004 4290154062
0.053930584 -0.083819829 0.74600005 4290219855
0.055082045 -0.083595105 0.74400002 4290285648
0.056378096 -0.083595105 0.74400002 4290812249
0.05759662 -0.083482742 0.74300003 4290549361
0.058890931 -0.083482742 0.74300003 4290352238
0.06002323 -0.083258025 0.74100006 4290155861
0.061314054 -0.083258025 0.74100006 4289695310
0.062604874 -0.083258025 0.74100006 4289562695
0.063723236 -0.083033308 0.73900002 4289167937
0.06501057 -0.083033308 0.73900002 4289298765
0.066297919 -0.083033308 0.73900002 4289298765
0.067585252 -0.083033308 0.73900002 4289168199
0.068872593 -0.083033308 0.73900002 4289300041
0.070159927 -0.083033308 0.73900002 4289299267
0.071350589 -0.082920954 0.73800004 4289365060
0.07263618 -0.082920954 0.73800004 4289430855
0.073921777 -0.082920954 0.73800004 4289430855
0.075207375 -0.082920954 0.73800004 4289233742
0.076492973 -0.082920954 0.73800004 4289233742
0.077778563 -0.082920954 0.73800004 4289364558
0.079064161 -0.082920954 0.73800004 4289298765
0.080349758 -0.082920954 0.73800004 4289364562
0.081635356 -0.082920954 0.73800004 4289561941
0.082920954 -0.082920954 0.73800004 4289497415
0.08432065 -0.083033308 0.73900002 4289629001
0.085839674 -0.083258025 0.74100006 4289759320
0.087130502 -0.083258025 0.74100006 4289825113
0.088659965 -0.083482742 0.74300003 4289957199
0.090075344 -0.083595105 0.74400002 4289957199
0.091371387 -0.083595105 0.74400002 4290023246
0.092916548 -0.083819829 0.74600005 4289957453
0.094216079 -0.083819829 0.74600005 4289627988
0.095515616 -0.083819829 0.74600005 4289035595
0.096944928 -0.083932184 0.74700004 4290020403
0.042032722 -0.084732629 0.76600003 4289953587
0.043253865 -0.084511399 0.76400006 4289952824
0.044468038 -0.084290162 0.76200002 4288044827
0.045615148 -0.083958313 0.75900006 4288437286
0.046813641 -0.083737075 0.75700003 4288568873
0.048068754 -0.083626464 0.75600004 4288504365
0.049255051 -0.083405226 0.75400001 4289162038
0.050434388 -0.083183996 0.75200003 4289624365
0.051537946 -0.08285214 0.74900001 4290018867
0.052701604 -0.08263091 0.74700004 4289954619
0.053930584 -0.082520291 0.74600005 4290349377
0.055230118 -0.082520291 0.74600005 4290154314
0.056378096 -0.082299054 0.74400002 4290680658
0.057674143 -0.082299054 0.74400002 4290549102
0.058970191 -0.082299054 0.74400002 4290154344
0.060185231 -0.082188442 0.74300003 4289957716
0.061479546 -0.082188442 0.74300003 4289760338
0.062773846 -0.082188442 0.74300003 4289761101
0.063895702 -0.081967212 0.74100006 4289432392
0.065186515 -0.081967212 0.74100006 4289233994
0.066297919 -0.081745975 0.73900002 4289299787
0.067585252 -0.081745975 0.73900002 4289103187
0.068872593 -0.081745975 0.73900002 4289103187
0.070159927 -0.081745975 0.73900002 4289300039
0.071447261 -0.081745975 0.73900002 4289300039
0.072734602 -0.081745975 0.73900002 4289300037
0.074021943 -0.081745975 0.73900002 4289366086
0.075309284 -0.081745975 0.73900002 4289365845
0.076492973 -0.081635356 0.73800004 4289300052
0.077778563 -0.081635356 0.73800004 4289430603
0.079064161 -0.081635356 0.73800004 4289496652
0.080349758 -0.081635356 0.73800004 4289365080
0.081745975 -0.081745975 0.73900002 4289496409
0.083033308 -0.081745975 0.73900002 4289562947
0.08432065 -0.081745975 0.73900002 4289562947
0.085839674 -0.081967212 0.74100006 4289365832
0.087130502 -0.081967212 0.74100006 4289694797
0.088779293 -0.082299054 0.74400002 4289957716
0.090317488 -0.082520291 0.74600005 4289826131
0.091617018 -0.082520291 0.74600005 4290023005
0.092916548 -0.082520291 0.74600005 4289825883
0.094216079 -0.082520291 0.74600005 4289364308
0.095643647 -0.08263091 0.74700004 4288903757
0.097204484 -0.08285214 0.74900001 4289493807
0.10048031 -0.083405226 0.75400001 4289295895
0.10219879 -0.083737075 0.75700003 4292124995
0.10351749 -0.083737075 0.75700003 4293512390
0.040964004 -0.083942629 0.77100003 4289756463
0.042087596 -0.083507128 0.76700002 4289822256
0.043367095 -0.08339826 0.76600003 4289031231
0.044584755 -0.08318051 0.76400006 4286794270
0.045735344 -0.082853884 0.76100004 4287253526
0.046937324 -0.08263614 0.75900006 4287253526
0.048132334 -0.082418382 0.75700003 4287254039
0.049385708 -0.082309514 0.75600004 4286991124
0.050434388 -0.081874013 0.75200003 4287649821
0.051675566 -0.081765138 0.75100005 4288833839
0.052842703 -0.081547379 0.74900001 4289493529
0.054002877 -0.081329636 0.74700004 4290546217
0.055304151 -0.081329636 0.74700004 4290415676
0.056529652 -0.081220761 0.74600005 4290349627
0.057829183 -0.081220761 0.74600005 4289627468
0.058970191 -0.081003003 0.74400002 4288969539
0.060266238 -0.081003003 0.74400002 4289101626
0.061479546 -0.080894127 0.74300003 4289364798
0.062773846 -0.080894127 0.74300003 4289562427
0.064068154 -0.080894127 0.74300003 4289825599
0.065362453 -0.080894127 0.74300003 4289497161
0.066477343 -0.080676384 0.74100006 4289497161
0.067768164 -0.080676384 0.74100006 4289431648
0.069058985 -0.080676384 0.74100006 4289234525
0.070349805 -0.080676384 0.74100006 4289300291
0.071640633 -0.080676384 0.74100006 4289366084
0.072734602 -0.080458634 0.73900002 4289562695
0.074021943 -0.080458634 0.73900002 4290220368
0.075309284 -0.080458634 0.73900002 4289694306
0.076596618 -0.080458634 0.73900002 4289497184
0.077883959 -0.080458634 0.73900002 4289497165
0.079171292 -0.080458634 0.73900002 4289628752
0.080458634 -0.080458634 0.73900002 4289299296
0.081745975 -0.080458634 0.73900002 4288904538
0.083258025 -0.080676384 0.74100006 4289101603
0.084548853 -0.080676384 0.74100006 4289496105
0.086071357 -0.080894127 0.74300003 4289693763
0.08771842 -0.081220761 0.74600005 4290088521
0.08901795 -0.081220761 0.74600005 4290088521
0.090317488 -0.081220761 0.74600005 4289759556
0.091739826 -0.081329636 0.74700004 4289561171
0.0930411 -0.081329636 0.74700004 4287784760
0.094594963 -0.081547379 0.74900001 4287321127
0.095899723 -0.081547379 0.74900001 4286992418
0.098112933 -0.082309514 0.75600004 4287649319
0.099429891 -0.082309514 0.75600004 4288241457
0.10114663 -0.08263614 0.75900006 4288704540
0.10246881 -0.08263614 0.75900006 4293507429
0.10379099 -0.08263614 0.75900006 4293842638
0.10511316 -0.08263614 0.75900006 4294967295
0.040964004 -0.08259955 0.77100003 4290084914
0.042087596 -0.082171015 0.76700002 4289558570
0.043423709 -0.082171015 0.76700002 4288833298
0.044701468 -0.082063884 0.76600003 4287122688
0.045795444 -0.081635356 0.76200002 4287319332
0.047061007 -0.081528224 0.76100004 4287319332
0.048259504 -0.08131396 0.75900006 4287514915
0.049451031 -0.081099689 0.75700003 4287054364
0.050702658 -0.080992557 0.75600004 4286531328
0.051744372 -0.080564022 0.75200003 4286991876
0.052842703 -0.080242619 0.74900001 4288504072
0.054002877 -0.080028363 0.74700004 4290280227
0.055304151 -0.080028363 0.74700004 4290151984
0.056605428 -0.080028363 0.74700004 4290020655
0.057829183 -0.079921223 0.74600005 4289299015
0.059128713 -0.079921223 0.74600005 4288838464
0.060266238 -0.079706959 0.74400002 4288311567
0.061562285 -0.079706959 0.74400002 4288903705
0.062858328 -0.079706959 0.74400002 4288968998
0.064154379 -0.079706959 0.74400002 4289626671
0.065362453 -0.079599828 0.74300003 4289235277
0.066477343 -0.079385564 0.74100006 4289169484
0.067768164 -0.079385564 0.74100006 4289169497
0.069245383 -0.079599828 0.74300003 4289037655
0.070349805 -0.079385564 0.74100006 4289233490
0.071640633 -0.079385564 0.74100006 4289233490
0.072931454 -0.079385564 0.74100006 4289365062
0.074222274 -0.079385564 0.74100006 4289628490
0.075513095 -0.079385564 0.74100006 4289628513
0.076803923 -0.079385564 0.74100006 4289497184
0.078094736 -0.079385564 0.74100006 4289562708
0.079385564 -0.079385564 0.74100006 4289496659
0.080676384 -0.079385564 0.74100006 4289167699
0.082188442 -0.079599828 0.74300003 4288312390
0.083595105 -0.079706959 0.74400002 4288574222
0.084891155 -0.079706959 0.74400002 4289692959
0.086534731 -0.080028363 0.74700004 4289693259
0.088071175 -0.080242619 0.74900001 4289825102
0.089375928 -0.080242619 0.74900001 4290217818
0.090680689 -0.080242619 0.74900001 4289823316
0.091985449 -0.080242619 0.74900001 4289165661
0.093290202 -0.080242619 0.74900001 4286797113
0.094847552 -0.080456898 0.75100005 4286794776
0.0965399 -0.080778293 0.75400001 4287123484
0.098112933 -0.080992557 0.75600004 4287386370
0.099561408 -0.081099689 0.75700003 4287912714
0.10114663 -0.08131396 0.75900006 4288309530
0.10219879 -0.081099689 0.75700003 4294296693
0.10351749 -0.081099689 0.75700003 4294303455
0.10483619 -0.081099689 0.75700003 4294967295
0.040857743 -0.081045687 0.76900005 4290085174
0.042087596 -0.080834903 0.76700002 4289295914
0.043367095 -0.080729514 0.76600003 4288767769
0.044701468 -0.080729514 0.76600003 4287452165
0.045795444 -0.080307953 0.76200002 4287450680
0.047061007 -0.080202557 0.76100004 4287450680
0.048259504 -0.07999178 0.75900006 4287252785
0.04958168 -0.07999178 0.75900006 4287121456
0.050769724 -0.079780996 0.75700003 4286990633
0.051744372 -0.079254039 0.75200003 4286530082
0.052983809 -0.07914865 0.75100005 4286990090
0.054292049 -0.07914865 0.75100005 4287253263
0.05545222 -0.078937858 0.74900001 4288307712
0.056756977 -0.078937858 0.74900001 4290215691
0.057906698 -0.078727081 0.74700004 4289693259
0.059207976 -0.078727081 0.74700004 4289561673
0.060428247 -0.078621693 0.74600005 4289167404
0.061727777 -0.078621693 0.74600005 4289101611
0.063027315 -0.078621693 0.74600005 4288970045
0.064154379 -0.078410909 0.74400002 4288970045
0.06545043 -0.078410909 0.74400002 4288904261
0.066656768 -0.07830552 0.74300003 4287983159
0.067951068 -0.07830552 0.74300003 4288246565
0.069245383 -0.07830552 0.74300003 4288378407
0.070539683 -0.07830552 0.74300003 4288312138
0.071833991 -0.07830552 0.74300003 4288180552
0.07312829 -0.07830552 0.74300003 4288246587
0.074422605 -0.07830552 0.74300003 4288838468
0.075818814 -0.078410909 0.74400002 4288772941
0.077114865 -0.078410909 0.74400002 4288707148
0.078410909 -0.078410909 0.74400002 4288969289
0.079706959 -0.078410909 0.74400002 4289166667
0.081003003 -0.078410909 0.74400002 4289167169
0.082520291 -0.078621693 0.74600005 4288640569
0.083819829 -0.078621693 0.74600005 4289035066
0.085119359 -0.078621693 0.74600005 4289956167
0.086766414 -0.078937858 0.74900001 4289693261
0.088306352 -0.07914865 0.75100005 4288311608
0.089614592 -0.07914865 0.75100005 4287188807
0.090922832 -0.07914865 0.75100005 4287123014
0.09235388 -0.079254039 0.75200003 4287320127
0.093663864 -0.079254039 0.75200003 4287122749
0.094973855 -0.079254039 0.75200003 4287189311
0.0965399 -0.079464823 0.75400001 4287320898
0.098242715 -0.079780996 0.75700003 4287781165
0.099824451 -0.07999178 0.75900006 4287847214
0.10114663 -0.07999178 0.75900006 4288309548
0.10219879 -0.079780996 0.75700003 4294691469
0.10351749 -0.079780996 0.75700003 4294501350
0.10483619 -0.079780996 0.75700003 4294967295
0.040857743 -0.079706095 0.76900005 4289954612
0.042087596 -0.07949879 0.76700002 4289428267
0.043367095 -0.079395145 0.76600003 4288703261
0.044701468 -0.079395145 0.76600003 4287255815
0.045915641 -0.079187848 0.76400006 4287385911
0.047122847 -0.078980543 0.76200002 4287385911
0.048386667 -0.078876898 0.76100004 4287056426
0.04958168 -0.0786696 0.75900006 4286661668
0.05090386 -0.0786696 0.75900006 4287184932
0.052088417 -0.078462295 0.75700003 4286922017
0.053054359 -0.077944055 0.75200003 4286660352
0.054364342 -0.077944055 0.75200003 4286331648
0.055674326 -0.077944055 0.75200003 4286662400
0.056908537 -0.07784041 0.75100005 4288965136
0.058061738 -0.077633113 0.74900001 4289364551
0.059366498 -0.077633113 0.74900001 4289627466
0.060509246 -0.077425815 0.74700004 4289627970
0.061810523 -0.077425815 0.74700004 4289364798
0.063027315 -0.07732217 0.74600005 4289167435
0.064326845 -0.07732217 0.74600005 4289298765
0.06545043 -0.077114865 0.74400002 4289298251
0.066746481 -0.077114865 0.74400002 4288640321
0.068225436 -0.07732217 0.74600005 4288771101
0.069524974 -0.07732217 0.74600005 4288771101
0.070824504 -0.07732217 0.74600005 4287588651
0.072124034 -0.07732217 0.74600005 4287720493
0.073423564 -0.07732217 0.74600005 4287917852
0.074723102 -0.07732217 0.74600005 4288838954
0.076022632 -0.07732217 0.74600005 4288838454
0.07732217 -0.07732217 0.74600005 4288706868
0.078621693 -0.07732217 0.74600005 4288969270
0.079921223 -0.07732217 0.74600005 4289298492
0.081220761 -0.07732217 0.74600005 4289495367
0.082520291 -0.07732217 0.74600005 4289626953
0.083932184 -0.077425815 0.74700004 4289824600
0.085233457 -0.077425815 0.74700004 4289956186
0.086998098 -0.07784041 0.75100005 4289496161
0.088306352 -0.07784041 0.75100005 4287456579
0.089614592 -0.07784041 0.75100005 4286795805
0.091043897 -0.077944055 0.75200003 4286861598
0.09235388 -0.077944055 0.75200003 4287450932
0.093663864 -0.077944055 0.75200003 4287516725
0.095226437 -0.078151353 0.75400001 4287583033
0.0965399 -0.078151353 0.75400001 4287648827
0.098502278 -0.0786696 0.75900006 4288306468
0.099824451 -0.0786696 0.75900006 4287911710
0.10114663 -0.0786696 0.75900006 4288768282
0.10246881 -0.0786696 0.75900006 4294955908
0.10379099 -0.0786696 0.75900006 4294962164
0.10511316 -0.0786696 0.75900006 4294967295
0.042307086 -0.078570306 0.77100003 4289625136
0.043650169 -0.078570306 0.77100003 4288834341
0.044759821 -0.078162678 0.76700002 4287452688
0.046035841 -0.078060769 0.76600003 4287451716
0.047246531 -0.077856958 0.76400006 4287451716
0.04845025 -0.07765314 0.76200002 4287122482
0.049777653 -0.07765314 0.76200002 4286661932
0.05090386 -0.077347428 0.75900006 4286792738
0.052088417 -0.077143602 0.75700003 4286792738
0.05340711 -0.077143602 0.75700003 4286727434
0.054653514 -0.0770417 0.75600004 4286793227
0.055822399 -0.076837882 0.75400001 4286463522
0.056984309 -0.076634072 0.75200003 4285740055
0.058294293 -0.076634072 0.75200003 4286795008
0.059604283 -0.076634072 0.75200003 4288374026
0.06083326 -0.076532163 0.75100005 4288968746
0.0621415 -0.076532163 0.75100005 4290021177
0.063449748 -0.076532163 0.75100005 4289759068
0.064757988 -0.076532163 0.75100005 4290416998
0.065890282 -0.076328352 0.74900001 4290089314
0.067015618 -0.076124534 0.74700004 4289826142
0.068316892 -0.076124534 0.74700004 4289890622
0.069618165 -0.076124534 0.74700004 4289956671
0.070919439 -0.076124534 0.74700004 4289365330
0.07222072 -0.076124534 0.74700004 4289167951
0.073423564 -0.076022632 0.74600005 4289431107
0.074723102 -0.076022632 0.74600005 4289760071
0.076022632 -0.076022632 0.74600005 4289825603
0.07732217 -0.076022632 0.74600005 4290220105
0.078621693 -0.076022632 0.74600005 4290286166
0.080028363 -0.076124534 0.74700004 4290680667
0.081329636 -0.076124534 0.74700004 4289956690
0.08263091 -0.076124534 0.74700004 4289430090
0.084156901 -0.076328352 0.74900001 4288639569
0.085461654 -0.076328352 0.74900001 4287126587
0.087113947 -0.076634072 0.75200003 4286398790
0.08842393 -0.076634072 0.75200003 4285740859
0.089733914 -0.076634072 0.75200003 4286464318
0.091043897 -0.076634072 0.75200003 4287582800
0.092599504 -0.076837882 0.75400001 4287452202
0.093912967 -0.076837882 0.75400001 4287452202
0.095226437 -0.076837882 0.75400001 4287780165
0.096924022 -0.077143602 0.75700003 4288438096
0.098502278 -0.077347428 0.75900006 4288308515
0.10008749 -0.077551231 0.76100004 4288769066
0.10141315 -0.077551231 0.76100004 4288507415
0.10273882 -0.077551231 0.76100004 4294959499
0.10406448 -0.077551231 0.76100004 4294967295
0.10539015 -0.077551231 0.76100004 4294967295
0.044876538 -0.077026896 0.76900005 4287123734
0.046095937 -0.076826565 0.76700002 4287385911
0.04737021 -0.076726399 0.76600003 4287451704
0.048577417 -0.076526076 0.76400006 4287320618
0.049908306 -0.076526076 0.76400006 4286991653
0.051037993 -0.076225579 0.76100004 4286793509
0.052226041 -0.07602524 0.75900006 4286793509
0.053548217 -0.07602524 0.75900006 4286596627
0.054725807 -0.075824909 0.75700003 4286333712
0.0560445 -0.075824909 0.75700003 4286463020
0.057363193 -0.075824909 0.75700003 4285870882
0.058449332 -0.075524412 0.75400001 4285805568
0.059762795 -0.075524412 0.75400001 4286463488
0.060914263 -0.075324088 0.75200003 4287583513
0.062224247 -0.075324088 0.75200003 4289952061
0.06353423 -0.075324088 0.75200003 4289562206
0.064757988 -0.075223923 0.75100005 4289628000
0.066066228 -0.075223923 0.75100005 4290088789
0.067374468 -0.075223923 0.75100005 4290088789
0.068682715 -0.075223923 0.75100005 4289957188
0.069990955 -0.075223923 0.75100005 4289891395
0.071299203 -0.075223923 0.75100005 4289562445
0.072607443 -0.075223923 0.75100005 4289562445
0.073718831 -0.075023592 0.74900001 4289628236
0.074823268 -0.074823268 0.74700004 4289891408
0.076124534 -0.074823268 0.74700004 4290022996
0.077425815 -0.074823268 0.74700004 4290351705
0.078937858 -0.075023592 0.74900001 4290482795
0.080242619 -0.075023592 0.74900001 4290350953
0.081765138 -0.075223923 0.75100005 4289825644
0.083073378 -0.075223923 0.75100005 4289036129
0.084381618 -0.075223923 0.75100005 4287457104
0.085689858 -0.075223923 0.75100005 4285614900
0.087113947 -0.075324088 0.75200003 4286068766
0.088659093 -0.075524412 0.75400001 4286331681
0.089972571 -0.075524412 0.75400001 4286595625
0.091286033 -0.075524412 0.75400001 4287714107
0.092599504 -0.075524412 0.75400001 4287583787
0.094286636 -0.075824909 0.75700003 4287912753
0.095857918 -0.07602524 0.75900006 4288044859
0.097180091 -0.07602524 0.75900006 4288044859
0.098761834 -0.076225579 0.76100004 4288440364
0.10008749 -0.076225579 0.76100004 4288769329
0.10141315 -0.076225579 0.76100004 4288902203
0.10273882 -0.076225579 0.76100004 4294960813
0.10406448 -0.076225579 0.76100004 4294967295
0.10539015 -0.076225579 0.76100004 4294967295
0.046216138 -0.075687297 0.76900005 4287385378
0.04743205 -0.075490452 0.76700002 4287582757
0.048704583 -0.07539203 0.76600003 4287320614
0.049908306 -0.075195186 0.76400006 4287320614
0.051239192 -0.075195186 0.76400006 4287122723
0.052363656 -0.074899912 0.76100004 4286990881
0.053548217 -0.074703068 0.75900006 4286860063
0.054870397 -0.074703068 0.75900006 4286267926
0.056192573 -0.074703068 0.75900006 4286135604
0.057363193 -0.074506216 0.75700003 4286069811
0.058604371 -0.074407794 0.75600004 4286003234
0.059762795 -0.074210949 0.75400001 4285608476
0.061076269 -0.074210949 0.75400001 4286067217
0.062224247 -0.074014105 0.75200003 4286264595
0.06353423 -0.074014105 0.75200003 4286399262
0.064844213 -0.074014105 0.75200003 4287649329
0.066154197 -0.074014105 0.75200003 4288377360
0.067374468 -0.073915683 0.75100005 4289824807
0.068682715 -0.073915683 0.75100005 4290021431
0.069990955 -0.073915683 0.75100005 4290087224
0.071299203 -0.073915683 0.75100005 4289759052
0.072607443 -0.073915683 0.75100005 4289693259
0.073718831 -0.073718831 0.74900001 4289693259
0.075023592 -0.073718831 0.74900001 4289693259
0.076328352 -0.073718831 0.74900001 4289101644
0.07784041 -0.073915683 0.75100005 4288377665
0.07914865 -0.073915683 0.75100005 4287125581
0.080456898 -0.073915683 0.75100005 4286204479
0.081874013 -0.074014105 0.75200003 4285873449
0.083183996 -0.074014105 0.75200003 4285149726
0.08449398 -0.074014105 0.75200003 4286003486
0.085803956 -0.074014105 0.75200003 4286135072
0.087345622 -0.074210949 0.75400001 4286331956
0.088659093 -0.074210949 0.75400001 4286726458
0.09021122 -0.074407794 0.75600004 4286728247
0.091528177 -0.074407794 0.75600004 4287583300
0.092967942 -0.074506216 0.75700003 4287781678
0.094535738 -0.074703068 0.75900006 4288308278
0.095857918 -0.074703068 0.75900006 4288110648
0.097436167 -0.074899912 0.76100004 4287584304
0.098761834 -0.074899912 0.76100004 4288242731
0.10008749 -0.074899912 0.76100004 4289493055
0.10141315 -0.074899912 0.76100004 4289298265
0.10287382 -0.074998334 0.76200002 4294962374
0.10420122 -0.074998334 0.76200002 4294967295
0.047555733 -0.074347705 0.76900005 4287516964
0.048704583 -0.074057654 0.76600003 4287320105
0.049908306 -0.073864296 0.76400006 4287451434
0.051239192 -0.073864296 0.76400006 4287122734
0.052432463 -0.073670924 0.76200002 4287122734
0.053689316 -0.073574245 0.76100004 4286860078
0.055014979 -0.073574245 0.76100004 4286399527
0.056192573 -0.073380888 0.75900006 4286332202
0.057514749 -0.073380888 0.75900006 4286003236
0.058681887 -0.073187523 0.75700003 4286134559
0.059921324 -0.073090844 0.75600004 4286002973
0.061238278 -0.073090844 0.75600004 4286001424
0.062389731 -0.072897479 0.75400001 4285606666
0.063703202 -0.072897479 0.75400001 4285542144
0.065016672 -0.072897479 0.75400001 4286397440
0.066154197 -0.072704114 0.75200003 4287321872
0.06746418 -0.072704114 0.75200003 4289492784
0.068774171 -0.072704114 0.75200003 4289364562
0.070084155 -0.072704114 0.75200003 4289561941
0.071394138 -0.072704114 0.75200003 4289693011
0.072704114 -0.072704114 0.75200003 4289758804
0.074014105 -0.072704114 0.75200003 4289562206
0.075223923 -0.072607443 0.75100005 4289101656
0.076532163 -0.072607443 0.75100005 4288641105
0.077944055 -0.072704114 0.75200003 4287917382
0.079254039 -0.072704114 0.75200003 4286534961
0.080564022 -0.072704114 0.75200003 4284034828
0.082091756 -0.072897479 0.75400001 4284884480
