# .PCD v0.7 - Point Cloud Data file format
VERSION 0.7
FIELDS x y z rgba
SIZE 4 4 4 4
TYPE F F F U
COUNT 1 1 1 1
WIDTH 1090
HEIGHT 1
VIEWPOINT 0 0 0 1 0 0 0
POINTS 1090
DATA ascii
0.14118825 0.13598314 0.74700004 4278714368
0.14248951 0.13598314 0.74700004 4293053124
0.1437908 0.13598314 0.74700004 4293715443
0.14509207 0.13598314 0.74700004 4292005081
0.14639334 0.13598314 0.74700004 4291869898
0.14769462 0.13598314 0.74700004 4290883002
0.053569123 0.13618174 0.74100006 4289563268
0.054859944 0.13618174 0.74100006 4290154648
0.056150764 0.13618174 0.74100006 4290944421
0.057286549 0.13581418 0.73900002 4290354048
0.058573883 0.13581418 0.73900002 4289301617
0.10048031 0.13857087 0.75400001 4283377981
0.10179378 0.13857087 0.75400001 4284167754
0.10310724 0.13857087 0.75400001 4284497440
0.10414374 0.13820334 0.75200003 4284892198
0.10545372 0.13820334 0.75200003 4285023033
0.10662173 0.13801955 0.75100005 4284562482
0.10792998 0.13801955 0.75100005 4284627491
0.1089473 0.13765198 0.74900001 4284364576
0.10995767 0.13728441 0.74700004 4284364055
0.11125894 0.13728441 0.74700004 4283640333
0.11256021 0.13728441 0.74700004 4284357632
0.11386149 0.13728441 0.74700004 4284226048
0.11516277 0.13728441 0.74700004 4285011968
0.11630813 0.13710064 0.74600005 4285735936
0.11760767 0.13710064 0.74600005 4287249974
0.11890719 0.13710064 0.74600005 4291394932
0.12020673 0.13710064 0.74600005 4291598719
0.12150626 0.13710064 0.74600005 4293178007
0.12280578 0.13710064 0.74600005 4294365596
0.12410532 0.13710064 0.74600005 4294760354
0.12540485 0.13710064 0.74600005 4294499026
0.12670439 0.13710064 0.74600005 4294432977
0.12800391 0.13710064 0.74600005 4293250506
0.12947679 0.13728441 0.74700004 4292987077
0.13077804 0.13728441 0.74700004 4294963653
0.13207932 0.13728441 0.74700004 4294967261
0.13338061 0.13728441 0.74700004 4294967295
0.13468188 0.13728441 0.74700004 4294967295
0.13598314 0.13728441 0.74700004 4294964195
0.13728441 0.13728441 0.74700004 4291604641
0.1385857 0.13728441 0.74700004 4290813514
0.13969971 0.13710064 0.74600005 4285155328
0.14099923 0.13710064 0.74600005 4285683223
0.14248951 0.13728441 0.74700004 4294038934
0.1437908 0.13728441 0.74700004 4293251799
0.14509207 0.13728441 0.74700004 4291212215
0.14619736 0.13710064 0.74600005 4291474608
0.14749689 0.13710064 0.74600005 4292264124
0.14879644 0.13710064 0.74600005 4292133304
0.14969355 0.13673308 0.74400002 4292462268
0.15078667 0.13654929 0.74300003 4292329656
0.053569123 0.13747256 0.74100006 4288773999
0.054859944 0.13747256 0.74100006 4289694851
0.056150764 0.13747256 0.74100006 4290879125
0.057286549 0.1371015 0.73900002 4290550926
0.058573883 0.1371015 0.73900002 4289301115
0.059780221 0.13691598 0.73800004 4289761412
0.10414374 0.13951331 0.75200003 4284365871
0.10545372 0.13951331 0.75200003 4284957228
0.10676371 0.13951331 0.75200003 4284759593
0.10792998 0.13932779 0.75100005 4284823843
0.1089473 0.13895674 0.74900001 4284758050
0.11025206 0.13895674 0.74900001 4284627480
0.11125894 0.1385857 0.74700004 4284495894
0.11256021 0.1385857 0.74700004 4284296704
0.11386149 0.1385857 0.74700004 4283836160
0.11516277 0.1385857 0.74700004 4283373824
0.11630813 0.13840018 0.74600005 4282189312
0.11760767 0.13840018 0.74600005 4284881152
0.11890719 0.13840018 0.74600005 4286196992
0.12020673 0.13840018 0.74600005 4289223986
0.12150626 0.13840018 0.74600005 4291789657
0.12247654 0.13802911 0.74400002 4291796101
0.1237726 0.13802911 0.74400002 4293572511
0.12506865 0.13802911 0.74400002 4293181101
0.12636469 0.13802911 0.74400002 4294167996
0.12766074 0.13802911 0.74400002 4294170576
0.12930346 0.13840018 0.74600005 4293381061
0.13077804 0.1385857 0.74700004 4294233285
0.13190252 0.13840018 0.74600005 4294965489
0.13320205 0.13840018 0.74600005 4294967295
0.13450158 0.13840018 0.74600005 4294965755
0.13580112 0.13840018 0.74600005 4293645523
0.13710064 0.13840018 0.74600005 4289566613
0.13802911 0.13802911 0.74400002 4287258920
0.13932517 0.13802911 0.74400002 4286008853
0.14062122 0.13802911 0.74400002 4287325776
0.14229877 0.13840018 0.74600005 4294234041
0.1435983 0.13840018 0.74600005 4293183957
0.14489785 0.13840018 0.74600005 4291604924
0.14580542 0.13802911 0.74400002 4291408050
0.14710146 0.13802911 0.74400002 4291671221
0.14879644 0.13840018 0.74600005 4292065462
0.14969355 0.13802911 0.74400002 4292328633
0.15078667 0.13784359 0.74300003 4292722122
0.15208097 0.13784359 0.74300003 4292919758
0.15296243 0.13747256 0.74100006 4291015867
0.1568349 0.13747256 0.74100006 4280822016
0.054711871 0.13838886 0.73900002 4288444521
0.055999205 0.13838886 0.73900002 4290813069
0.057286549 0.13838886 0.73900002 4290484618
0.058573883 0.13838886 0.73900002 4289695101
0.059780221 0.13820159 0.73800004 4289696132
0.1089473 0.1402615 0.74900001 4284496675
0.11025206 0.1402615 0.74900001 4284561437
0.11125894 0.13988698 0.74700004 4284627230
0.11256021 0.13988698 0.74700004 4284561437
0.11386149 0.13988698 0.74700004 4284495644
0.11516277 0.13988698 0.74700004 4284363040
0.11646404 0.13988698 0.74700004 4283704854
0.11760767 0.13969971 0.74600005 4284357120
0.11890719 0.13969971 0.74600005 4284554240
0.12020673 0.13969971 0.74600005 4285406976
0.1211805 0.13932517 0.74400002 4285670400
0.12247654 0.13932517 0.74400002 4286194432
0.1237726 0.13932517 0.74400002 4286326016
0.12506865 0.13932517 0.74400002 4287053312
0.12636469 0.13932517 0.74400002 4288763655
0.12766074 0.13932517 0.74400002 4288308810
0.12930346 0.13969971 0.74600005 4288242761
0.13060299 0.13969971 0.74600005 4288568384
0.13190252 0.13969971 0.74600005 4288371006
0.13320205 0.13969971 0.74600005 4289026605
0.13414098 0.13932517 0.74400002 4289618742
0.13543703 0.13932517 0.74400002 4288701765
0.13673308 0.13932517 0.74400002 4288043834
0.13802911 0.13932517 0.74400002 4288373821
0.13932517 0.13932517 0.74400002 4289689425
0.14062122 0.13932517 0.74400002 4290676100
0.14191727 0.13932517 0.74400002 4294955729
0.1435983 0.13969971 0.74600005 4294891994
0.14489785 0.13969971 0.74600005 4294365650
0.14580542 0.13932517 0.74400002 4293248943
0.14710146 0.13932517 0.74400002 4291867290
0.14839751 0.13932517 0.74400002 4291604922
0.14949237 0.13913791 0.74300003 4291604922
0.15078667 0.13913791 0.74300003 4292657322
0.15208097 0.13913791 0.74300003 4293578424
0.15337527 0.13913791 0.74300003 4292133065
0.15425324 0.13876338 0.74100006 4291870150
0.15554407 0.13876338 0.74100006 4291410850
0.1568349 0.13876338 0.74100006 4291674022
0.15812571 0.13876338 0.74100006 4289503937
0.15941654 0.13876338 0.74100006 4284569718
0.16070737 0.13876338 0.74100006 4283049785
0.054711871 0.13967618 0.73900002 4287786577
0.055999205 0.13967618 0.73900002 4290944641
0.057286549 0.13967618 0.73900002 4290551187
0.058494627 0.13948719 0.73800004 4289893514
0.059780221 0.13948719 0.73800004 4289761412
0.11155681 0.14156626 0.74900001 4284693788
0.11256021 0.14118825 0.74700004 4284825386
0.11386149 0.14118825 0.74700004 4284562470
0.11516277 0.14118825 0.74700004 4284561698
0.11646404 0.14118825 0.74700004 4284232989
0.11760767 0.14099923 0.74600005 4284491267
0.11890719 0.14099923 0.74600005 4284359681
0.12020673 0.14099923 0.74600005 4284752640
0.1211805 0.14062122 0.74400002 4284160256
0.12247654 0.14062122 0.74400002 4285539840
0.1237726 0.14062122 0.74400002 4285276416
0.12506865 0.14062122 0.74400002 4285670656
0.12636469 0.14062122 0.74400002 4285604864
0.12766074 0.14062122 0.74400002 4286329856
0.12930346 0.14099923 0.74600005 4286329856
0.13060299 0.14099923 0.74600005 4287184896
0.13190252 0.14099923 0.74600005 4286592512
0.13284492 0.14062122 0.74400002 4287709696
0.13414098 0.14062122 0.74400002 4288827913
0.13543703 0.14062122 0.74400002 4288505671
0.13654929 0.14043221 0.74300003 4286268709
0.13784359 0.14043221 0.74300003 4287776768
0.13913791 0.14043221 0.74300003 4290013457
0.14043221 0.14043221 0.74300003 4292642937
0.14172652 0.14043221 0.74300003 4294948263
0.14302082 0.14043221 0.74300003 4293967286
0.14431514 0.14043221 0.74300003 4294362043
0.14560944 0.14043221 0.74300003 4293511111
0.14690375 0.14043221 0.74300003 4291800493
0.14819805 0.14043221 0.74300003 4291210666
0.14949237 0.14043221 0.74300003 4292329404
0.15078667 0.14043221 0.74300003 4292199873
0.15208097 0.14043221 0.74300003 4291936958
0.15337527 0.14043221 0.74300003 4291999421
0.15425324 0.14005421 0.74100006 4292459972
0.15554407 0.14005421 0.74100006 4292722613
0.1568349 0.14005421 0.74100006 4293183164
0.15812571 0.14005421 0.74100006 4292331993
0.15941654 0.14005421 0.74100006 4289568687
0.16070737 0.14005421 0.74100006 4286216826
0.163289 0.14005421 0.74100006 4280221731
0.055999205 0.14096352 0.73900002 4289497475
0.057286549 0.14096352 0.73900002 4290286484
0.058336105 0.14039129 0.73600006 4290418327
0.059618216 0.14039129 0.73600006 4290024582
0.11386149 0.14248951 0.74700004 4284693288
0.11516277 0.14248951 0.74700004 4284627743
0.11646404 0.14248951 0.74700004 4284561950
0.11760767 0.14229877 0.74600005 4284758046
0.11890719 0.14229877 0.74600005 4284626460
0.12020673 0.14229877 0.74600005 4284952095
0.1211805 0.14191727 0.74400002 4284952095
0.12247654 0.14191727 0.74400002 4285148711
0.1237726 0.14191727 0.74400002 4285806641
0.12506865 0.14191727 0.74400002 4285807143
0.12636469 0.14191727 0.74400002 4285609764
0.12766074 0.14191727 0.74400002 4285674260
0.12895678 0.14191727 0.74400002 4286463776
0.13025284 0.14191727 0.74400002 4286399236
0.13154888 0.14191727 0.74400002 4286991374
0.13266638 0.14172652 0.74300003 4287122460
0.13396069 0.14172652 0.74300003 4288306477
0.13525499 0.14172652 0.74300003 4286864433
0.13618174 0.14134502 0.74100006 4281600768
0.13747256 0.14134502 0.74100006 4284350464
0.13876338 0.14134502 0.74100006 4289610302
0.14005421 0.14134502 0.74100006 4292505856
0.14134502 0.14134502 0.74100006 4293624324
0.14263585 0.14134502 0.74100006 4293426770
0.14431514 0.14172652 0.74300003 4294479201
0.14560944 0.14172652 0.74300003 4292580504
0.14690375 0.14172652 0.74300003 4291790731
0.14819805 0.14172652 0.74300003 4290942622
0.14949237 0.14172652 0.74300003 4293705928
0.15038079 0.14134502 0.74100006 4293052609
0.1516716 0.14134502 0.74100006 4292131507
0.15296243 0.14134502 0.74100006 4292131259
0.15425324 0.14134502 0.74100006 4292788933
0.15554407 0.14134502 0.74100006 4292591808
0.1568349 0.14134502 0.74100006 4292591808
0.15812571 0.14134502 0.74100006 4292527812
0.15941654 0.14134502 0.74100006 4292790727
0.16070737 0.14134502 0.74100006 4292463563
0.16199818 0.14134502 0.74100006 4292397770
0.163289 0.14134502 0.74100006 4291212465
0.16457982 0.14134502 0.74100006 4287922815
0.16542295 0.14096352 0.73900002 4285220750
0.055923432 0.14205837 0.73800004 4288511081
0.057053991 0.14167339 0.73600006 4289432183
0.058256842 0.14148089 0.73500001 4290616201
0.059537213 0.14148089 0.73500001 4290353546
0.11646404 0.1437908 0.74700004 4284496425
0.11776531 0.1437908 0.74700004 4284627241
0.11890719 0.1435983 0.74600005 4284561448
0.12020673 0.1435983 0.74600005 4284757533
0.12150626 0.1435983 0.74600005 4284494360
0.12247654 0.14321332 0.74400002 4284755220
0.1237726 0.14321332 0.74400002 4285018393
0.12506865 0.14321332 0.74400002 4285479722
0.12636469 0.14321332 0.74400002 4285545515
0.12766074 0.14321332 0.74400002 4285415197
0.12895678 0.14321332 0.74400002 4285415197
0.13007776 0.14302082 0.74300003 4286202632
0.13137208 0.14302082 0.74300003 4286334475
0.13266638 0.14302082 0.74300003 4286926108
0.13396069 0.14302082 0.74300003 4287781417
0.13489093 0.14263585 0.74100006 4286275135
0.13618174 0.14263585 0.74100006 4280682752
0.13747256 0.14263585 0.74100006 4283301888
0.13876338 0.14263585 0.74100006 4287047461
0.14005421 0.14263585 0.74100006 4291310848
0.14134502 0.14263585 0.74100006 4294931251
0.14263585 0.14263585 0.74100006 4294475091
0.14392667 0.14263585 0.74100006 4294804055
0.14521749 0.14263585 0.74100006 4293363064
0.14690375 0.14302082 0.74300003 4292836720
0.14779913 0.14263585 0.74100006 4291529584
0.14908996 0.14263585 0.74100006 4293766290
0.15038079 0.14263585 0.74100006 4292328883
0.15126224 0.14225085 0.73900002 4291934126
0.15254956 0.14225085 0.73900002 4292065444
0.15362874 0.14205837 0.73800004 4292657837
0.15491433 0.14205837 0.73800004 4292395712
0.15641159 0.14225085 0.73900002 4292198077
0.15769891 0.14225085 0.73900002 4291803321
0.15898626 0.14225085 0.73900002 4292658630
0.1602736 0.14225085 0.73900002 4292855757
0.16199818 0.14263585 0.74100006 4292921806
0.163289 0.14263585 0.74100006 4292659159
0.16457982 0.14263585 0.74100006 4292330195
0.16542295 0.14225085 0.73900002 4289440967
0.16671029 0.14225085 0.73900002 4284572028
0.16799763 0.14225085 0.73900002 4283309824
0.057053991 0.14295551 0.73600006 4288114525
0.058256842 0.14276126 0.73500001 4291206795
0.059537213 0.14276126 0.73500001 4290551180
0.11646404 0.14509207 0.74700004 4283114254
0.11776531 0.14509207 0.74700004 4283444015
0.11890719 0.14489785 0.74600005 4284167737
0.12020673 0.14489785 0.74600005 4284495642
0.12150626 0.14489785 0.74600005 4284495642
0.12280578 0.14489785 0.74600005 4284495392
0.1237726 0.14450936 0.74400002 4284429599
0.12506865 0.14450936 0.74400002 4284691238
0.12636469 0.14450936 0.74400002 4284888616
0.12766074 0.14450936 0.74400002 4285084701
0.12878346 0.14431514 0.74300003 4284953115
0.13007776 0.14431514 0.74300003 4285611043
0.13137208 0.14431514 0.74300003 4286137643
0.13266638 0.14431514 0.74300003 4286269472
0.13360009 0.14392667 0.74100006 4286467108
0.13489093 0.14392667 0.74100006 4285943855
0.13618174 0.14392667 0.74100006 4285285926
0.13747256 0.14392667 0.74100006 4284685357
0.13876338 0.14392667 0.74100006 4283106325
0.13967618 0.14353821 0.73900002 4286513152
0.14096352 0.14353821 0.73900002 4286644224
0.14225085 0.14353821 0.73900002 4288282624
0.14353821 0.14353821 0.73900002 4292357676
0.14521749 0.14392667 0.74100006 4291253284
0.14650832 0.14392667 0.74100006 4293358404
0.14779913 0.14392667 0.74100006 4292773210
0.14868754 0.14353821 0.73900002 4292773210
0.1499749 0.14353821 0.73900002 4291724915
0.15105754 0.14334397 0.73800004 4291461743
0.15234314 0.14334397 0.73800004 4291073395
0.15362874 0.14334397 0.73800004 4292784013
0.15491433 0.14334397 0.73800004 4292656570
0.15619993 0.14334397 0.73800004 4292524983
0.15748553 0.14334397 0.73800004 4292459709
0.15877113 0.14334397 0.73800004 4292920260
0.16005673 0.14334397 0.73800004 4292460485
0.16134231 0.14334397 0.73800004 4291539383
0.16284828 0.14353821 0.73900002 4292197316
0.16413561 0.14353821 0.73900002 4293512919
0.16542295 0.14353821 0.73900002 4292791761
0.1664847 0.14334397 0.73800004 4292002501
0.1677703 0.14334397 0.73800004 4291343805
0.16905589 0.14334397 0.73800004 4290619826
0.17034149 0.14334397 0.73800004 4289238398
0.057053991 0.14423761 0.73600006 4287653953
0.058256842 0.14404163 0.73500001 4291207032
0.059537213 0.14404163 0.73500001 4290617232
0.12020673 0.14619736 0.74600005 4284101929
0.12150626 0.14619736 0.74600005 4284101929
0.12280578 0.14619736 0.74600005 4284430632
0.1237726 0.14580542 0.74400002 4284298790
0.12506865 0.14580542 0.74400002 4284429599
0.12636469 0.14580542 0.74400002 4284561185
0.12766074 0.14580542 0.74400002 4285018395
0.12878346 0.14560944 0.74300003 4284952601
0.13007776 0.14560944 0.74300003 4285281049
0.13137208 0.14560944 0.74300003 4286267944
0.13266638 0.14560944 0.74300003 4286138416
0.13360009 0.14521749 0.74100006 4285875500
0.13489093 0.14521749 0.74100006 4286204197
0.13618174 0.14521749 0.74100006 4286664748
0.13747256 0.14521749 0.74100006 4286139949
0.13838886 0.14482555 0.73900002 4284626710
0.13967618 0.14482555 0.73900002 4282524160
0.14077277 0.14462957 0.73800004 4279762944
0.14205837 0.14462957 0.73800004 4282515456
0.14353821 0.14482555 0.73900002 4283958275
0.14482555 0.14482555 0.73900002 4290252032
0.14611287 0.14482555 0.73900002 4293870886
0.14720076 0.14462957 0.73800004 4293488207
0.14848636 0.14462957 0.73800004 4294475102
0.14977196 0.14462957 0.73800004 4292706913
0.15105754 0.14462957 0.73800004 4292509791
0.15193029 0.14423761 0.73600006 4291134045
0.15321241 0.14423761 0.73600006 4292120940
0.15449451 0.14423761 0.73600006 4291208342
0.15577663 0.14423761 0.73600006 4292721581
0.15705873 0.14423761 0.73600006 4292657331
0.15834086 0.14423761 0.73600006 4292460209
0.15962297 0.14423761 0.73600006 4292197566
0.16090509 0.14423761 0.73600006 4292065723
0.16218719 0.14423761 0.73600006 4292327870
0.1639135 0.14462957 0.73800004 4292854215
0.16519912 0.14462957 0.73800004 4292986316
0.16603354 0.14423761 0.73600006 4293315025
0.16731563 0.14423761 0.73600006 4292659400
0.16859776 0.14423761 0.73600006 4292593607
0.16987985 0.14423761 0.73600006 4290623428
0.17116198 0.14423761 0.73600006 4287465107
0.17244408 0.14423761 0.73600006 4284836161
0.12540485 0.14749689 0.74600005 4284363292
0.12670439 0.14749689 0.74600005 4284758050
0.12800391 0.14749689 0.74600005 4284691740
0.12878346 0.14690375 0.74300003 4284625947
0.13007776 0.14690375 0.74300003 4284493858
0.13137208 0.14690375 0.74300003 4284296480
0.13266638 0.14690375 0.74300003 4284952099
0.13396069 0.14690375 0.74300003 4285478444
0.13489093 0.14650832 0.74100006 4285677594
0.13618174 0.14650832 0.74100006 4286269474
0.13747256 0.14650832 0.74100006 4286468110
0.13838886 0.14611287 0.73900002 4287257625
0.13967618 0.14611287 0.73900002 4286666810
0.14077277 0.14591515 0.73800004 4286403639
0.14205837 0.14591515 0.73800004 4286400018
0.14334397 0.14591515 0.73800004 4284360192
0.14462957 0.14591515 0.73800004 4287037440
0.14591515 0.14591515 0.73800004 4286906368
0.14720076 0.14591515 0.73800004 4287102978
0.14848636 0.14591515 0.73800004 4290125105
0.14977196 0.14591515 0.73800004 4290466081
0.15064819 0.14551973 0.73600006 4293097800
0.15193029 0.14551973 0.73600006 4290799200
0.15321241 0.14551973 0.73600006 4289285961
0.15449451 0.14551973 0.73600006 4288960591
0.15577663 0.14551973 0.73600006 4290934381
0.15705873 0.14551973 0.73600006 4290809446
0.15834086 0.14551973 0.73600006 4292125306
0.15962297 0.14551973 0.73600006 4292457126
0.16090509 0.14551973 0.73600006 4293904573
0.16218719 0.14551973 0.73600006 4293249985
0.16346931 0.14551973 0.73600006 4292723641
0.16475141 0.14551973 0.73600006 4292920260
0.16603354 0.14551973 0.73600006 4293512140
0.16731563 0.14551973 0.73600006 4293052863
0.16859776 0.14551973 0.73600006 4293315779
0.16987985 0.14551973 0.73600006 4292791000
0.17116198 0.14551973 0.73600006 4292593364
0.17220977 0.14532201 0.73500001 4291412160
0.17349014 0.14532201 0.73500001 4290556852
0.17477052 0.14532201 0.73500001 4289438886
0.12895678 0.14839751 0.74400002 4284429849
0.13007776 0.14819805 0.74300003 4284166944
0.13137208 0.14819805 0.74300003 4284035102
0.13266638 0.14819805 0.74300003 4284362007
0.13396069 0.14819805 0.74300003 4284427800
0.13525499 0.14819805 0.74300003 4285215256
0.13618174 0.14779913 0.74100006 4286070565
0.13747256 0.14779913 0.74100006 4286203948
0.13876338 0.14779913 0.74100006 4287125049
0.13967618 0.14740022 0.73900002 4287191106
0.14077277 0.14720076 0.73800004 4287256899
0.14205837 0.14720076 0.73800004 4287387454
0.14334397 0.14720076 0.73800004 4286729523
0.14462957 0.14720076 0.73800004 4285740303
0.14551973 0.14680184 0.73600006 4282779648
0.14680184 0.14680184 0.73600006 4283760640
0.14808397 0.14680184 0.73600006 4284874752
0.14936607 0.14680184 0.73600006 4287497472
0.15064819 0.14680184 0.73600006 4291247654
0.15193029 0.14680184 0.73600006 4291583823
0.15321241 0.14680184 0.73600006 4291123272
0.15449451 0.14680184 0.73600006 4289878559
0.15577663 0.14680184 0.73600006 4289549594
0.15705873 0.14680184 0.73600006 4289487676
0.15834086 0.14680184 0.73600006 4291132244
0.15962297 0.14680184 0.73600006 4291465868
0.16068645 0.14660238 0.73500001 4294426553
0.16196682 0.14660238 0.73500001 4292727240
0.16324718 0.14660238 0.73500001 4291674551
0.16475141 0.14680184 0.73600006 4292393895
0.16580793 0.14660238 0.73500001 4293183668
0.1670883 0.14660238 0.73500001 4292920260
0.16836867 0.14660238 0.73500001 4292854466
0.16964905 0.14660238 0.73500001 4293052107
0.17092942 0.14660238 0.73500001 4293249486
0.17220977 0.14660238 0.73500001 4293053385
0.17301807 0.14620346 0.73300004 4292461505
0.17429496 0.14620346 0.73300004 4291672768
0.17557184 0.14620346 0.73300004 4290883252
0.17684874 0.14620346 0.73300004 4288518036
0.13154888 0.14969355 0.74400002 4284167976
0.13284492 0.14969355 0.74400002 4284299296
0.13396069 0.14949237 0.74300003 4284233247
0.13525499 0.14949237 0.74300003 4284559651
0.13618174 0.14908996 0.74100006 4284559651
0.13747256 0.14908996 0.74100006 4284952099
0.13876338 0.14908996 0.74100006 4284952099
0.13967618 0.14868754 0.73900002 4285280047
0.14077277 0.14848636 0.73800004 4286135356
0.14205837 0.14848636 0.73800004 4286598928
0.14334397 0.14848636 0.73800004 4287322651
0.14423761 0.14808397 0.73600006 4287322163
0.14551973 0.14808397 0.73600006 4287387956
0.14680184 0.14808397 0.73600006 4286992896
0.14808397 0.14808397 0.73600006 4285808640
0.14936607 0.14808397 0.73600006 4286457856
0.15064819 0.14808397 0.73600006 4284352256
0.15172386 0.14788274 0.73500001 4286122752
0.15300423 0.14788274 0.73500001 4286583296
0.1542846 0.14788274 0.73500001 4286455581
0.15556498 0.14788274 0.73500001 4289350216
0.15684533 0.14788274 0.73500001 4288958029
0.1581257 0.14788274 0.73500001 4289286738
0.15940608 0.14788274 0.73500001 4289418049
0.16068645 0.14788274 0.73500001 4289418049
0.16196682 0.14788274 0.73500001 4289358927
0.16324718 0.14788274 0.73500001 4290214236
0.16452757 0.14788274 0.73500001 4289627257
0.16580793 0.14788274 0.73500001 4291864476
0.1670883 0.14788274 0.73500001 4292128438
0.16836867 0.14788274 0.73500001 4292260025
0.16964905 0.14788274 0.73500001 4292524718
0.17092942 0.14788274 0.73500001 4292853683
0.17220977 0.14788274 0.73500001 4292591538
0.17301807 0.14748035 0.73300004 4292262829
0.17381939 0.14707795 0.73100001 4292263611
0.17509279 0.14707795 0.73100001 4292658368
0.1763662 0.14707795 0.73100001 4292199614
0.1781256 0.14748035 0.73300004 4292791751
0.13525499 0.15078667 0.74300003 4284232737
0.13654929 0.15078667 0.74300003 4284364324
0.13747256 0.15038079 0.74100006 4284297499
0.13876338 0.15038079 0.74100006 4284165657
0.13967618 0.1499749 0.73900002 4284493595
0.14077277 0.14977196 0.73800004 4284559388
0.14205837 0.14977196 0.73800004 4285806611
0.14334397 0.14977196 0.73800004 4286596127
0.14423761 0.14936607 0.73600006 4286794805
0.14551973 0.14936607 0.73600006 4287584065
0.14680184 0.14936607 0.73600006 4287061294
0.14808397 0.14936607 0.73600006 4286666536
0.14916311 0.14916311 0.73500001 4285878297
0.15044349 0.14916311 0.73500001 4283115264
0.15172386 0.14916311 0.73500001 4282521856
0.15300423 0.14916311 0.73500001 4281666560
0.1542846 0.14916311 0.73500001 4283760640
0.15556498 0.14916311 0.73500001 4287115040
0.15684533 0.14916311 0.73500001 4289087537
0.1581257 0.14916311 0.73500001 4289745467
0.15940608 0.14916311 0.73500001 4290271548
0.16068645 0.14916311 0.73500001 4289481775
0.16196682 0.14916311 0.73500001 4288889915
0.16324718 0.14916311 0.73500001 4289482308
0.16452757 0.14916311 0.73500001 4289492301
0.16580793 0.14916311 0.73500001 4290413403
0.16663364 0.14875725 0.73300004 4290746756
0.16791053 0.14875725 0.73300004 4291865493
0.16918741 0.14875725 0.73300004 4291866525
0.17046431 0.14875725 0.73300004 4291932318
0.17174119 0.14875725 0.73300004 4291867817
0.17254598 0.14835134 0.73100001 4292460211
0.17381939 0.14835134 0.73100001 4292328883
0.17509279 0.14835134 0.73100001 4292131761
0.1763662 0.14835134 0.73100001 4292328380
0.17763959 0.14835134 0.73100001 4293447117
0.17891298 0.14835134 0.73100001 4293446876
0.18018639 0.14835134 0.73100001 4291999430
0.13747256 0.1516716 0.74100006 4284365339
0.13876338 0.1516716 0.74100006 4284233753
0.13967618 0.15126224 0.73900002 4284429349
0.14077277 0.15105754 0.73800004 4284429349
0.14205837 0.15105754 0.73800004 4284886302
0.14334397 0.15105754 0.73800004 4284688923
0.14423761 0.15064819 0.73600006 4285479198
0.14551973 0.15064819 0.73600006 4286202664
0.14680184 0.15064819 0.73600006 4286467078
0.14808397 0.15064819 0.73600006 4286730251
0.14916311 0.15044349 0.73500001 4286599959
0.15044349 0.15044349 0.73500001 4287126303
0.15172386 0.15044349 0.73500001 4286405449
0.15300423 0.15044349 0.73500001 4286010691
0.1542846 0.15044349 0.73500001 4286138404
0.15556498 0.15044349 0.73500001 4284428043
0.15684533 0.15044349 0.73500001 4286129664
0.1581257 0.15044349 0.73500001 4285472000
0.15940608 0.15044349 0.73500001 4287116044
0.16024922 0.15003411 0.73300004 4289879350
0.1615261 0.15003411 0.73300004 4289355365
0.16280298 0.15003411 0.73300004 4289684330
0.16407987 0.15003411 0.73300004 4289486150
0.16535676 0.15003411 0.73300004 4288170546
0.16617897 0.14962475 0.73100001 4288105021
0.16745238 0.14962475 0.73100001 4290604898
0.16872577 0.14962475 0.73100001 4290281830
0.17046431 0.15003411 0.73300004 4291531897
0.17174119 0.15003411 0.73300004 4291995031
0.17254598 0.14962475 0.73100001 4293179048
0.17358162 0.14942007 0.73000002 4292459427
0.17485327 0.14942007 0.73000002 4291472532
0.1763662 0.14962475 0.73100001 4291668919
0.17763959 0.14962475 0.73100001 4292853192
0.17891298 0.14962475 0.73100001 4292656801
0.18018639 0.14962475 0.73100001 4291735699
0.1814598 0.14962475 0.73100001 4291211700
0.18273319 0.14962475 0.73100001 4291869629
0.13876338 0.15296243 0.74100006 4284431132
0.13967618 0.15254956 0.73900002 4284233247
0.14077277 0.15234314 0.73800004 4284299296
0.14205837 0.15234314 0.73800004 4284363805
0.14334397 0.15234314 0.73800004 4284034841
0.14423761 0.15193029 0.73600006 4284560151
0.14551973 0.15193029 0.73600006 4285020702
0.14680184 0.15193029 0.73600006 4285677592
0.14788274 0.15172386 0.73500001 4286138143
0.14916311 0.15172386 0.73500001 4286531877
0.15044349 0.15172386 0.73500001 4287387443
0.15172386 0.15172386 0.73500001 4287125831
0.15300423 0.15172386 0.73500001 4287125831
0.1542846 0.15172386 0.73500001 4286797886
0.15556498 0.15172386 0.73500001 4286008113
0.15684533 0.15172386 0.73500001 4284234241
0.1581257 0.15172386 0.73500001 4282852608
0.15940608 0.15172386 0.73500001 4283700736
0.16024922 0.15131101 0.73300004 4287122210
0.1615261 0.15131101 0.73300004 4288696649
0.16280298 0.15131101 0.73300004 4289486422
0.16407987 0.15131101 0.73300004 4290470446
0.16535676 0.15131101 0.73300004 4290009895
0.16617897 0.15089814 0.73100001 4289155102
0.16745238 0.15089814 0.73100001 4290602548
0.16872577 0.15089814 0.73100001 4289685580
0.16999918 0.15089814 0.73100001 4290277973
0.17127259 0.15089814 0.73100001 4290803547
0.17230994 0.15069173 0.73000002 4292711544
0.17358162 0.15069173 0.73000002 4291800479
0.17485327 0.15069173 0.73000002 4291142293
0.17612493 0.15069173 0.73000002 4291076241
0.17739658 0.15069173 0.73000002 4292918445
0.17866825 0.15069173 0.73000002 4292591538
0.17993991 0.15069173 0.73000002 4291144092
0.18121156 0.15069173 0.73000002 4291274667
0.18248323 0.15069173 0.73000002 4293116871
0.18375488 0.15069173 0.73000002 4292591829
0.14077277 0.15362874 0.73800004 4284102685
0.14205837 0.15362874 0.73800004 4284233247
0.14334397 0.15362874 0.73800004 4284101917
0.14423761 0.15321241 0.73600006 4284429599
0.14551973 0.15321241 0.73600006 4284429599
0.14660238 0.15300423 0.73500001 4284886302
0.14788274 0.15300423 0.73500001 4284754716
0.14916311 0.15300423 0.73500001 4284886050
0.15044349 0.15300423 0.73500001 4285478444
0.15172386 0.15300423 0.73500001 4285873953
0.15300423 0.15300423 0.73500001 4286531627
0.15386479 0.15258789 0.73300004 4286862363
0.15514167 0.15258789 0.73300004 4287191328
0.15684533 0.15300423 0.73500001 4286666267
0.15769544 0.15258789 0.73300004 4286666267
0.15897232 0.15258789 0.73300004 4286599709
0.16024922 0.15258789 0.73300004 4286007572
0.1615261 0.15258789 0.73300004 4286462238
0.16235876 0.15217155 0.73100001 4284751621
0.16363217 0.15217155 0.73100001 4286328088
0.16490556 0.15217155 0.73100001 4288762685
0.16595164 0.15196338 0.73000002 4289026632
0.1672233 0.15196338 0.73000002 4291263594
0.16849497 0.15196338 0.73000002 4291786345
0.16976662 0.15196338 0.73000002 4291457380
0.17103828 0.15196338 0.73000002 4291454009
0.17230994 0.15196338 0.73000002 4291585338
0.17358162 0.15196338 0.73000002 4290867555
0.17485327 0.15196338 0.73000002 4290736226
0.17612493 0.15196338 0.73000002 4290807659
0.17739658 0.15196338 0.73000002 4292781705
0.17866825 0.15196338 0.73000002 4292128429
0.17993991 0.15196338 0.73000002 4291865000
0.18121156 0.15196338 0.73000002 4291932331
0.18248323 0.15196338 0.73000002 4293247935
0.18375488 0.15196338 0.73000002 4292132233
0.18832417 0.15154704 0.72800004 4290413405
0.18959233 0.15154704 0.72800004 4290149976
0.19059834 0.15133889 0.72700006 4290018397
0.19186479 0.15133889 0.72700006 4289754968
0.19313121 0.15133889 0.72700006 4290213432
0.19485666 0.15071437 0.72400004 4290999113
0.14334397 0.15491433 0.73800004 4284101929
0.14423761 0.15449451 0.73600006 4284299296
0.14551973 0.15449451 0.73600006 4284299296
0.14660238 0.1542846 0.73500001 4284297499
0.14788274 0.1542846 0.73500001 4283902741
0.14916311 0.1542846 0.73500001 4284229905
0.15044349 0.1542846 0.73500001 4284361492
0.15172386 0.1542846 0.73500001 4285477408
0.15258789 0.15386479 0.73300004 4286332717
0.15386479 0.15386479 0.73300004 4286400557
0.15514167 0.15386479 0.73300004 4286992950
0.15641855 0.15386479 0.73300004 4287190311
0.15769544 0.15386479 0.73300004 4287387947
0.15897232 0.15386479 0.73300004 4287584817
0.15981196 0.15344496 0.73100001 4287256108
0.16108537 0.15344496 0.73100001 4286337568
0.16235876 0.15344496 0.73100001 4283771648
0.16363217 0.15344496 0.73100001 4283313920
0.16490556 0.15344496 0.73100001 4284827142
0.16595164 0.15323505 0.73000002 4287907376
0.16676515 0.15281522 0.72800004 4290275925
0.16803335 0.15281522 0.72800004 4292767568
0.16930151 0.15281522 0.72800004 4293622877
0.1705697 0.15281522 0.72800004 4293425762
0.17183787 0.15281522 0.72800004 4292438867
0.17310604 0.15281522 0.72800004 4291649619
0.17437422 0.15281522 0.72800004 4291583825
0.17564239 0.15281522 0.72800004 4291459660
0.17691058 0.15281522 0.72800004 4292512605
0.17817874 0.15281522 0.72800004 4291008638
0.17944694 0.15281522 0.72800004 4292126862
0.1807151 0.15281522 0.72800004 4292194995
0.18173331 0.15260532 0.72700006 4292392630
0.18299973 0.15260532 0.72700006 4289698181
0.18426618 0.15260532 0.72700006 4284566327
0.18553261 0.15260532 0.72700006 4286731588
0.18679903 0.15260532 0.72700006 4289889652
0.18806548 0.15260532 0.72700006 4290478680
0.1893319 0.15260532 0.72700006 4290412886
0.190074 0.15218548 0.72500002 4290149474
0.19133694 0.15218548 0.72500002 4289952352
0.19259989 0.15218548 0.72500002 4289624906
0.19386284 0.15218548 0.72500002 4289493320
0.19485666 0.15197559 0.72400004 4289623886
0.19557612 0.15155576 0.72200006 4289755472
0.19683383 0.15155576 0.72200006 4290344527
0.14462957 0.15619993 0.73800004 4283904799
0.14551973 0.15577663 0.73600006 4284365350
0.14660238 0.15556498 0.73500001 4284299546
0.14788274 0.15556498 0.73500001 4284036374
0.14916311 0.15556498 0.73500001 4284231454
0.15044349 0.15556498 0.73500001 4284034076
0.15172386 0.15556498 0.73500001 4284556321
0.15258789 0.15514167 0.73300004 4284227357
0.15386479 0.15514167 0.73300004 4284686624
0.15514167 0.15514167 0.73300004 4285344555
0.15641855 0.15514167 0.73300004 4285741329
0.15726516 0.15471835 0.73100001 4286267674
0.15853855 0.15471835 0.73100001 4286729730
0.15981196 0.15471835 0.73100001 4287453710
0.16086501 0.1545067 0.73000002 4287060260
0.16213667 0.1545067 0.73000002 4287520811
0.16340832 0.1545067 0.73000002 4287062305
0.16467999 0.1545067 0.73000002 4287062305
0.16595164 0.1545067 0.73000002 4287910959
0.16676515 0.1540834 0.72800004 4285805326
0.16803335 0.1540834 0.72800004 4288558848
0.16930151 0.1540834 0.72800004 4290795795
0.1705697 0.1540834 0.72800004 4291061854
0.17183787 0.1540834 0.72800004 4291917163
0.17310604 0.1540834 0.72800004 4291850075
0.1741347 0.15387174 0.72700006 4291389524
0.17540114 0.15387174 0.72700006 4291321135
0.17666757 0.15387174 0.72700006 4290334240
0.17793401 0.15387174 0.72700006 4290469161
0.17920044 0.15387174 0.72700006 4292903502
0.18046688 0.15387174 0.72700006 4290412946
0.18123335 0.15344843 0.72500002 4289228415
0.18249629 0.15344843 0.72500002 4287390799
0.18375924 0.15344843 0.72500002 4286140733
0.18502219 0.15344843 0.72500002 4287716709
0.18628514 0.15344843 0.72500002 4289756549
0.1875481 0.15344843 0.72500002 4290150219
0.18881105 0.15344843 0.72500002 4290281805
0.18981183 0.15323679 0.72400004 4290150501
0.19107303 0.15323679 0.72400004 4289952865
0.19233423 0.15323679 0.72400004 4289887574
0.19359544 0.15323679 0.72400004 4289821781
0.19485666 0.15323679 0.72400004 4289887059
0.19557612 0.15281349 0.72200006 4289887059
0.19683383 0.15281349 0.72200006 4290017615
0.19781718 0.15260182 0.72100002 4289425478
0.19907317 0.15260182 0.72100002 4290275923
0.14551973 0.15705873 0.73600006 4283838743
0.14680184 0.15705873 0.73600006 4284037669
0.14788274 0.15684533 0.73500001 4283971876
0.14916311 0.15684533 0.73500001 4284100895
0.15044349 0.15684533 0.73500001 4284035102
0.15172386 0.15684533 0.73500001 4284034339
0.15258789 0.15641855 0.73300004 4283573788
0.15386479 0.15641855 0.73300004 4283703813
0.15471835 0.15599176 0.73100001 4283506435
0.15599176 0.15599176 0.73100001 4284359424
0.15726516 0.15599176 0.73100001 4284622592
0.15853855 0.15599176 0.73100001 4285937418
0.15959334 0.15577836 0.73000002 4287121436
0.16086501 0.15577836 0.73000002 4287321127
0.16213667 0.15577836 0.73000002 4288242229
0.16340832 0.15577836 0.73000002 4288243001
0.16467999 0.15577836 0.73000002 4288440380
0.16549699 0.15535158 0.72800004 4288177488
0.16676515 0.15535158 0.72800004 4286137904
0.16780253 0.15513819 0.72700006 4285351168
0.16906896 0.15513819 0.72700006 4286272256
0.1703354 0.15513819 0.72700006 4287648815
0.17160183 0.15513819 0.72700006 4289556812
0.17286825 0.15513819 0.72700006 4291458661
0.1741347 0.15513819 0.72700006 4291195489
0.17540114 0.15513819 0.72700006 4292567627
0.17618154 0.15471138 0.72500002 4292304198
0.17744449 0.15471138 0.72500002 4292237860
0.17870744 0.15471138 0.72500002 4293882942
0.17997038 0.15471138 0.72500002 4290673785
0.18123335 0.15471138 0.72500002 4286858048
0.18249629 0.15471138 0.72500002 4286531584
0.18375924 0.15471138 0.72500002 4288439572
0.18502219 0.15471138 0.72500002 4288836437
0.18628514 0.15471138 0.72500002 4289625697
0.1875481 0.15471138 0.72500002 4289887313
0.18855062 0.154498 0.72400004 4289953106
0.18981183 0.154498 0.72400004 4289952863
0.19107303 0.154498 0.72400004 4289952863
0.19233423 0.154498 0.72400004 4289887061
0.19359544 0.154498 0.72400004 4289887061
0.19485666 0.154498 0.72400004 4289887059
0.19557612 0.15407121 0.72200006 4289887059
0.19683383 0.15407121 0.72200006 4289690963
0.19864029 0.154498 0.72400004 4289164618
0.19934928 0.15407121 0.72200006 4289030984
0.20060702 0.15407121 0.72200006 4289557328
0.2024239 0.154498 0.72400004 4290214238
0.14680184 0.15834086 0.73600006 4283246633
0.14808397 0.15834086 0.73600006 4283838770
0.14916311 0.1581257 0.73500001 4283905049
0.15044349 0.1581257 0.73500001 4284102685
0.15172386 0.1581257 0.73500001 4284101427
0.15258789 0.15769544 0.73300004 4283904047
0.15386479 0.15769544 0.73300004 4284099098
0.15471835 0.15726516 0.73100001 4283967512
0.15599176 0.15726516 0.73100001 4284032261
0.15726516 0.15726516 0.73100001 4283966467
0.15853855 0.15726516 0.73100001 4284622115
0.15959334 0.15705001 0.73000002 4285148459
0.16086501 0.15705001 0.73000002 4285676059
0.16213667 0.15705001 0.73000002 4286268196
0.16340832 0.15705001 0.73000002 4286860304
0.16467999 0.15705001 0.73000002 4287715612
0.16549699 0.15661976 0.72800004 4287651125
0.16653609 0.15640463 0.72700006 4287651125
0.16734089 0.15597434 0.72500002 4287258418
0.16860385 0.15597434 0.72500002 4287521591
0.1703354 0.15640463 0.72700006 4287782432
0.17112975 0.15597434 0.72500002 4287321881
0.17239268 0.15597434 0.72500002 4288236591
0.17365563 0.15597434 0.72500002 4287973420
0.17491859 0.15597434 0.72500002 4289152342
0.17618154 0.15597434 0.72500002 4290665581
0.17744449 0.15597434 0.72500002 4291191353
0.17870744 0.15597434 0.72500002 4291783233
0.17997038 0.15597434 0.72500002 4289882443
0.18123335 0.15597434 0.72500002 4285671691
0.18224457 0.1557592 0.72400004 4286400018
0.18350577 0.1557592 0.72400004 4289821254
0.18476699 0.1557592 0.72400004 4289953619
0.18602821 0.1557592 0.72400004 4289690447
0.18728942 0.1557592 0.72400004 4289887059
0.18855062 0.1557592 0.72400004 4289821265
0.18981183 0.1557592 0.72400004 4289951829
0.19107303 0.1557592 0.72400004 4290017879
0.19233423 0.1557592 0.72400004 4290017875
0.19359544 0.1557592 0.72400004 4290017875
0.19431838 0.15532893 0.72200006 4289887059
0.19557612 0.15532893 0.72200006 4289887059
0.19683383 0.15532893 0.72200006 4289953106
0.19864029 0.1557592 0.72400004 4289887313
0.19990149 0.1557592 0.72400004 4289492564
0.2011627 0.1557592 0.72400004 4289163855
0.2024239 0.1557592 0.72400004 4289689425
0.2036851 0.1557592 0.72400004 4289360716
0.20494632 0.1557592 0.72400004 4290276938
0.14680184 0.15962297 0.73600006 4282194463
0.14808397 0.15962297 0.73600006 4283115565
0.14916311 0.15940608 0.73500001 4283510816
0.15044349 0.15940608 0.73500001 4283773731
0.15172386 0.15940608 0.73500001 4284101427
0.15258789 0.15897232 0.73300004 4283969840
0.15386479 0.15897232 0.73300004 4284100888
0.15471835 0.15853855 0.73100001 4283969046
0.15599176 0.15853855 0.73100001 4284033809
0.15726516 0.15853855 0.73100001 4284033809
0.15853855 0.15853855 0.73100001 4284163608
0.15959334 0.15832168 0.73000002 4284295450
0.16086501 0.15832168 0.73000002 4284755205
0.16213667 0.15832168 0.73000002 4285084169
0.16296063 0.15788794 0.72800004 4286003734
0.16422881 0.15788794 0.72800004 4286596127
0.16549699 0.15788794 0.72800004 4287122719
0.16653609 0.15767105 0.72700006 4287780906
0.16734089 0.15723729 0.72500002 4287848507
0.16860385 0.15723729 0.72500002 4288374851
0.1698668 0.15723729 0.72500002 4287916089
0.17112975 0.15723729 0.72500002 4287192110
0.17239268 0.15723729 0.72500002 4286534446
0.17365563 0.15723729 0.72500002 4285942308
0.17467733 0.15702042 0.72400004 4286008101
0.17593855 0.15702042 0.72400004 4286600239
0.17719975 0.15702042 0.72400004 4289157176
0.17846096 0.15702042 0.72400004 4290341449
0.17972216 0.15702042 0.72400004 4289817683
0.18098336 0.15702042 0.72400004 4286133276
0.18224457 0.15702042 0.72400004 4286857987
0.18350577 0.15702042 0.72400004 4290673981
0.18476699 0.15702042 0.72400004 4289953617
0.18602821 0.15702042 0.72400004 4289690701
0.18728942 0.15702042 0.72400004 4289887059
0.18802977 0.15658666 0.72200006 4289755472
0.1892875 0.15658666 0.72200006 4290017373
0.19054522 0.15658666 0.72200006 4290149215
0.19180293 0.15658666 0.72200006 4290083672
0.19306067 0.15658666 0.72200006 4290017879
0.19431838 0.15658666 0.72200006 4289755472
0.19557612 0.15658666 0.72200006 4289887059
0.19683383 0.15658666 0.72200006 4290019160
0.19864029 0.15702042 0.72400004 4289953367
0.19990149 0.15702042 0.72400004 4289821265
0.2011627 0.15702042 0.72400004 4289623886
0.2024239 0.15702042 0.72400004 4289295953
0.2036851 0.15702042 0.72400004 4289295953
0.20494632 0.15702042 0.72400004 4289361230
0.14936607 0.16090509 0.73600006 4282655264
0.15044349 0.16068645 0.73500001 4282918436
0.15172386 0.16068645 0.73500001 4283378733
0.15258789 0.16024922 0.73300004 4283576368
0.15386479 0.16024922 0.73300004 4283773718
0.15471835 0.15981196 0.73100001 4283773718
0.15599176 0.15981196 0.73100001 4284100382
0.15726516 0.15981196 0.73100001 4284034589
0.15853855 0.15981196 0.73100001 4284098849
0.15959334 0.15959334 0.73000002 4284033055
0.16086501 0.15959334 0.73000002 4284164866
0.16213667 0.15959334 0.73000002 4284362245
0.16296063 0.15915611 0.72800004 4284952095
0.16422881 0.15915611 0.72800004 4285281060
0.16526966 0.1589375 0.72700006 4285610000
0.16653609 0.1589375 0.72700006 4286399516
0.16780253 0.1589375 0.72700006 4286664471
0.16860385 0.15850024 0.72500002 4286861850
0.1698668 0.15850024 0.72500002 4287189798
0.17112975 0.15850024 0.72500002 4287584556
0.1721549 0.15828162 0.72400004 4287192112
0.17341612 0.15828162 0.72400004 4287586614
0.17467733 0.15828162 0.72400004 4287388487
0.17593855 0.15828162 0.72400004 4287519817
0.17719975 0.15828162 0.72400004 4288503359
0.17846096 0.15828162 0.72400004 4288766531
0.17972216 0.15828162 0.72400004 4288307543
0.18098336 0.15828162 0.72400004 4288241750
0.18174115 0.15784438 0.72200006 4288770894
0.18299887 0.15784438 0.72200006 4290678891
0.1842566 0.15784438 0.72200006 4290546258
0.18551432 0.15784438 0.72200006 4290414672
0.18677205 0.15784438 0.72200006 4290085718
0.18802977 0.15784438 0.72200006 4289559374
0.1892875 0.15784438 0.72200006 4289821027
0.19054522 0.15784438 0.72200006 4289886820
0.19180293 0.15784438 0.72200006 4289821529
0.19306067 0.15784438 0.72200006 4289821529
0.19431838 0.15784438 0.72200006 4289887059
0.19557612 0.15784438 0.72200006 4289821265
0.19683383 0.15784438 0.72200006 4289755472
0.19809157 0.15784438 0.72200006 4289689679
0.19934928 0.15784438 0.72200006 4289754439
0.2011627 0.15828162 0.72400004 4289754439
0.2024239 0.15828162 0.72400004 4289427541
0.2036851 0.15828162 0.72400004 4289822299
0.20494632 0.15828162 0.72400004 4289691215
0.20620753 0.15828162 0.72400004 4289559372
0.15514167 0.1615261 0.73300004 4283838491
0.15641855 0.1615261 0.73300004 4283904549
0.15726516 0.16108537 0.73100001 4283904549
0.15853855 0.16108537 0.73100001 4283970342
0.15959334 0.16086501 0.73000002 4283773220
0.16086501 0.16086501 0.73000002 4284165646
0.16213667 0.16086501 0.73000002 4284165646
0.16296063 0.16042428 0.72800004 4284295700
0.16422881 0.16042428 0.72800004 4284427287
0.16526966 0.16020392 0.72700006 4284626698
0.16653609 0.16020392 0.72700006 4285021456
0.16734089 0.15976319 0.72500002 4285941023
0.16860385 0.15976319 0.72500002 4286006816
0.1698668 0.15976319 0.72500002 4286728980
0.1708937 0.15954283 0.72400004 4287255325
0.1721549 0.15954283 0.72400004 4287387693
0.17341612 0.15954283 0.72400004 4287979829
0.17467733 0.15954283 0.72400004 4287782462
0.17593855 0.15954283 0.72400004 4287980097
0.17719975 0.15954283 0.72400004 4287849022
0.17796798 0.15910211 0.72200006 4287520057
0.1792257 0.15910211 0.72200006 4287258436
0.18098336 0.15954283 0.72400004 4287653194
0.18174115 0.15910211 0.72200006 4289558870
0.18299887 0.15910211 0.72200006 4291006316
0.1842566 0.15910211 0.72200006 4290482012
0.18551432 0.15910211 0.72200006 4290350169
0.18677205 0.15910211 0.72200006 4290283365
0.18802977 0.15910211 0.72200006 4289756765
0.18902531 0.15888174 0.72100002 4289821027
0.19028129 0.15888174 0.72100002 4289821027
0.19153726 0.15888174 0.72100002 4289820764
0.19306067 0.15910211 0.72200006 4289820764
0.19404924 0.15888174 0.72100002 4289821013
0.19530521 0.15888174 0.72100002 4289821013
0.1965612 0.15888174 0.72100002 4289624402
0.19809157 0.15910211 0.72200006 4289492816
0.19934928 0.15910211 0.72200006 4289492553
0.20060702 0.15910211 0.72200006 4289623882
0.20186473 0.15910211 0.72200006 4289492564
0.20312247 0.15910211 0.72200006 4289558357
0.20438018 0.15910211 0.72200006 4289625169
0.2056379 0.15910211 0.72200006 4289625169
0.20689563 0.15910211 0.72200006 4289624917
0.20786503 0.15888174 0.72100002 4289559124
0.20912102 0.15888174 0.72100002 4289361750
0.15853855 0.16235876 0.73100001 4284102442
0.15981196 0.16235876 0.73100001 4283905320
0.16086501 0.16213667 0.73000002 4284101401
0.16213667 0.16213667 0.73000002 4284101401
0.16296063 0.16169247 0.72800004 4284231454
0.16422881 0.16169247 0.72800004 4284165405
0.16526966 0.16147035 0.72700006 4284295964
0.16653609 0.16147035 0.72700006 4284361757
0.16734089 0.16102614 0.72500002 4285018145
0.16860385 0.16102614 0.72500002 4285478696
0.1698668 0.16102614 0.72500002 4285808158
0.1708937 0.16080403 0.72400004 4286334502
0.1721549 0.16080403 0.72400004 4286531617
0.17341612 0.16080403 0.72400004 4286663204
0.1741948 0.16035983 0.72200006 4286992666
0.17545253 0.16035983 0.72200006 4287453217
0.17671025 0.16035983 0.72200006 4287782180
0.17796798 0.16035983 0.72200006 4287848229
0.1792257 0.16035983 0.72200006 4287717943
0.18048342 0.16035983 0.72200006 4288046651
0.18174115 0.16035983 0.72200006 4289296173
0.18299887 0.16035983 0.72200006 4289428015
0.18400139 0.16013773 0.72100002 4290348613
0.18525736 0.16013773 0.72100002 4290743371
0.18677205 0.16035983 0.72200006 4290546021
0.18776932 0.16013773 0.72100002 4290677608
0.18902531 0.16013773 0.72100002 4290677365
0.19028129 0.16013773 0.72100002 4290282863
0.19153726 0.16013773 0.72100002 4290019171
0.19279325 0.16013773 0.72100002 4289624414
0.19404924 0.16013773 0.72100002 4289427793
0.19530521 0.16013773 0.72100002 4289624915
0.1965612 0.16013773 0.72100002 4289558872
0.19781718 0.16013773 0.72100002 4289624666
0.19907317 0.16013773 0.72100002 4289689679
0.20060702 0.16035983 0.72200006 4289755472
0.20186473 0.16035983 0.72200006 4289426773
0.20312247 0.16035983 0.72200006 4289097808
0.20438018 0.16035983 0.72200006 4289427791
0.20535307 0.16013773 0.72100002 4289559376
0.20660906 0.16013773 0.72100002 4289624404
0.20728844 0.15969352 0.71900004 4289821527
0.20854095 0.15969352 0.71900004 4289822047
0.20979345 0.15969352 0.71900004 4289822047
0.21104594 0.15969352 0.71900004 4289755470
0.15981196 0.16363217 0.73100001 4284167976
0.16108537 0.16363217 0.73100001 4284232737
0.16213667 0.16340832 0.73000002 4284232737
0.16296063 0.16296063 0.72800004 4284100645
0.16422881 0.16296063 0.72800004 4283903523
0.16526966 0.1627368 0.72700006 4284033305
0.16653609 0.1627368 0.72700006 4284033305
0.16734089 0.1622891 0.72500002 4284622614
0.16860385 0.1622891 0.72500002 4284820250
0.1698668 0.1622891 0.72500002 4285347355
0.1708937 0.16206525 0.72400004 4285807906
0.1721549 0.16206525 0.72400004 4286136608
0.17341612 0.16206525 0.72400004 4286399779
0.1741948 0.16161756 0.72200006 4286662681
0.17545253 0.16161756 0.72200006 4286991903
0.17671025 0.16161756 0.72200006 4287320607
0.17796798 0.16161756 0.72200006 4287781158
0.1792257 0.16161756 0.72200006 4287847221
0.18048342 0.16161756 0.72200006 4288110650
0.18148941 0.1613937 0.72100002 4288176173
0.1827454 0.1613937 0.72100002 4288636724
0.18349098 0.16094601 0.71900004 4289097013
0.18474348 0.16094601 0.71900004 4289820736
0.18651335 0.1613937 0.72100002 4290149463
0.18776932 0.1613937 0.72100002 4290938979
0.18850097 0.16094601 0.71900004 4291071864
0.18975347 0.16094601 0.71900004 4290479470
0.19100598 0.16094601 0.71900004 4290282859
0.19279325 0.1613937 0.72100002 4289690722
0.19351096 0.16094601 0.71900004 4289624654
0.19476345 0.16094601 0.71900004 4289624654
0.19601595 0.16094601 0.71900004 4289690713
0.19781718 0.1613937 0.72100002 4289690713
0.19852096 0.16094601 0.71900004 4289886557
0.19977345 0.16094601 0.71900004 4289886557
0.20102595 0.16094601 0.71900004 4289624668
0.20284112 0.1613937 0.72100002 4289427289
0.20409709 0.1613937 0.72100002 4289297490
0.20478344 0.16094601 0.71900004 4289297490
0.20603594 0.16094601 0.71900004 4289624656
0.20728844 0.16094601 0.71900004 4289690449
0.20854095 0.16094601 0.71900004 4289952604
0.20979345 0.16094601 0.71900004 4289952604
0.21104594 0.16094601 0.71900004 4290017363
0.21229844 0.16094601 0.71900004 4289819984
0.21325392 0.16072217 0.71800005 4289557326
0.21450469 0.16072217 0.71800005 4289952083
0.16213667 0.16467999 0.73000002 4284101670
0.16296063 0.16422881 0.72800004 4284102442
0.16422881 0.16422881 0.72800004 4283707940
0.16526966 0.16400322 0.72700006 4284098849
0.16653609 0.16400322 0.72700006 4284230435
0.16734089 0.16355205 0.72500002 4284098849
0.16860385 0.16355205 0.72500002 4283967262
0.1698668 0.16355205 0.72500002 4284033055
0.1708937 0.16332646 0.72400004 4284427813
0.1721549 0.16332646 0.72400004 4285149211
0.17341612 0.16332646 0.72400004 4285938726
0.1741948 0.16287528 0.72200006 4286003734
