# .PCD v0.7 - Point Cloud Data file format
VERSION 0.7
FIELDS x y z rgba
SIZE 4 4 4 4
TYPE F F F U
COUNT 1 1 1 1
WIDTH 1057
HEIGHT 1
VIEWPOINT 0 0 0 1 0 0 0
POINTS 1057
DATA ascii
-0.10138877 0.12755361 0.75100005 4289762681
-0.10008053 0.12755361 0.75100005 4290091390
-0.098772287 0.12755361 0.75100005 4290552213
-0.09746404 0.12755361 0.75100005 4290091663
-0.095899723 0.12721393 0.74900001 4287593348
-0.094594963 0.12721393 0.74900001 4279500809
-0.093290202 0.12721393 0.74900001 4280418304
-0.091985449 0.12721393 0.74900001 4284496439
-0.1118547 0.12886184 0.75100005 4278190080
-0.11025206 0.12851869 0.74900001 4279044355
-0.1089473 0.12851869 0.74900001 4279372051
-0.10764254 0.12851869 0.74900001 4278517766
-0.10633779 0.12851869 0.74900001 4279107586
-0.10503303 0.12851869 0.74900001 4279173123
-0.10372827 0.12851869 0.74900001 4284494597
-0.10242351 0.12851869 0.74900001 4290152795
-0.10138877 0.12886184 0.75100005 4290222225
-0.10008053 0.12886184 0.75100005 4290222225
-0.098772287 0.12886184 0.75100005 4290552213
-0.097204484 0.12851869 0.74900001 4290354578
-0.095899723 0.12851869 0.74900001 4288054401
-0.094594963 0.12851869 0.74900001 4280093448
-0.093290202 0.12851869 0.74900001 4280353536
-0.091985449 0.12851869 0.74900001 4283445532
-0.090680689 0.12851869 0.74900001 4285157699
-0.1118547 0.13017009 0.75100005 4278190111
-0.11025206 0.12982343 0.74900001 4278190123
-0.1089473 0.12982343 0.74900001 4278978592
-0.10764254 0.12982343 0.74900001 4278978592
-0.10633779 0.12982343 0.74900001 4279174425
-0.10503303 0.12982343 0.74900001 4278190089
-0.10372827 0.12982343 0.74900001 4282978816
-0.10242351 0.12982343 0.74900001 4290215771
-0.10138877 0.13017009 0.75100005 4290353546
-0.10008053 0.13017009 0.75100005 4290156168
-0.098772287 0.13017009 0.75100005 4290024834
-0.097204484 0.12982343 0.74900001 4290419592
-0.095899723 0.12982343 0.74900001 4288383355
-0.094594963 0.12982343 0.74900001 4281014539
-0.093290202 0.12982343 0.74900001 4280160259
-0.091985449 0.12982343 0.74900001 4282134049
-0.090680689 0.12982343 0.74900001 4284565812
-0.11025206 0.13112818 0.74900001 4279569696
-0.1089473 0.13112818 0.74900001 4278191372
-0.10764254 0.13112818 0.74900001 4278586901
-0.10633779 0.13112818 0.74900001 4280225300
-0.10503303 0.13112818 0.74900001 4278321152
-0.10372827 0.13112818 0.74900001 4281991168
-0.10242351 0.13112818 0.74900001 4289949029
-0.10138877 0.13147834 0.75100005 4289367672
-0.09981399 0.13112818 0.74900001 4289630587
-0.098509237 0.13112818 0.74900001 4289367674
-0.097204484 0.13112818 0.74900001 4290025347
-0.095899723 0.13112818 0.74900001 4288581503
-0.094342373 0.13077804 0.74700004 4282528547
-0.0930411 0.13077804 0.74700004 4280555264
-0.11025206 0.13243294 0.74900001 4280821325
-0.1089473 0.13243294 0.74900001 4278914821
-0.10764254 0.13243294 0.74900001 4278717441
-0.10633779 0.13243294 0.74900001 4279438598
-0.10503303 0.13243294 0.74900001 4278452224
-0.10372827 0.13243294 0.74900001 4281008128
-0.10242351 0.13243294 0.74900001 4285545265
-0.10111875 0.13243294 0.74900001 4288247587
-0.09981399 0.13243294 0.74900001 4290287170
-0.098509237 0.13243294 0.74900001 4289630326
-0.097204484 0.13243294 0.74900001 4290025084
-0.095899723 0.13243294 0.74900001 4288647810
-0.094342373 0.13207932 0.74700004 4283844664
-0.0930411 0.13207932 0.74700004 4281081640
-0.091985449 0.13243294 0.74900001 4279765780
-0.1089473 0.1337377 0.74900001 4280557874
-0.10764254 0.1337377 0.74900001 4279044635
-0.10633779 0.1337377 0.74900001 4279175178
-0.10503303 0.1337377 0.74900001 4278714627
-0.10345129 0.13338061 0.74700004 4280287232
-0.10215002 0.13338061 0.74700004 4282718740
-0.10111875 0.1337377 0.74900001 4286469391
-0.099547476 0.13338061 0.74700004 4290614350
-0.098246194 0.13338061 0.74700004 4289172103
-0.096944928 0.13338061 0.74700004 4289172103
-0.095643647 0.13338061 0.74700004 4288450956
-0.094342373 0.13338061 0.74700004 4284240204
-0.0930411 0.13338061 0.74700004 4283380781
-0.091985449 0.1337377 0.74900001 4281736213
-0.10605384 0.13468188 0.74700004 4279635480
-0.10475257 0.13468188 0.74700004 4279701273
-0.10331281 0.13450158 0.74600005 4279894272
-0.10201328 0.13450158 0.74600005 4280289030
-0.10084874 0.13468188 0.74700004 4284101651
-0.099547476 0.13468188 0.74700004 4289233505
-0.098246194 0.13468188 0.74700004 4289038720
-0.096815147 0.13450158 0.74600005 4288709756
-0.095515616 0.13450158 0.74600005 4288449148
-0.094216079 0.13450158 0.74600005 4287462253
-0.092916548 0.13450158 0.74600005 4283649130
-0.10461234 0.13580112 0.74600005 4279964692
-0.10331281 0.13580112 0.74600005 4280091917
-0.10201328 0.13580112 0.74600005 4279107584
-0.10071374 0.13580112 0.74600005 4283311616
-0.099414214 0.13580112 0.74600005 4289298769
-0.098114684 0.13580112 0.74600005 4288119928
-0.096815147 0.13580112 0.74600005 4287857013
-0.095515616 0.13580112 0.74600005 4288514425
-0.094216079 0.13580112 0.74600005 4287987825
-0.10331281 0.13710064 0.74600005 4280556843
-0.10201328 0.13710064 0.74600005 4278648846
-0.10071374 0.13710064 0.74600005 4281932032
-0.099414214 0.13710064 0.74600005 4286998090
-0.097851634 0.13673308 0.74400002 4287790423
-0.096555583 0.13673308 0.74400002 4287922009
-0.10173978 0.13802911 0.74400002 4278780180
-0.10071374 0.13840018 0.74600005 4280483840
-0.099147677 0.13802911 0.74400002 4286800214
-0.09320572 0.13820159 0.73800004 4288053620
-0.091920123 0.13820159 0.73800004 4288381556
-0.097194031 0.13967618 0.73900002 4287922806
-0.095776916 0.13948719 0.73800004 4289238410
-0.094491318 0.13948719 0.73800004 4289107355
-0.09320572 0.13948719 0.73800004 4287791495
-0.09167102 0.13910916 0.73600006 4288708190
-0.090388909 0.13910916 0.73600006 4291405703
-0.089106798 0.13910916 0.73600006 4291407779
-0.087824687 0.13910916 0.73600006 4291802537
-0.086542569 0.13910916 0.73600006 4291475110
-0.085144617 0.13892016 0.73500001 4291277731
-0.098348111 0.14077277 0.73800004 4288449161
-0.097062506 0.14077277 0.73800004 4288907915
-0.09551736 0.14039129 0.73600006 4289894811
-0.094235249 0.14039129 0.73600006 4289698722
-0.092953131 0.14039129 0.73600006 4288777620
-0.09167102 0.14039129 0.73600006 4288577917
-0.090266094 0.14020053 0.73500001 4290683293
-0.088985719 0.14020053 0.73500001 4291209374
-0.087705351 0.14020053 0.73500001 4291669925
-0.086424977 0.14020053 0.73500001 4291343009
-0.085144617 0.14020053 0.73500001 4291277215
-0.083864242 0.14020053 0.73500001 4291079573
-0.098348111 0.14205837 0.73800004 4288777611
-0.09679947 0.14167339 0.73600006 4288908163
-0.09551736 0.14167339 0.73600006 4290552988
-0.094235249 0.14167339 0.73600006 4290226092
-0.092953131 0.14167339 0.73600006 4288909975
-0.091546461 0.14148089 0.73500001 4288511581
-0.090266094 0.14148089 0.73500001 4290485372
-0.088985719 0.14148089 0.73500001 4290946969
-0.087705351 0.14148089 0.73500001 4291473313
-0.086424977 0.14148089 0.73500001 4291080352
-0.085144617 0.14148089 0.73500001 4291080352
-0.083864242 0.14148089 0.73500001 4291408033
-0.082583874 0.14148089 0.73500001 4291473827
-0.099363692 0.14295551 0.73600006 4288776327
-0.098081581 0.14295551 0.73600006 4289434258
-0.09679947 0.14295551 0.73600006 4289499784
-0.095387571 0.14276126 0.73500001 4290750108
-0.094107203 0.14276126 0.73500001 4290751134
-0.092826836 0.14276126 0.73500001 4289698447
-0.091546461 0.14276126 0.73500001 4289169527
-0.09002047 0.14237282 0.73300004 4290024580
-0.08874359 0.14237282 0.73300004 4291143578
-0.087466702 0.14237282 0.73300004 4291669923
-0.086189814 0.14237282 0.73300004 4291341727
-0.085144617 0.14276126 0.73500001 4291341727
-0.083864242 0.14276126 0.73500001 4291210657
-0.082583874 0.14276126 0.73500001 4291473829
-0.10023557 0.14364968 0.73300004 4288841857
-0.099228688 0.14404163 0.73500001 4288842120
-0.097948313 0.14404163 0.73500001 4289368464
-0.096667938 0.14404163 0.73500001 4289304459
-0.095387571 0.14404163 0.73500001 4290554269
-0.094107203 0.14404163 0.73500001 4290816678
-0.092826836 0.14404163 0.73500001 4289961369
-0.091297358 0.14364968 0.73300004 4289432696
-0.09002047 0.14364968 0.73300004 4289169525
-0.08874359 0.14364968 0.73300004 4291208327
-0.087228045 0.14325774 0.73100001 4292392600
-0.085954636 0.14325774 0.73100001 4291670690
-0.084912926 0.14364968 0.73300004 4291341725
-0.083636038 0.14364968 0.73300004 4291210137
-0.082359158 0.14364968 0.73300004 4291473565
-0.10236865 0.14433342 0.73000002 4287660661
-0.10109697 0.14433342 0.73000002 4288249979
-0.099825315 0.14433342 0.73000002 4289039752
-0.098688662 0.14453113 0.73100001 4289433487
-0.097681791 0.14492658 0.73300004 4289762709
-0.096404903 0.14492658 0.73300004 4289566359
-0.095128015 0.14492658 0.73300004 4290553254
-0.093851134 0.14492658 0.73300004 4290554010
-0.092321657 0.14453113 0.73100001 4290027666
-0.091048248 0.14453113 0.73100001 4288317060
-0.089774847 0.14453113 0.73100001 4285685340
-0.088501446 0.14453113 0.73100001 4287525770
-0.087108716 0.14433342 0.73000002 4292197073
-0.085837059 0.14433342 0.73000002 4292525735
-0.084681235 0.14453113 0.73100001 4292196771
-0.083407834 0.14453113 0.73100001 4292197282
-0.082359158 0.14492658 0.73300004 4292592040
-0.10335636 0.14520617 0.72800004 4287066461
-0.10236865 0.14560507 0.73000002 4288250735
-0.10109697 0.14560507 0.73000002 4288382069
-0.099825315 0.14560507 0.73000002 4289171585
-0.098688662 0.14580454 0.73100001 4289892744
-0.097415261 0.14580454 0.73100001 4290221965
-0.09614186 0.14580454 0.73100001 4290222992
-0.094868451 0.14580454 0.73100001 4290749336
-0.09359505 0.14580454 0.73100001 4290553758
-0.092321657 0.14580454 0.73100001 4290553758
-0.090923697 0.14560507 0.73000002 4287597182
-0.089652039 0.14560507 0.73000002 4283649602
-0.088380374 0.14560507 0.73000002 4286606080
-0.086870067 0.14520617 0.72800004 4292790606
-0.085601889 0.14520617 0.72800004 4292723115
-0.084565401 0.14560507 0.73000002 4292459686
-0.083407834 0.14580454 0.73100001 4292459686
-0.082134441 0.14580454 0.73100001 4292657322
-0.10462453 0.14647435 0.72800004 4287132005
-0.10335636 0.14647435 0.72800004 4287394661
-0.10236865 0.14687674 0.73000002 4288842107
-0.10109697 0.14687674 0.73000002 4289564796
-0.099825315 0.14687674 0.73000002 4289894018
-0.098688662 0.14707795 0.73100001 4289827973
-0.097415261 0.14707795 0.73100001 4290551439
-0.09614186 0.14707795 0.73100001 4290750358
-0.094868451 0.14707795 0.73100001 4291079067
-0.09359505 0.14707795 0.73100001 4291079069
-0.092195362 0.14687674 0.73000002 4291013276
-0.090674594 0.14647435 0.72800004 4289175187
-0.089406416 0.14647435 0.72800004 4284898642
-0.088017173 0.14627315 0.72700006 4286407958
-0.086750738 0.14627315 0.72700006 4292658294
-0.085484304 0.14627315 0.72700006 4293116839
-0.084217876 0.14627315 0.72700006 4292590495
-0.08306554 0.14647435 0.72800004 4292262564
-0.082022078 0.14687674 0.73000002 4292459686
-0.1058927 0.14774252 0.72800004 4287130971
-0.10462453 0.14774252 0.72800004 4287657571
-0.10335636 0.14774252 0.72800004 4288118131
-0.10208818 0.14774252 0.72800004 4289565578
-0.10082 0.14774252 0.72800004 4290090888
-0.099551827 0.14774252 0.72800004 4290090888
-0.098553658 0.1481484 0.73000002 4289894531
-0.097282 0.1481484 0.73000002 4290881426
-0.096010342 0.1481484 0.73000002 4290752157
-0.094738677 0.1481484 0.73000002 4290752157
-0.093467019 0.1481484 0.73000002 4291341221
-0.092195362 0.1481484 0.73000002 4291735979
-0.090674594 0.14774252 0.72800004 4290357147
-0.089406416 0.14774252 0.72800004 4285685844
-0.088017173 0.14753957 0.72700006 4286667776
-0.086750738 0.14753957 0.72700006 4293247314
-0.085484304 0.14753957 0.72700006 4292789675
-0.084217876 0.14753957 0.72700006 4292460710
-0.082951441 0.14753957 0.72700006 4292329124
-0.081797361 0.14774252 0.72800004 4292329124
-0.080529191 0.14774252 0.72800004 4292329387
-0.10716088 0.1490107 0.72800004 4287460708
-0.1058927 0.1490107 0.72800004 4288118129
-0.10462453 0.1490107 0.72800004 4289171074
-0.10335636 0.1490107 0.72800004 4289959568
-0.10208818 0.1490107 0.72800004 4290683291
-0.10082 0.1490107 0.72800004 4290552209
-0.099551827 0.1490107 0.72800004 4290683795
-0.098553658 0.14942007 0.73000002 4290815881
-0.097282 0.14942007 0.73000002 4290947723
-0.096010342 0.14942007 0.73000002 4290947221
-0.094738677 0.14942007 0.73000002 4291144344
-0.093467019 0.14942007 0.73000002 4291538086
-0.091942772 0.1490107 0.72800004 4291998637
-0.090674594 0.1490107 0.72800004 4290817948
-0.089283615 0.14880602 0.72700006 4286607196
-0.088017173 0.14880602 0.72700006 4286012467
-0.086750738 0.14880602 0.72700006 4290157426
-0.085484304 0.14880602 0.72700006 4292656790
-0.084217876 0.14880602 0.72700006 4293183134
-0.082951441 0.14880602 0.72700006 4292723369
-0.081684999 0.14880602 0.72700006 4292591526
-0.080418572 0.14880602 0.72700006 4292460720
-0.10716088 0.15027888 0.72800004 4287725422
-0.1058927 0.15027888 0.72800004 4288840058
-0.10462453 0.15027888 0.72800004 4290024332
-0.10321438 0.15007246 0.72700006 4290222236
-0.10194796 0.15007246 0.72700006 4290682787
-0.10068152 0.15007246 0.72700006 4290486416
-0.099415079 0.15007246 0.72700006 4290881174
-0.098283648 0.15027888 0.72800004 4290685076
-0.097015478 0.15027888 0.72800004 4290619283
-0.095747299 0.15027888 0.72800004 4290750358
-0.094479121 0.15027888 0.72800004 4291408031
-0.093082912 0.15007246 0.72700006 4291801513
-0.091816477 0.15007246 0.72700006 4291998635
-0.090550043 0.15007246 0.72700006 4291409063
-0.089283615 0.15007246 0.72700006 4286671967
-0.087775029 0.14965959 0.72500002 4283514368
-0.086512081 0.14965959 0.72500002 4288448825
-0.085249133 0.14965959 0.72500002 4291472530
-0.083986185 0.14965959 0.72500002 4293314734
-0.082723238 0.14965959 0.72500002 4292986286
-0.081460282 0.14965959 0.72500002 4292591529
-0.080197334 0.14965959 0.72500002 4292394929
-0.079152137 0.15007246 0.72700006 4292592308
-0.10842906 0.15154704 0.72800004 4288448376
-0.10716088 0.15154704 0.72800004 4288514425
-0.1058927 0.15154704 0.72800004 4288644728
-0.10462453 0.15154704 0.72800004 4289433987
-0.10321438 0.15133889 0.72700006 4289959572
-0.10194796 0.15133889 0.72700006 4290551710
-0.10068152 0.15133889 0.72700006 4290551693
-0.099415079 0.15133889 0.72700006 4290880659
-0.098283648 0.15154704 0.72800004 4290749584
-0.096882217 0.15133889 0.72700006 4290223240
-0.095615782 0.15133889 0.72700006 4291011731
-0.094349347 0.15133889 0.72700006 4291800991
-0.093082912 0.15133889 0.72700006 4291340178
-0.091816477 0.15133889 0.72700006 4290813834
-0.090550043 0.15133889 0.72700006 4290553758
-0.089037985 0.15092254 0.72500002 4287198315
-0.087775029 0.15092254 0.72500002 4285750835
-0.086512081 0.15092254 0.72500002 4287922261
-0.085249133 0.15092254 0.72500002 4290749824
-0.083986185 0.15092254 0.72500002 4293118373
-0.082723238 0.15092254 0.72500002 4292985769
-0.081460282 0.15092254 0.72500002 4292525218
-0.080197334 0.15092254 0.72500002 4292525481
-0.078934379 0.15092254 0.72500002 4292591275
-0.077671431 0.15092254 0.72500002 4292395962
-0.10954656 0.15260532 0.72700006 4288315765
-0.10828012 0.15260532 0.72700006 4288579705
-0.10701369 0.15260532 0.72700006 4288447862
-0.10574725 0.15260532 0.72700006 4288644726
-0.10448082 0.15260532 0.72700006 4289960585
-0.10321438 0.15260532 0.72700006 4289829779
-0.10194796 0.15260532 0.72700006 4290356123
-0.10040453 0.15218548 0.72500002 4290683279
-0.099141583 0.15218548 0.72500002 4290814866
-0.098148644 0.15260532 0.72700006 4290814868
-0.096882217 0.15260532 0.72700006 4290485646
-0.095615782 0.15260532 0.72700006 4290945423
-0.094349347 0.15260532 0.72700006 4291340180
-0.093082912 0.15260532 0.72700006 4290550926
-0.091816477 0.15260532 0.72700006 4290353546
-0.090300933 0.15218548 0.72500002 4290356895
-0.089037985 0.15218548 0.72500002 4288383105
-0.087775029 0.15218548 0.72500002 4287324489
-0.086512081 0.15218548 0.72500002 4286995780
-0.085249133 0.15218548 0.72500002 4290743399
-0.083870344 0.15197559 0.72400004 4293769876
-0.082609132 0.15197559 0.72400004 4292591275
-0.081460282 0.15218548 0.72500002 4292262566
-0.080197334 0.15218548 0.72500002 4292394667
-0.078934379 0.15218548 0.72500002 4292460461
-0.077564299 0.15197559 0.72400004 4292329652
-0.11303404 0.15344843 0.72500002 4287659114
-0.11177108 0.15344843 0.72500002 4288119665
-0.11081299 0.15387174 0.72700006 4288316026
-0.10954656 0.15387174 0.72700006 4288381819
-0.10828012 0.15387174 0.72700006 4288382575
-0.10701369 0.15387174 0.72700006 4288250733
-0.10574725 0.15387174 0.72700006 4288841841
-0.10448082 0.15387174 0.72700006 4290289287
-0.10293043 0.15344843 0.72500002 4290618520
-0.10166749 0.15344843 0.72500002 4290947228
-0.10026605 0.15323679 0.72400004 4290815379
-0.099004842 0.15323679 0.72400004 4290683793
-0.097878627 0.15344843 0.72500002 4290683541
-0.096615687 0.15344843 0.72500002 4290486418
-0.095352739 0.15344843 0.72500002 4290683016
-0.094089784 0.15344843 0.72500002 4291011981
-0.092826836 0.15344843 0.72500002 4290551710
-0.09156388 0.15344843 0.72500002 4290354330
-0.090300933 0.15344843 0.72500002 4290619551
-0.089037985 0.15344843 0.72500002 4290356123
-0.087775029 0.15344843 0.72500002 4286934155
-0.086512081 0.15344843 0.72500002 4285025902
-0.085249133 0.15344843 0.72500002 4288183393
-0.083870344 0.15323679 0.72400004 4292394145
-0.082609132 0.15323679 0.72400004 4292591275
-0.081347927 0.15323679 0.72400004 4292130724
-0.080086716 0.15323679 0.72400004 4292197032
-0.078934379 0.15344843 0.72500002 4292262825
-0.077564299 0.15323679 0.72400004 4292264111
-0.11885493 0.15407121 0.72200006 4285029945
-0.11759721 0.15407121 0.72200006 4285815113
-0.11633948 0.15407121 0.72200006 4287262559
-0.11540055 0.154498 0.72400004 4287789419
-0.11413933 0.154498 0.72400004 4288513141
-0.11303404 0.15471138 0.72500002 4288448116
-0.11177108 0.15471138 0.72500002 4288316530
-0.11050814 0.15471138 0.72500002 4288316024
-0.10924518 0.15471138 0.72500002 4288382073
-0.10798224 0.15471138 0.72500002 4288578934
-0.10671929 0.15471138 0.72500002 4288381556
-0.10545634 0.15471138 0.72500002 4289038968
-0.10419339 0.15471138 0.72500002 4290289035
-0.10278846 0.154498 0.72400004 4290421909
-0.10152725 0.154498 0.72400004 4290684824
-0.10026605 0.154498 0.72400004 4290619031
-0.099004842 0.154498 0.72400004 4290553238
-0.09774363 0.154498 0.72400004 4290683289
-0.096482418 0.154498 0.72400004 4290486166
-0.095221214 0.154498 0.72400004 4290683279
-0.09396001 0.154498 0.72400004 4291143830
-0.092826836 0.15471138 0.72500002 4290947230
-0.09156388 0.15471138 0.72500002 4290552473
-0.090300933 0.15471138 0.72500002 4291144092
-0.089037985 0.15471138 0.72500002 4291604643
-0.087775029 0.15471138 0.72500002 4288055950
-0.086512081 0.15471138 0.72500002 4283384647
-0.085131548 0.154498 0.72400004 4287789056
-0.083870344 0.154498 0.72400004 4293118020
-0.082609132 0.154498 0.72400004 4292460211
-0.081347927 0.154498 0.72400004 4292130989
-0.080086716 0.154498 0.72400004 4291803560
-0.078825511 0.154498 0.72400004 4292000682
-0.077350035 0.15407121 0.72200006 4292198579
-0.075986922 0.15385781 0.72100002 4291803821
-0.12245826 0.15511379 0.72100002 4290746006
-0.12120227 0.15511379 0.72100002 4285811531
-0.11994629 0.15511379 0.72100002 4284959232
-0.11885493 0.15532893 0.72200006 4286143744
-0.11759721 0.15532893 0.72200006 4287198315
-0.11633948 0.15532893 0.72200006 4288053368
-0.11540055 0.1557592 0.72400004 4288382323
-0.11413933 0.1557592 0.72400004 4288711032
-0.11287813 0.1557592 0.72400004 4288776568
-0.11161692 0.1557592 0.72400004 4288842361
-0.11035571 0.1557592 0.72400004 4288972936
-0.10909451 0.1557592 0.72400004 4288775814
-0.1078333 0.1557592 0.72400004 4288513406
-0.10657208 0.1557592 0.72400004 4288053111
-0.10531088 0.1557592 0.72400004 4288907130
-0.10404968 0.1557592 0.72400004 4289960074
-0.10278846 0.1557592 0.72400004 4290552193
-0.10152725 0.1557592 0.72400004 4291078537
-0.099989071 0.15532893 0.72200006 4290750108
-0.098731354 0.15532893 0.72200006 4290684059
-0.09774363 0.1557592 0.72400004 4290618270
-0.096482418 0.1557592 0.72400004 4290552221
-0.095221214 0.1557592 0.72400004 4290618268
-0.09396001 0.1557592 0.72400004 4291078819
-0.092698805 0.1557592 0.72400004 4291013524
-0.091437586 0.1557592 0.72400004 4290553229
-0.090176381 0.1557592 0.72400004 4290815631
-0.088915177 0.1557592 0.72400004 4292065698
-0.087653965 0.1557592 0.72400004 4289044381
-0.086392753 0.1557592 0.72400004 4279833104
-0.085131548 0.1557592 0.72400004 4284039247
-0.083638661 0.15532893 0.72200006 4292131530
-0.082380936 0.15532893 0.72200006 4292854448
-0.08112321 0.15532893 0.72200006 4292262312
-0.079865485 0.15532893 0.72200006 4292131237
-0.07860776 0.15532893 0.72200006 4292131237
-0.077350035 0.15532893 0.72200006 4292263340
-0.075986922 0.15511379 0.72100002 4292263340
-0.1262262 0.15636978 0.72100002 4290154875
-0.12514356 0.15658666 0.72200006 4290348395
-0.12371424 0.15636978 0.72100002 4290479724
-0.12245826 0.15636978 0.72100002 4289756517
-0.12120227 0.15636978 0.72100002 4286072109
-0.11994629 0.15636978 0.72100002 4285612288
-0.11885493 0.15658666 0.72200006 4287586059
-0.11759721 0.15658666 0.72200006 4287919722
-0.11633948 0.15658666 0.72200006 4288643444
-0.11508176 0.15658666 0.72200006 4288448378
-0.11413933 0.15702042 0.72400004 4288514171
-0.11287813 0.15702042 0.72400004 4288776568
-0.11161692 0.15702042 0.72400004 4288973690
-0.11005087 0.15658666 0.72200006 4288908163
-0.10879315 0.15658666 0.72200006 4288710784
-0.10753542 0.15658666 0.72200006 4288513658
-0.1062777 0.15658666 0.72200006 4288382071
-0.10501997 0.15658666 0.72200006 4288841337
-0.10376225 0.15658666 0.72200006 4289499523
-0.10250452 0.15658666 0.72200006 4290289026
-0.1012468 0.15658666 0.72200006 4291078285
-0.099989071 0.15658666 0.72200006 4290880924
-0.098731354 0.15658666 0.72200006 4290880924
-0.097473629 0.15658666 0.72200006 4290880670
-0.096215904 0.15658666 0.72200006 4290880670
-0.094958179 0.15658666 0.72200006 4290684311
-0.093700454 0.15658666 0.72200006 4291013276
-0.092698805 0.15702042 0.72400004 4290948766
-0.091437586 0.15702042 0.72400004 4290751130
-0.089927278 0.15658666 0.72200006 4290619549
-0.088669553 0.15658666 0.72200006 4291409065
-0.087653965 0.15702042 0.72400004 4289766050
-0.086392753 0.15702042 0.72400004 4281936940
-0.085131548 0.15702042 0.72400004 4284427776
-0.083638661 0.15658666 0.72200006 4293178226
-0.082380936 0.15658666 0.72200006 4292065966
-0.08112321 0.15658666 0.72200006 4292000173
-0.079865485 0.15658666 0.72200006 4292065698
-0.078498878 0.15636978 0.72100002 4292065698
-0.077242896 0.15636978 0.72100002 4291802539
-0.075776137 0.15593602 0.71900004 4292131761
-0.074523643 0.15593602 0.71900004 4290620828
-0.12963356 0.15718852 0.71900004 4287584285
-0.12838106 0.15718852 0.71900004 4288176679
-0.12712857 0.15718852 0.71900004 4288374319
-0.1262262 0.15762576 0.72100002 4288506162
-0.12514356 0.15784438 0.72200006 4288833837
-0.12371424 0.15762576 0.72100002 4289294388
-0.12245826 0.15762576 0.72100002 4288771105
-0.12120227 0.15762576 0.72100002 4286862852
-0.12011266 0.15784438 0.72200006 4286272000
-0.11885493 0.15784438 0.72200006 4287522067
-0.11759721 0.15784438 0.72200006 4287723364
-0.11633948 0.15784438 0.72200006 4288907382
-0.11508176 0.15784438 0.72200006 4288777081
-0.11382403 0.15784438 0.72200006 4288579703
-0.11256631 0.15784438 0.72200006 4288776314
-0.11130859 0.15784438 0.72200006 4288776314
-0.11005087 0.15784438 0.72200006 4288972673
-0.10879315 0.15784438 0.72200006 4288906880
-0.10753542 0.15784438 0.72200006 4288908667
-0.1062777 0.15784438 0.72200006 4288974461
-0.10501997 0.15784438 0.72200006 4289104515
-0.10361852 0.15762576 0.72100002 4289104515
-0.1020786 0.15718852 0.71900004 4290025084
-0.10082611 0.15718852 0.71900004 4291143821
-0.099573605 0.15718852 0.71900004 4291275680
-0.098321103 0.15718852 0.71900004 4291736231
-0.097338617 0.15762576 0.72100002 4291473829
-0.096082635 0.15762576 0.72100002 4291210657
-0.094826646 0.15762576 0.72100002 4291144092
-0.093700454 0.15784438 0.72200006 4291144092
-0.092442729 0.15784438 0.72200006 4291209885
-0.091185004 0.15784438 0.72200006 4291736229
-0.089927278 0.15784438 0.72200006 4291671206
-0.088669553 0.15784438 0.72200006 4291539620
-0.087411828 0.15784438 0.72200006 4290226590
-0.086154111 0.15784438 0.72200006 4284239170
-0.084896386 0.15784438 0.72200006 4284496646
-0.083522812 0.15762576 0.72100002 4290286686
-0.08226683 0.15762576 0.72100002 4292130196
-0.081010848 0.15762576 0.72100002 4292195989
-0.079754867 0.15762576 0.72100002 4291802776
-0.078498878 0.15762576 0.72100002 4291868569
-0.077242896 0.15762576 0.72100002 4291802276
-0.075776137 0.15718852 0.71900004 4291868069
-0.074523643 0.15718852 0.71900004 4290489750
-0.13195477 0.15822065 0.71800005 4286861832
-0.13088606 0.15844102 0.71900004 4287322383
-0.12963356 0.15844102 0.71900004 4287650584
-0.12838106 0.15844102 0.71900004 4288176929
-0.12748219 0.15888174 0.72100002 4288440114
-0.1262262 0.15888174 0.72100002 4288703286
-0.12497022 0.15888174 0.72100002 4288968007
-0.12371424 0.15888174 0.72100002 4288309821
-0.12245826 0.15888174 0.72100002 4288112178
-0.12120227 0.15888174 0.72100002 4287256869
-0.11994629 0.15888174 0.72100002 4286140416
-0.11885493 0.15910211 0.72200006 4286337536
-0.11743432 0.15888174 0.72100002 4287984470
-0.11617835 0.15888174 0.72100002 4289366123
-0.11508176 0.15910211 0.72200006 4288776827
-0.11382403 0.15910211 0.72200006 4288776827
-0.11256631 0.15910211 0.72200006 4288776314
-0.11130859 0.15910211 0.72200006 4288842107
-0.11005087 0.15910211 0.72200006 4288841857
-0.10864245 0.15888174 0.72100002 4288841857
-0.10738647 0.15888174 0.72100002 4289237126
-0.10583609 0.15844102 0.71900004 4288974211
-0.10458359 0.15844102 0.71900004 4288842370
-0.1033311 0.15844102 0.71900004 4288579455
-0.10193663 0.15822065 0.71800005 4289958775
-0.10068587 0.15822065 0.71800005 4291340428
-0.099435121 0.15822065 0.71800005 4291144864
-0.098184355 0.15822065 0.71800005 4291407779
-0.097338617 0.15888174 0.72100002 4291211681
-0.096082635 0.15888174 0.72100002 4291080352
-0.094826646 0.15888174 0.72100002 4291079069
-0.093570665 0.15888174 0.72100002 4291079069
-0.092314683 0.15888174 0.72100002 4291275165
-0.091058709 0.15888174 0.72100002 4291933094
-0.08980272 0.15888174 0.72100002 4291934380
-0.088546738 0.15888174 0.72100002 4291934380
-0.087411828 0.15910211 0.72200006 4290556070
-0.086154111 0.15910211 0.72200006 4284174149
-0.084896386 0.15910211 0.72200006 4283507712
-0.083522812 0.15888174 0.72100002 4289691978
-0.08226683 0.15888174 0.72100002 4291275150
-0.081010848 0.15888174 0.72100002 4292196252
-0.079533629 0.15844102 0.71900004 4291868832
-0.078281134 0.15844102 0.71900004 4291671710
-0.077028632 0.15844102 0.71900004 4291473827
-0.075776137 0.15844102 0.71900004 4291868584
-0.074523643 0.15844102 0.71900004 4290882973
-0.13445629 0.15947141 0.71800005 4288115247
-0.13320553 0.15947141 0.71800005 4287917868
-0.13195477 0.15947141 0.71800005 4288245052
-0.13070402 0.15947141 0.71800005 4288245052
-0.12963356 0.15969352 0.71900004 4288441148
-0.12838106 0.15969352 0.71900004 4288638270
-0.12712857 0.15969352 0.71900004 4288836408
-0.12587607 0.15969352 0.71900004 4288967994
-0.12497022 0.16013773 0.72100002 4288770374
-0.12337106 0.15969352 0.71900004 4288046651
-0.12211856 0.15969352 0.71900004 4288178242
-0.12086608 0.15969352 0.71900004 4287717691
-0.11961357 0.15969352 0.71900004 4286010639
-0.1186903 0.16013773 0.72100002 4285615881
-0.11743432 0.16013773 0.72100002 4287460940
-0.11617835 0.16013773 0.72100002 4288974179
-0.11460359 0.15969352 0.71900004 4288842361
-0.11335108 0.15969352 0.71900004 4288776568
-0.1124104 0.16013773 0.72100002 4289039222
-0.11115441 0.16013773 0.72100002 4289105015
-0.10989843 0.16013773 0.72100002 4288841859
-0.10834109 0.15969352 0.71900004 4288776066
-0.10708859 0.15969352 0.71900004 4288841857
-0.10583609 0.15969352 0.71900004 4288841857
-0.10458359 0.15969352 0.71900004 4288579455
-0.10318738 0.15947141 0.71800005 4288381819
-0.10193663 0.15947141 0.71800005 4288973177
-0.10068587 0.15947141 0.71800005 4290552209
-0.099435121 0.15947141 0.71800005 4291143830
-0.098184355 0.15947141 0.71800005 4291078037
-0.097068608 0.15969352 0.71900004 4291209624
-0.095816106 0.15969352 0.71900004 4291341210
-0.094563611 0.15969352 0.71900004 4291275930
-0.093311109 0.15969352 0.71900004 4291144344
-0.092314683 0.16013773 0.72100002 4291209372
-0.091058709 0.16013773 0.72100002 4291472543
-0.08980272 0.16013773 0.72100002 4291341977
-0.088546738 0.16013773 0.72100002 4291934114
-0.087290756 0.16013773 0.72100002 4290818213
-0.086034775 0.16013773 0.72100002 4286475619
-0.084778793 0.16013773 0.72100002 4286210304
-0.083291128 0.15969352 0.71900004 4287723796
-0.082038626 0.15969352 0.71900004 4290749545
-0.080786131 0.15969352 0.71900004 4292196991
-0.079533629 0.15969352 0.71900004 4291868319
-0.078172259 0.15947141 0.71800005 4291605147
-0.0769215 0.15947141 0.71800005 4291408020
-0.075670749 0.15947141 0.71800005 4291605143
-0.074419998 0.15947141 0.71800005 4290817698
-0.13695779 0.16072217 0.71800005 4288768564
-0.13570705 0.16072217 0.71800005 4289229115
-0.13445629 0.16072217 0.71800005 4288771142
-0.13320553 0.16072217 0.71800005 4288507969
-0.13195477 0.16072217 0.71800005 4288573259
-0.13070402 0.16072217 0.71800005 4288310343
-0.12963356 0.16094601 0.71900004 4288243263
-0.12838106 0.16094601 0.71900004 4288440898
-0.12712857 0.16094601 0.71900004 4288836158
-0.12587607 0.16094601 0.71900004 4288901951
-0.12462357 0.16094601 0.71900004 4288639045
-0.12337106 0.16094601 0.71900004 4288046651
-0.12211856 0.16094601 0.71900004 4288374851
-0.12069797 0.16072217 0.71800005 4288572229
-0.11944722 0.16072217 0.71800005 4286602010
-0.11819646 0.16072217 0.71800005 4285680908
-0.1169457 0.16072217 0.71800005 4287461187
-0.11569495 0.16072217 0.71800005 4289106269
-0.11444419 0.16072217 0.71800005 4288776566
-0.11335108 0.16094601 0.71900004 4288776566
-0.11209858 0.16094601 0.71900004 4288908667
-0.11084609 0.16094601 0.71900004 4288974461
-0.10959359 0.16094601 0.71900004 4288776064
-0.10834109 0.16094601 0.71900004 4288776064
-0.10708859 0.16094601 0.71900004 4288711036
-0.1056889 0.16072217 0.71800005 4288711036
-0.10443814 0.16072217 0.71800005 4288514423
-0.10318738 0.16072217 0.71800005 4288185458
-0.10193663 0.16072217 0.71800005 4288711025
-0.10068587 0.16072217 0.71800005 4290224264
-0.099435121 0.16072217 0.71800005 4290749336
-0.098184355 0.16072217 0.71800005 4291209887
-0.097068608 0.16094601 0.71900004 4291275417
-0.095816106 0.16094601 0.71900004 4291341210
-0.094563611 0.16094601 0.71900004 4291340962
-0.093311109 0.16094601 0.71900004 4291275169
-0.092058614 0.16094601 0.71900004 4291209372
-0.090806112 0.16094601 0.71900004 4291143578
-0.089429073 0.16072217 0.71800005 4291209626
-0.088178307 0.16072217 0.71800005 4291604383
-0.086927556 0.16072217 0.71800005 4290948514
-0.085676797 0.16072217 0.71800005 4287198313
-0.084426045 0.16072217 0.71800005 4287326235
-0.083175287 0.16072217 0.71800005 4288444460
-0.081924528 0.16072217 0.71800005 4290089343
-0.080673777 0.16072217 0.71800005 4292326305
-0.079201773 0.16027448 0.71600002 4291868069
-0.077954508 0.16027448 0.71600002 4291407518
-0.076707236 0.16027448 0.71600002 4291144344
-0.075459965 0.16027448 0.71600002 4291473565
-0.074419998 0.16072217 0.71800005 4290882721
-0.14281265 0.16152173 0.71600002 4288047657
-0.14156538 0.16152173 0.71600002 4288179227
-0.14031811 0.16152173 0.71600002 4288179227
-0.13907084 0.16152173 0.71600002 4288373817
-0.13782357 0.16152173 0.71600002 4288373817
-0.13657629 0.16152173 0.71600002 4288440628
-0.13532902 0.16152173 0.71600002 4288506421
-0.13408175 0.16152173 0.71600002 4287848257
-0.13320553 0.16197293 0.71800005 4287782464
-0.13195477 0.16197293 0.71800005 4287586102
-0.13070402 0.16197293 0.71800005 4287388723
-0.12945326 0.16197293 0.71800005 4287715655
-0.12820251 0.16197293 0.71800005 4288439122
-0.12712857 0.16219851 0.71900004 4288703804
-0.12587607 0.16219851 0.71900004 4288966720
-0.12462357 0.16219851 0.71900004 4288836167
-0.12319949 0.16197293 0.71800005 4288967753
-0.12194873 0.16197293 0.71800005 4288771142
-0.12069797 0.16197293 0.71800005 4288376640
-0.11944722 0.16197293 0.71800005 4286733355
-0.11819646 0.16197293 0.71800005 4284956945
-0.1169457 0.16197293 0.71800005 4286736176
-0.11569495 0.16197293 0.71800005 4289762398
-0.11444419 0.16197293 0.71800005 4289103980
-0.11319343 0.16197293 0.71800005 4288643429
-0.11194267 0.16197293 0.71800005 4288512887
-0.11069192 0.16197293 0.71800005 4288644474
-0.10944116 0.16197293 0.71800005 4288644474
-0.10819041 0.16197293 0.71800005 4288710523
-0.10693965 0.16197293 0.71800005 4288710523
-0.1056889 0.16197293 0.71800005 4288710523
-0.10443814 0.16197293 0.71800005 4288513908
-0.10318738 0.16197293 0.71800005 4288513908
-0.10193663 0.16197293 0.71800005 4288907384
-0.1004054 0.16152173 0.71600002 4290025865
-0.099158131 0.16152173 0.71600002 4291077272
-0.097910859 0.16152173 0.71600002 4291800739
-0.096933603 0.16197293 0.71800005 4291341212
-0.095682852 0.16197293 0.71800005 4291209626
-0.094432093 0.16197293 0.71800005 4291274917
-0.093181334 0.16197293 0.71800005 4291209124
-0.091930576 0.16197293 0.71800005 4291143578
-0.090679824 0.16197293 0.71800005 4291143578
-0.089429073 0.16197293 0.71800005 4290946969
-0.088178307 0.16197293 0.71800005 4291275678
-0.086927556 0.16197293 0.71800005 4290948766
-0.085676797 0.16197293 0.71800005 4288580218
-0.084426045 0.16197293 0.71800005 4287922035
-0.082943596 0.16152173 0.71600002 4289435275
-0.081696324 0.16152173 0.71600002 4290091681
-0.080673777 0.16197293 0.71800005 4291670969
-0.079201773 0.16152173 0.71600002 4291605147
-0.077845633 0.16129616 0.71500003 4291013266
-0.076600105 0.16129616 0.71500003 4291144344
-0.075459965 0.16152173 0.71600002 4291604895
-0.074212693 0.16152173 0.71600002 4290948512
-0.072965421 0.16152173 0.71600002 4287198311
-0.14884086 0.16254167 0.71500003 4286664217
-0.14759532 0.16254167 0.71500003 4286664217
-0.14655448 0.16276902 0.71600002 4287190031
-0.1453072 0.16276902 0.71600002 4287782169
-0.14281265 0.16276902 0.71600002 4288178746
-0.14156538 0.16276902 0.71600002 4288111654
-0.14031811 0.16276902 0.71600002 4288242983
-0.13907084 0.16276902 0.71600002 4287782964
-0.13782357 0.16276902 0.71600002 4288243514
-0.13657629 0.16276902 0.71600002 4288178744
-0.13532902 0.16276902 0.71600002 4287652399
-0.13408175 0.16276902 0.71600002 4287716655
-0.13283448 0.16276902 0.71600002 4287650862
-0.13195477 0.16322368 0.71800005 4287454253
-0.13070402 0.16322368 0.71800005 4287256617
-0.12945326 0.16322368 0.71800005 4287650599
-0.12820251 0.16322368 0.71800005 4288440114
-0.12695175 0.16322368 0.71800005 4288899119
-0.125701 0.16322368 0.71800005 4289359670
-0.12445024 0.16322368 0.71800005 4289098058
-0.12319949 0.16322368 0.71800005 4289229900
-0.12194873 0.16322368 0.71800005 4288901960
-0.12069797 0.16322368 0.71800005 4288309823
-0.11911448 0.16276902 0.71600002 4286996782
-0.11786722 0.16276902 0.71600002 4285615129
-0.11661994 0.16276902 0.71600002 4286207232
-0.11537267 0.16276902 0.71600002 4289496868
-0.11412539 0.16276902 0.71600002 4288775021
-0.11319343 0.16322368 0.71800005 4288511592
-0.11194267 0.16322368 0.71800005 4288512626
-0.11069192 0.16322368 0.71800005 4288644212
-0.10944116 0.16322368 0.71800005 4288644474
-0.10819041 0.16322368 0.71800005 4288710523
-0.10693965 0.16322368 0.71800005 4288711036
-0.1056889 0.16322368 0.71800005 4288711036
-0.10414723 0.16276902 0.71600002 4288776568
-0.10289995 0.16276902 0.71600002 4288776568
-0.10165267 0.16276902 0.71600002 4289103482
-0.1004054 0.16276902 0.71600002 4290221963
-0.099158131 0.16276902 0.71600002 4290748825
-0.097910859 0.16276902 0.71600002 4291472291
-0.096663587 0.16276902 0.71600002 4291209624
-0.095416315 0.16276902 0.71600002 4291078037
-0.094169043 0.16276902 0.71600002 4291012513
-0.092921779 0.16276902 0.71600002 4291143842
-0.091674507 0.16276902 0.71600002 4291143840
-0.090427227 0.16276902 0.71600002 4291012510
-0.089179955 0.16276902 0.71600002 4291012764
-0.087932684 0.16276902 0.71600002 4291275680
-0.086685412 0.16276902 0.71600002 4290817696
-0.08543814 0.16276902 0.71600002 4288712319
-0.084073283 0.16254167 0.71500003 4288248938
-0.082827754 0.16254167 0.71500003 4289170040
-0.081582218 0.16254167 0.71500003 4290749071
-0.08033669 0.16254167 0.71500003 4291736222
-0.079091169 0.16254167 0.71500003 4291210655
-0.077845633 0.16254167 0.71500003 4291013276
-0.076600105 0.16254167 0.71500003 4291079071
-0.075354576 0.16254167 0.71500003 4291473829
-0.074109048 0.16254167 0.71500003 4291014561
-0.072863512 0.16254167 0.71500003 4287198311
-0.1533927 0.16332906 0.71300006 4286599428
-0.15215066 0.16332906 0.71300006 4286138880
-0.15090862 0.16332906 0.71300006 4286402848
-0.14966656 0.16332906 0.71300006 4286731557
-0.14842452 0.16332906 0.71300006 4287126555
-0.14759532 0.16378722 0.71500003 4287587106
-0.14655448 0.16401628 0.71600002 4287454514
-0.1453072 0.16401628 0.71600002 4287125549
-0.14405994 0.16401628 0.71600002 4287387454
-0.14281265 0.16401628 0.71600002 4287255867
-0.14136767 0.16378722 0.71500003 4287584789
-0.14012213 0.16378722 0.71500003 4287782169
-0.13887662 0.16378722 0.71500003 4287848507
-0.13763109 0.16378722 0.71500003 4288309058
-0.13638555 0.16378722 0.71500003 4288047668
-0.13514003 0.16378722 0.71500003 4287389995
-0.13389449 0.16378722 0.71500003 4287520570
-0.13283448 0.16401628 0.71600002 4287323448
-0.13158721 0.16401628 0.71600002 4287650851
-0.13070402 0.16447444 0.71800005 4287848229
-0.12945326 0.16447444 0.71800005 4288768564
-0.12820251 0.16447444 0.71800005 4289492286
-0.12695175 0.16447444 0.71800005 4289032256
-0.12535085 0.16401628 0.71600002 4289360964
-0.12410358 0.16401628 0.71600002 4289361230
-0.1228563 0.16401628 0.71600002 4289229900
-0.12160904 0.16401628 0.71600002 4288902464
-0.12036176 0.16401628 0.71600002 4287849520
-0.11911448 0.16401628 0.71600002 4287456059
-0.11786722 0.16401628 0.71600002 4286732592
-0.11661994 0.16401628 0.71600002 4286338304
-0.11537267 0.16401628 0.71600002 4288048913
-0.11412539 0.16401628 0.71600002 4287985769
-0.11287813 0.16401628 0.71600002 4288512113
-0.11163085 0.16401628 0.71600002 4288315763
-0.11038358 0.16401628 0.71600002 4288249970
-0.10913631 0.16401628 0.71600002 4288249979
-0.10788904 0.16401628 0.71600002 4288513408
-0.10664177 0.16401628 0.71600002 4288842111
-0.1053945 0.16401628 0.71600002 4288973440
-0.10414723 0.16401628 0.71600002 4288842620
-0.10289995 0.16401628 0.71600002 4289040256
-0.10165267 0.16401628 0.71600002 4289105279
-0.1004054 0.16401628 0.71600002 4289433987
-0.099158131 0.16401628 0.71600002 4290288776
-0.097910859 0.16401628 0.71600002 4290288776
-0.096663587 0.16401628 0.71600002 4290551430
-0.095283054 0.16378722 0.71500003 4290683016
-0.094037525 0.16378722 0.71500003 4290881176
-0.092791997 0.16378722 0.71500003 4290946969
-0.091546461 0.16378722 0.71500003 4291077785
-0.090300933 0.16378722 0.71500003 4290683027
-0.089055404 0.16378722 0.71500003 4290684313
-0.087809876 0.16378722 0.71500003 4291013278
-0.08656434 0.16378722 0.71500003 4290817176
-0.085318811 0.16378722 0.71500003 4289567365
-0.083838113 0.16332906 0.71300006 4288381569
-0.082596071 0.16332906 0.71300006 4288052605
-0.081354022 0.16332906 0.71300006 4289762668
-0.080111973 0.16332906 0.71300006 4291275650
-0.078869931 0.16332906 0.71300006 4291077783
-0.07762789 0.16332906 0.71300006 4290749075
-0.076385841 0.16332906 0.71300006 4290749334
-0.075143799 0.16332906 0.71300006 4291209885
-0.074109048 0.16378722 0.71500003 4290881435
-0.072863512 0.16378722 0.71500003 4287328870
-0.15711884 0.16457112 0.71300006 4286540119
-0.1558768 0.16457112 0.71300006 4286664247
-0.15463476 0.16457112 0.71300006 4286006316
-0.1533927 0.16457112 0.71300006 4286728715
-0.15215066 0.16457112 0.71300006 4286991887
-0.15090862 0.16457112 0.71300006 4287190048
-0.14966656 0.16457112 0.71300006 4287584806
-0.14842452 0.16457112 0.71300006 4287782952
-0.14718248 0.16457112 0.71300006 4287782952
-0.1453072 0.16526355 0.71600002 4286863147
-0.14201482 0.1643403 0.71200001 4287322161
-0.14077452 0.1643403 0.71200001 4287649828
-0.13953421 0.1643403 0.71200001 4287847464
-0.13829391 0.1643403 0.71200001 4287980345
-0.13705361 0.1643403 0.71200001 4288243517
-0.13581331 0.1643403 0.71200001 4287587890
-0.134573 0.1643403 0.71200001 4287127339
-0.13389449 0.16503274 0.71500003 4287060523
-0.13264896 0.16503274 0.71500003 4287192110
-0.13158721 0.16526355 0.71600002 4287978784
-0.13033994 0.16526355 0.71600002 4288570921
-0.12909266 0.16526355 0.71600002 4289360453
-0.12784539 0.16526355 0.71600002 4289360453
-0.12659812 0.16526355 0.71600002 4289097277
-0.12535085 0.16526355 0.71600002 4289294912
-0.12410358 0.16526355 0.71600002 4289164103
-0.1228563 0.16526355 0.71600002 4289229896
-0.12160904 0.16526355 0.71600002 4289164607
-0.12036176 0.16526355 0.71600002 4288901179
-0.11911448 0.16526355 0.71600002 4288310577
-0.11786722 0.16526355 0.71600002 4287258146
-0.11661994 0.16526355 0.71600002 4286797568
-0.11537267 0.16526355 0.71600002 4287126528
-0.11412539 0.16526355 0.71600002 4287786841
-0.11272048 0.16503274 0.71500003 4288839529
-0.11147495 0.16503274 0.71500003 4288250485
-0.11038358 0.16526355 0.71600002 4287921520
-0.10913631 0.16526355 0.71600002 4287790704
-0.10773836 0.16503274 0.71500003 4288579964
-0.10649282 0.16503274 0.71500003 4289040013
-0.1052473 0.16503274 0.71500003 4288974220
-0.10414723 0.16526355 0.71600002 4288908417
-0.10289995 0.16526355 0.71600002 4289040004
-0.10165267 0.16526355 0.71600002 4289040256
-0.1004054 0.16526355 0.71600002 4289171585
-0.099019647 0.16503274 0.71500003 4289040004
-0.097774118 0.16503274 0.71500003 4289434762
-0.096528582 0.16503274 0.71500003 4289632136
-0.095283054 0.16503274 0.71500003 4290092687
-0.094037525 0.16503274 0.71500003 4290354576
-0.092791997 0.16503274 0.71500003 4290881176
-0.091290399 0.16457112 0.71300006 4290750106
-0.09004835 0.16457112 0.71300006 4290486677
-0.088806301 0.16457112 0.71300006 4290485898
-0.087564252 0.16457112 0.71300006 4290617484
-0.086322211 0.16457112 0.71300006 4290553240
-0.085080162 0.16457112 0.71300006 4289829517
-0.083838113 0.16457112 0.71300006 4289040256
-0.082596071 0.16457112 0.71300006 4288119154
-0.081354022 0.16457112 0.71300006 4288972897
-0.080111973 0.16457112 0.71300006 4290815101
-0.078869931 0.16457112 0.71300006 4290683029
-0.07762789 0.16457112 0.71300006 4290485394
-0.076385841 0.16457112 0.71300006 4290683281
-0.075143799 0.16457112 0.71300006 4291275419
-0.07390175 0.16457112 0.71300006 4290618520
-0.072659701 0.16457112 0.71300006 4286670683
-0.16185968 0.1655806 0.71200001 4291010143
-0.15836088 0.16581316 0.71300006 4286336038
-0.15711884 0.16581316 0.71300006 4286796589
-0.1558768 0.16581316 0.71300006 4287191860
-0.15463476 0.16581316 0.71300006 4287520568
-0.1533927 0.16581316 0.71300006 4287717691
-0.15193725 0.1655806 0.71200001 4287651898
-0.15069695 0.1655806 0.71200001 4287652148
-0.14945665 0.1655806 0.71200001 4287520561
-0.14842452 0.16581316 0.71300006 4287454503
-0.14697604 0.1655806 0.71200001 4287520296
-0.14573574 0.1655806 0.71200001 4287323961
-0.14449543 0.1655806 0.71200001 4287258168
-0.14325511 0.1655806 0.71200001 4287323448
-0.14201482 0.1655806 0.71200001 4287586364
-0.14077452 0.1655806 0.71200001 4287782462
-0.13953421 0.1655806 0.71200001 4287716668
-0.13829391 0.1655806 0.71200001 4287782714
-0.13705361 0.1655806 0.71200001 4288111678
-0.13581331 0.1655806 0.71200001 4287915065
-0.134573 0.1655806 0.71200001 4287849272
-0.13333268 0.1655806 0.71200001 4287915587
-0.13209239 0.1655806 0.71200001 4288178503
-0.13103586 0.16581316 0.71300006 4288702256
-0.12979382 0.16581316 0.71300006 4289097013
-0.12855178 0.16581316 0.71300006 4289163310
-0.12766685 0.16627827 0.71500003 4289623861
-0.1264213 0.16627827 0.71500003 4289426480
-0.12482565 0.16581316 0.71300006 4289097515
-0.12358359 0.16581316 0.71300006 4289359681
-0.12268472 0.16627827 0.71500003 4289425474
-0.12143919 0.16627827 0.71500003 4289492536
-0.11985745 0.16581316 0.71300006 4289361207
-0.11861541 0.16581316 0.71300006 4288639513
-0.11737335 0.16581316 0.71300006 4287126274
-0.11645707 0.16627827 0.71500003 4286731779
-0.11521154 0.16627827 0.71500003 4286995208
-0.113966 0.16627827 0.71500003 4287394393
-0.11272048 0.16627827 0.71500003 4288578923
-0.11147495 0.16627827 0.71500003 4288842872
-0.11022942 0.16627827 0.71500003 4288777079
-0.10898389 0.16627827 0.71500003 4288973690
-0.10773836 0.16627827 0.71500003 4289237119
-0.10649282 0.16627827 0.71500003 4289763724
-0.1052473 0.16627827 0.71500003 4289763724
-0.10414723 0.16651084 0.71600002 4288908417
-0.10289995 0.16651084 0.71600002 4288776575
-0.10122676 0.16581316 0.71300006 4288908665
-0.099984713 0.16581316 0.71300006 4288711286
-0.099019647 0.16627827 0.71500003 4288644478
-0.097774118 0.16627827 0.71500003 4288644478
-0.096528582 0.16627827 0.71500003 4289171324
-0.095283054 0.16627827 0.71500003 4289302910
-0.094037525 0.16627827 0.71500003 4289630587
-0.092532441 0.16581316 0.71300006 4289696636
-0.091290399 0.16581316 0.71300006 4289761414
-0.09004835 0.16581316 0.71300006 4289695621
-0.088806301 0.16581316 0.71300006 4289893495
-0.087564252 0.16581316 0.71300006 4290683268
-0.086201139 0.1655806 0.71200001 4290552711
-0.084960826 0.1655806 0.71200001 4289960574
-0.083720528 0.1655806 0.71200001 4288712054
-0.082480222 0.1655806 0.71200001 4286804057
-0.081239916 0.1655806 0.71200001 4287790202
-0.080111973 0.16581316 0.71300006 4289829529
-0.078759313 0.1655806 0.71200001 4290485648
-0.077519007 0.1655806 0.71200001 4290617234
-0.076278701 0.1655806 0.71200001 4290815116
-0.075143799 0.16581316 0.71300006 4291341716
-0.07390175 0.16581316 0.71300006 4290290581
-0.072659701 0.16581316 0.71300006 4285487949
-0.07141766 0.16581316 0.71300006 4285223176
-0.16387866 0.1663523 0.71000004 4285752152
-0.16264185 0.1663523 0.71000004 4287583744
-0.16185968 0.1668209 0.71200001 4289228826
-0.16061938 0.1668209 0.71200001 4290874499
-0.15960293 0.1670552 0.71300006 4287650642
-0.15836088 0.1670552 0.71300006 4287058434
-0.15711884 0.1670552 0.71300006 4287782157
-0.15565817 0.1668209 0.71200001 4287782714
-0.15441787 0.1668209 0.71200001 4287848507
-0.15317756 0.1668209 0.71200001 4287717439
-0.15193725 0.1668209 0.71200001 4287717439
-0.15069695 0.1668209 0.71200001 4287651646
-0.14945665 0.1668209 0.71200001 4287454266
-0.14821634 0.1668209 0.71200001 4287060260
-0.14697604 0.1668209 0.71200001 4287257640
-0.14532636 0.1663523 0.71000004 4287388971
-0.14408955 0.1663523 0.71000004 4287388971
-0.14285272 0.1663523 0.71000004 4287388710
-0.14161591 0.1663523 0.71000004 4287717674
-0.14037909 0.1663523 0.71000004 4287652148
-0.13914227 0.1663523 0.71000004 4287849270
-0.13790543 0.1663523 0.71000004 4288047407
-0.13666862 0.1663523 0.71000004 4288573751
-0.1354318 0.1663523 0.71000004 4288640591
-0.13419499 0.1663523 0.71000004 4288640591
-0.13295817 0.1663523 0.71000004 4288572746
-0.13209239 0.1668209 0.71200001 4288441159
-0.13085209 0.1668209 0.71200001 4288964923
-0.12979382 0.1670552 0.71300006 4289030972
-0.12855178 0.1670552 0.71300006 4289162036
-0.12730972 0.1670552 0.71300006 4289622587
-0.12606768 0.1670552 0.71300006 4289360435
-0.12482565 0.1670552 0.71300006 4289163313
-0.12358359 0.1670552 0.71300006 4289424441
-0.12268472 0.1675238 0.71500003 4289753662
-0.12143919 0.1675238 0.71500003 4289887826
-0.11985745 0.1670552 0.71300006 4289229896
-0.11861541 0.1670552 0.71300006 4288771112
-0.11737335 0.1670552 0.71300006 4286863115
-0.11613131 0.1670552 0.71300006 4286074368
-0.11488927 0.1670552 0.71300006 4286995456
-0.11364722 0.1670552 0.71300006 4287460186
-0.11240518 0.1670552 0.71300006 4289105267
-0.11116314 0.1670552 0.71300006 4288777861
-0.10992109 0.1670552 0.71300006 4288843654
-0.10867904 0.1670552 0.71300006 4288974209
-0.10743699 0.1670552 0.71300006 4289040002
