# .PCD v0.7 - Point Cloud Data file format
VERSION 0.7
FIELDS x y z rgba
SIZE 4 4 4 4
TYPE F F F U
COUNT 1 1 1 1
WIDTH 1008
HEIGHT 1
VIEWPOINT 0 0 0 1 0 0 0
POINTS 1008
DATA ascii
-0.12060303 -0.048083559 0.90500003 4290288283
-0.11902651 -0.048083559 0.90500003 4291995794
-0.11745001 -0.048083559 0.90500003 4293509033
-0.11587349 -0.048083559 0.90500003 4292652484
-0.11429699 -0.048083559 0.90500003 4292257726
-0.11272048 -0.048083559 0.90500003 4291669391
-0.12217954 -0.046507049 0.90500003 4289037185
-0.12060303 -0.046507049 0.90500003 4290682266
-0.11902651 -0.046507049 0.90500003 4292717214
-0.11745001 -0.046507049 0.90500003 4293638316
-0.11587349 -0.046507049 0.90500003 4292652484
-0.11429699 -0.046507049 0.90500003 4292060346
-0.11272048 -0.046507049 0.90500003 4290289818
-0.11138959 -0.04660983 0.90700006 4287526512
-0.12375605 -0.04493054 0.90500003 4289302160
-0.12217954 -0.04493054 0.90500003 4289956490
-0.12060303 -0.04493054 0.90500003 4290548627
-0.11902651 -0.04493054 0.90500003 4291863413
-0.11745001 -0.04493054 0.90500003 4293179272
-0.11587349 -0.04493054 0.90500003 4292588206
-0.11429699 -0.04493054 0.90500003 4291272346
-0.11272048 -0.04493054 0.90500003 4289829781
-0.10980959 -0.045029838 0.90700006 4281539670
-0.12375605 -0.043354031 0.90500003 4290680227
-0.12217954 -0.043354031 0.90500003 4290417584
-0.12060303 -0.043354031 0.90500003 4290351791
-0.11902651 -0.043354031 0.90500003 4289824890
-0.11706068 -0.043210316 0.90200007 4291074957
-0.11548939 -0.043210316 0.90200007 4290880159
-0.1139181 -0.043210316 0.90200007 4291143331
-0.11234682 -0.043210316 0.90200007 4289370011
-0.11138959 -0.043449841 0.90700006 4282264367
-0.10822961 -0.043449841 0.90700006 4283177985
-0.12375605 -0.041777518 0.90500003 4293573849
-0.12217954 -0.041777518 0.90500003 4292850628
-0.12020324 -0.04163903 0.90200007 4291797940
-0.11863196 -0.04163903 0.90200007 4289759879
-0.11706068 -0.04163903 0.90200007 4285154369
-0.11548939 -0.04163903 0.90200007 4286272043
-0.1139181 -0.04163903 0.90200007 4288377163
-0.11234682 -0.04163903 0.90200007 4287263826
-0.11138959 -0.041869845 0.90700006 4281210880
-0.10822961 -0.041869845 0.90700006 4286339422
-0.12334581 -0.040067747 0.90200007 4293507781
-0.12177453 -0.040067747 0.90200007 4292981717
-0.11993672 -0.039978903 0.90000004 4291929029
-0.11836892 -0.039978903 0.90000004 4289172105
-0.11680111 -0.039978903 0.90000004 4283776823
-0.11523331 -0.039978903 0.90000004 4283050767
-0.1139181 -0.040067747 0.90200007 4284826921
-0.11234682 -0.040067747 0.90200007 4284632622
-0.11138959 -0.040289853 0.90700006 4282000902
-0.10980959 -0.040289853 0.90700006 4283181108
-0.10822961 -0.040289853 0.90700006 4287589239
-0.12307231 -0.038411103 0.90000004 4292981937
-0.12150451 -0.038411103 0.90000004 4292456636
-0.11993672 -0.038411103 0.90000004 4290219930
-0.11810587 -0.038325746 0.89800006 4289104734
-0.11654155 -0.038325746 0.89800006 4285288739
-0.11523331 -0.038411103 0.90000004 4283909708
-0.11366551 -0.038411103 0.90000004 4281277988
-0.11114396 -0.038624499 0.90500003 4283383613
-0.10956746 -0.038624499 0.90500003 4284367460
-0.10822961 -0.03870986 0.90700006 4287064717
-0.12436314 -0.036761429 0.89800006 4290220430
-0.12279882 -0.036761429 0.89800006 4292588978
-0.1212345 -0.036761429 0.89800006 4291933374
-0.11967019 -0.036761429 0.89800006 4288248966
-0.11810587 -0.036761429 0.89800006 4286671960
-0.11654155 -0.036761429 0.89800006 4284829756
-0.11497724 -0.036761429 0.89800006 4284171849
-0.11366551 -0.036843304 0.90000004 4280947992
-0.11209772 -0.036843304 0.90000004 4280423424
-0.11114396 -0.037047986 0.90500003 4284173607
-0.10956746 -0.037047986 0.90500003 4285880409
-0.12436314 -0.035197116 0.89800006 4290813071
-0.12279882 -0.035197116 0.89800006 4291141780
-0.1212345 -0.035197116 0.89800006 4290551691
-0.11967019 -0.035197116 0.89800006 4286998870
-0.11810587 -0.035197116 0.89800006 4286145861
-0.11654155 -0.035197116 0.89800006 4283843106
-0.11497724 -0.035197116 0.89800006 4282987600
-0.11366551 -0.035275504 0.90000004 4282395463
-0.11209772 -0.035275504 0.90000004 4283247930
-0.12394767 -0.033520438 0.89500004 4290945436
-0.12238857 -0.033520438 0.89500004 4290024334
-0.12082949 -0.033520438 0.89500004 4288251012
-0.11967019 -0.033632796 0.89800006 4286737773
-0.11810587 -0.033632796 0.89800006 4284964944
-0.11654155 -0.033632796 0.89800006 4282794032
-0.11497724 -0.033632796 0.89800006 4283248430
-0.11366551 -0.033707704 0.90000004 4284169532
-0.12394767 -0.031961352 0.89500004 4288511624
-0.12238857 -0.031961352 0.89500004 4286274662
-0.12082949 -0.031961352 0.89500004 4285881170
-0.11927041 -0.031961352 0.89500004 4286012756
-0.11771131 -0.031961352 0.89500004 4285948246
-0.11615222 -0.031961352 0.89500004 4284961351
-0.11497724 -0.03206848 0.89800006 4285881158
-0.11341292 -0.03206848 0.89800006 4287723362
-0.13071273 -0.030164476 0.88800007 4286408529
-0.12916583 -0.030164476 0.88800007 4287983718
-0.12394767 -0.03040226 0.89500004 4287522147
-0.12238857 -0.03040226 0.89500004 4285877578
-0.12082949 -0.03040226 0.89500004 4285224523
-0.11927041 -0.03040226 0.89500004 4285750867
-0.11771131 -0.03040226 0.89500004 4285749854
-0.11615222 -0.03040226 0.89500004 4285683805
-0.11497724 -0.030504167 0.89800006 4286470477
-0.11341292 -0.030504167 0.89800006 4288378730
-0.13659197 -0.028553125 0.88600004 4288508251
-0.13504857 -0.028553125 0.88600004 4288446318
-0.13350515 -0.028553125 0.88600004 4288775282
-0.13225962 -0.028617579 0.88800007 4289170572
-0.13071273 -0.028617579 0.88800007 4290420382
-0.12916583 -0.028617579 0.88800007 4290682768
-0.12761894 -0.028617579 0.88800007 4291077270
-0.12607205 -0.028617579 0.88800007 4289630871
-0.12494583 -0.028714262 0.89100003 4285288532
-0.12339371 -0.028714262 0.89100003 4283512403
-0.12211508 -0.028778717 0.89300007 4284104541
-0.12055948 -0.028778717 0.89300007 4284238148
-0.11927041 -0.028843168 0.89500004 4285093201
-0.11810587 -0.028939849 0.89800006 4286012506
-0.11654155 -0.028939849 0.89800006 4285617748
-0.11497724 -0.028939849 0.89800006 4285748037
-0.11341292 -0.028939849 0.89800006 4286340174
-0.13967881 -0.027009714 0.88600004 4286604629
-0.13813539 -0.027009714 0.88600004 4287851098
-0.13659197 -0.027009714 0.88600004 4288575078
-0.13504857 -0.027009714 0.88600004 4288904824
-0.13350515 -0.027009714 0.88600004 4289628291
-0.13225962 -0.027070682 0.88800007 4289891719
-0.13071273 -0.027070682 0.88800007 4290944150
-0.12916583 -0.027070682 0.88800007 4290878876
-0.12761894 -0.027070682 0.88800007 4291207840
-0.12607205 -0.027070682 0.88800007 4289697947
-0.12452515 -0.027070682 0.88800007 4284960851
-0.12339371 -0.027162138 0.89100003 4283380279
-0.12184159 -0.027162138 0.89100003 4282591020
-0.12028947 -0.027162138 0.89100003 4283643136
-0.11900388 -0.02722311 0.89300007 4286735404
-0.11810587 -0.027375534 0.89800006 4286014834
-0.11654155 -0.027375534 0.89800006 4284567388
-0.14122221 -0.025466301 0.88600004 4288052857
-0.13967881 -0.025466301 0.88600004 4288513408
-0.13813539 -0.025466301 0.88600004 4288905081
-0.13659197 -0.025466301 0.88600004 4288971130
-0.13504857 -0.025466301 0.88600004 4289299591
-0.13380653 -0.025523787 0.88800007 4289957522
-0.13225962 -0.025523787 0.88800007 4290154887
-0.13071273 -0.025523787 0.88800007 4291075989
-0.12916583 -0.025523787 0.88800007 4291075737
-0.12761894 -0.025523787 0.88800007 4290746772
-0.12607205 -0.025523787 0.88800007 4289893779
-0.12452515 -0.025523787 0.88800007 4287656817
-0.12297826 -0.025523787 0.88800007 4283319917
-0.12143136 -0.025523787 0.88800007 4279372081
-0.14244336 -0.023868887 0.88400006 4288381808
-0.14090344 -0.023868887 0.88400006 4288708472
-0.13967881 -0.023922889 0.88600004 4288840058
-0.13813539 -0.023922889 0.88600004 4288905333
-0.13659197 -0.023922889 0.88600004 4288971126
-0.13504857 -0.023922889 0.88600004 4289102465
-0.13350515 -0.023922889 0.88600004 4289957774
-0.13225962 -0.02397689 0.88800007 4290090377
-0.13071273 -0.02397689 0.88800007 4290879893
-0.12916583 -0.02397689 0.88800007 4291076252
-0.12761894 -0.02397689 0.88800007 4290681494
-0.12607205 -0.02397689 0.88800007 4290024080
-0.12452515 -0.02397689 0.88800007 4288445047
-0.12297826 -0.02397689 0.88800007 4286145916
-0.12143136 -0.02397689 0.88800007 4281343283
-0.14244336 -0.022328958 0.88400006 4288578201
-0.14090344 -0.022328958 0.88400006 4288708722
-0.1393635 -0.022328958 0.88400006 4289103480
-0.13813539 -0.022379475 0.88600004 4289234300
-0.13659197 -0.022379475 0.88600004 4289694851
-0.13504857 -0.022379475 0.88600004 4289563783
-0.13350515 -0.022379475 0.88600004 4290090127
-0.13196175 -0.022379475 0.88600004 4290156170
-0.13041833 -0.022379475 0.88600004 4290550928
-0.12887491 -0.022379475 0.88600004 4290681994
-0.1273315 -0.022379475 0.88600004 4290419078
-0.12578809 -0.022379475 0.88600004 4289957772
-0.12424468 -0.022379475 0.88600004 4289957772
-0.12270127 -0.022379475 0.88600004 4288052646
-0.14398329 -0.020789031 0.88400006 4288181889
-0.14244336 -0.020789031 0.88400006 4288839820
-0.14090344 -0.020789031 0.88400006 4288774517
-0.1393635 -0.020789031 0.88400006 4289037689
-0.13813539 -0.020836065 0.88600004 4289037435
-0.13659197 -0.020836065 0.88600004 4289695621
-0.13504857 -0.020836065 0.88600004 4289630089
-0.13350515 -0.020836065 0.88600004 4290090640
-0.13196175 -0.020836065 0.88600004 4290090890
-0.13041833 -0.020836065 0.88600004 4290288270
-0.12887491 -0.020836065 0.88600004 4290418826
-0.1273315 -0.020836065 0.88600004 4290221191
-0.12578809 -0.020836065 0.88600004 4289826183
-0.12396421 -0.020789031 0.88400006 4289760390
-0.1224243 -0.020789031 0.88400006 4289957774
-0.14502935 -0.019183777 0.88100004 4288182167
-0.14349465 -0.019183777 0.88100004 4288643964
-0.14195995 -0.019183777 0.88100004 4288841087
-0.14090344 -0.019249104 0.88400006 4288708474
-0.1393635 -0.019249104 0.88400006 4288708474
-0.13782357 -0.019249104 0.88400006 4288971644
-0.13628365 -0.019249104 0.88400006 4290024332
-0.13474372 -0.019249104 0.88400006 4290353295
-0.13320379 -0.019249104 0.88400006 4291143067
-0.13166387 -0.019249104 0.88400006 4290814086
-0.13012393 -0.019249104 0.88400006 4290616451
-0.128584 -0.019249104 0.88400006 4290681481
-0.12704408 -0.019249104 0.88400006 4290089343
-0.12550415 -0.019249104 0.88400006 4290023048
-0.12354352 -0.019183777 0.88100004 4289891719
-0.12200882 -0.019183777 0.88100004 4289826678
-0.12047412 -0.019183777 0.88100004 4290221180
-0.14623134 -0.01760901 0.87900007 4285749079
-0.14502935 -0.017649075 0.88100004 4288249470
-0.14349465 -0.017649075 0.88100004 4288643714
-0.14195995 -0.017649075 0.88100004 4288577665
-0.14042525 -0.017649075 0.88100004 4288708474
-0.13889055 -0.017649075 0.88100004 4288971390
-0.13735585 -0.017649075 0.88100004 4289365884
-0.13628365 -0.017709173 0.88400006 4290155400
-0.13474372 -0.017709173 0.88400006 4290418323
-0.13320379 -0.017709173 0.88400006 4291273631
-0.13166387 -0.017709173 0.88400006 4291142297
-0.13012393 -0.017709173 0.88400006 4290813332
-0.128584 -0.017709173 0.88400006 4290747276
-0.12704408 -0.017709173 0.88400006 4290155139
-0.12507823 -0.017649075 0.88100004 4290154371
-0.12354352 -0.017649075 0.88100004 4290022785
-0.12173185 -0.01760901 0.87900007 4289760381
-0.12020063 -0.01760901 0.87900007 4290155139
-0.11866941 -0.01760901 0.87900007 4289631373
-0.1171382 -0.01760901 0.87900007 4288052084
-0.14623134 -0.016077792 0.87900007 4286407264
-0.14470012 -0.016077792 0.87900007 4288183675
-0.14349465 -0.016114373 0.88100004 4288642681
-0.14163768 -0.016077792 0.87900007 4288708474
-0.14010647 -0.016077792 0.87900007 4288970878
-0.13889055 -0.016114373 0.88100004 4289497223
-0.13735585 -0.016114373 0.88100004 4289432193
-0.13582115 -0.016114373 0.88100004 4290353295
-0.13428643 -0.016114373 0.88100004 4290681242
-0.13275173 -0.016114373 0.88100004 4291339429
-0.13091916 -0.016077792 0.87900007 4291273633
-0.12938794 -0.016077792 0.87900007 4291075998
-0.12814763 -0.016114373 0.88100004 4291010697
-0.12661293 -0.016114373 0.88100004 4290813319
-0.12507823 -0.016114373 0.88100004 4290681994
-0.12326307 -0.016077792 0.87900007 4290681994
-0.12173185 -0.016077792 0.87900007 4290747026
-0.12020063 -0.016077792 0.87900007 4290944148
-0.11866941 -0.016077792 0.87900007 4290683281
-0.11687165 -0.016041208 0.87700003 4290090888
-0.11534393 -0.016041208 0.87700003 4290221193
-0.14623134 -0.014546574 0.87900007 4286801509
-0.14470012 -0.014546574 0.87900007 4288380284
-0.14316891 -0.014546574 0.87900007 4288773247
-0.14163768 -0.014546574 0.87900007 4288970626
-0.14010647 -0.014546574 0.87900007 4288971130
-0.13857526 -0.014546574 0.87900007 4289563268
-0.13704404 -0.014546574 0.87900007 4289826435
-0.13551281 -0.014546574 0.87900007 4290879379
-0.1339816 -0.014546574 0.87900007 4291009941
-0.13245039 -0.014546574 0.87900007 4291404699
-0.13091916 -0.014546574 0.87900007 4291076250
-0.12938794 -0.014546574 0.87900007 4290879128
-0.12785672 -0.014546574 0.87900007 4291010193
-0.1263255 -0.014546574 0.87900007 4290944400
-0.12479428 -0.014546574 0.87900007 4290944652
-0.12326307 -0.014546574 0.87900007 4290944652
-0.12173185 -0.014546574 0.87900007 4290812299
-0.12020063 -0.014546574 0.87900007 4291272850
-0.1183994 -0.014513474 0.87700003 4291207575
-0.11687165 -0.014513474 0.87700003 4291010195
-0.11534393 -0.014513474 0.87700003 4290418824
-0.14589861 -0.01298574 0.87700003 4287129956
-0.14437088 -0.01298574 0.87700003 4288708987
-0.14284314 -0.01298574 0.87700003 4288839812
-0.14131542 -0.01298574 0.87700003 4289563279
-0.13978767 -0.01298574 0.87700003 4289300863
-0.13825993 -0.01298574 0.87700003 4289695621
-0.13673221 -0.01298574 0.87700003 4289958024
-0.13520446 -0.01298574 0.87700003 4290813332
-0.13367674 -0.01298574 0.87700003 4291009932
-0.13214901 -0.01298574 0.87700003 4291404690
-0.13062127 -0.01298574 0.87700003 4291010195
-0.12909354 -0.01298574 0.87700003 4290812817
-0.12785672 -0.013015354 0.87900007 4290944402
-0.1263255 -0.013015354 0.87900007 4291010195
-0.12479428 -0.013015354 0.87900007 4291207307
-0.12326307 -0.013015354 0.87900007 4291404942
-0.12145486 -0.01298574 0.87700003 4291273100
-0.11992714 -0.01298574 0.87700003 4291273100
-0.1183994 -0.01298574 0.87700003 4291338895
-0.11687165 -0.01298574 0.87700003 4291273102
-0.11534393 -0.01298574 0.87700003 4291010193
-0.11355665 -0.012956127 0.87500006 4291010193
-0.14658584 -0.011392682 0.87200004 4286606946
-0.1455659 -0.011431877 0.87500006 4287130732
-0.14404164 -0.011431877 0.87500006 4288512385
-0.14284314 -0.011458007 0.87700003 4288773763
-0.14131542 -0.011458007 0.87700003 4289300107
-0.13978767 -0.011458007 0.87700003 4289300093
-0.13825993 -0.011458007 0.87700003 4289892230
-0.13673221 -0.011458007 0.87700003 4290089091
-0.13489614 -0.011431877 0.87500006 4290813071
-0.13337189 -0.011431877 0.87500006 4290813582
-0.13184765 -0.011431877 0.87500006 4291076754
-0.13062127 -0.011458007 0.87700003 4290813330
-0.12909354 -0.011458007 0.87700003 4290813330
-0.1275658 -0.011458007 0.87700003 4291075475
-0.12603806 -0.011458007 0.87700003 4291206805
-0.12451033 -0.011458007 0.87700003 4291207577
-0.1229826 -0.011458007 0.87700003 4291273370
-0.12145486 -0.011458007 0.87700003 4291207827
-0.11992714 -0.011458007 0.87700003 4291142034
-0.1183994 -0.011458007 0.87700003 4291142034
-0.11687165 -0.011458007 0.87700003 4291142034
-0.11508089 -0.011431877 0.87500006 4291142034
-0.11355665 -0.011431877 0.87500006 4291207827
-0.1120324 -0.011431877 0.87500006 4291207305
-0.14928071 -0.0098510114 0.87000006 4285416507
-0.14776517 -0.0098510114 0.87000006 4285158212
-0.14624964 -0.0098510114 0.87000006 4286868830
-0.1450668 -0.0098736566 0.87200004 4287393391
-0.14354779 -0.0098736566 0.87200004 4288511872
-0.1425174 -0.0099076265 0.87500006 4288904329
-0.14099315 -0.0099076265 0.87500006 4289562516
-0.13946889 -0.0099076265 0.87500006 4289826435
-0.13794465 -0.0099076265 0.87500006 4290747537
-0.1364204 -0.0099076265 0.87500006 4290681481
-0.13489614 -0.0099076265 0.87500006 4290681481
-0.13291462 -0.0098736566 0.87200004 4290747278
-0.13139559 -0.0098736566 0.87200004 4291010193
-0.12987655 -0.0098736566 0.87200004 4291009934
-0.12835754 -0.0098736566 0.87200004 4291009934
-0.12683852 -0.0098736566 0.87200004 4291009428
-0.12575065 -0.0099076265 0.87500006 4291338393
-0.1242264 -0.0099076265 0.87500006 4291667106
-0.1229826 -0.0099302717 0.87700003 4291798692
-0.12145486 -0.0099302717 0.87700003 4291666829
-0.11992714 -0.0099302717 0.87700003 4291535243
-0.11812939 -0.0099076265 0.87500006 4291207827
-0.11660515 -0.0099076265 0.87500006 4290944398
-0.11508089 -0.0099076265 0.87500006 4291009934
-0.11355665 -0.0099076265 0.87500006 4291207057
-0.1120324 -0.0099076265 0.87500006 4290812799
-0.11012925 -0.0098736566 0.87200004 4289957746
-0.10861023 -0.0098736566 0.87200004 4290285453
-0.1070912 -0.0098736566 0.87200004 4289561730
-0.15079626 -0.0083354712 0.87000006 4280877312
-0.14928071 -0.0083354712 0.87000006 4285680182
-0.14776517 -0.0083354712 0.87000006 4285683273
-0.14624964 -0.0083354712 0.87000006 4287262561
-0.14473408 -0.0083354712 0.87000006 4287459702
-0.14321855 -0.0083354712 0.87000006 4288578182
-0.14202876 -0.0083546322 0.87200004 4289233281
-0.14050974 -0.0083546322 0.87200004 4290088590
-0.13899072 -0.0083546322 0.87200004 4290024330
-0.13747168 -0.0083546322 0.87200004 4290616723
-0.13595267 -0.0083546322 0.87200004 4290747526
-0.13412531 -0.0083354712 0.87000006 4290615940
-0.13260977 -0.0083354712 0.87000006 4290746506
-0.13109423 -0.0083354712 0.87000006 4291075727
-0.12957868 -0.0083354712 0.87000006 4291206805
-0.12806316 -0.0083354712 0.87000006 4291009682
-0.1265476 -0.0083354712 0.87000006 4291140500
-0.1253195 -0.0083546322 0.87200004 4291403673
-0.12380046 -0.0083546322 0.87200004 4291797406
-0.12228145 -0.0083546322 0.87200004 4291995042
-0.1211779 -0.0083833765 0.87500006 4291667608
-0.11965364 -0.0083833765 0.87500006 4291536278
-0.11812939 -0.0083833765 0.87500006 4291273883
-0.11660515 -0.0083833765 0.87500006 4291076248
-0.11508089 -0.0083833765 0.87500006 4291074451
-0.1131673 -0.0083546322 0.87200004 4290679949
-0.11164828 -0.0083546322 0.87200004 4290417028
-0.11012925 -0.0083546322 0.87200004 4290943372
-0.10861023 -0.0083546322 0.87200004 4290944921
-0.1070912 -0.0083546322 0.87200004 4287918186
-0.10557218 -0.0083546322 0.87200004 4288764928
-0.10405315 -0.0083546322 0.87200004 4287975424
-0.10253414 -0.0083546322 0.87200004 4288498176
-0.10101511 -0.0083546322 0.87200004 4292643117
-0.099496081 -0.0083546322 0.87200004 4292712826
-0.097977057 -0.0083546322 0.87200004 4293436548
-0.15079626 -0.0068199309 0.87000006 4282591520
-0.14928071 -0.0068199309 0.87000006 4286012756
-0.14776517 -0.0068199309 0.87000006 4286603864
-0.14624964 -0.0068199309 0.87000006 4288314481
-0.14473408 -0.0068199309 0.87000006 4288642177
-0.14321855 -0.0068199309 0.87000006 4289300107
-0.14170301 -0.0068199309 0.87000006 4289562243
-0.14018747 -0.0068199309 0.87000006 4290220430
-0.13867192 -0.0068199309 0.87000006 4290090123
-0.1371564 -0.0068199309 0.87000006 4291077274
-0.13564084 -0.0068199309 0.87000006 4291077256
-0.13412531 -0.0068199309 0.87000006 4290879877
-0.13260977 -0.0068199309 0.87000006 4291075473
-0.13109423 -0.0068199309 0.87000006 4291667354
-0.12957868 -0.0068199309 0.87000006 4291141782
-0.12806316 -0.0068199309 0.87000006 4291075989
-0.1265476 -0.0068199309 0.87000006 4291272600
-0.12503207 -0.0068199309 0.87000006 4291469979
-0.12351653 -0.0068199309 0.87000006 4291404953
-0.12228145 -0.0068356087 0.87200004 4291404953
-0.12076242 -0.0068356087 0.87200004 4291470994
-0.1192434 -0.0068356087 0.87200004 4291470994
-0.11772437 -0.0068356087 0.87200004 4291536799
-0.11620534 -0.0068356087 0.87200004 4291273883
-0.11468633 -0.0068356087 0.87200004 4290943896
-0.1131673 -0.0068356087 0.87200004 4289694086
-0.11164828 -0.0068356087 0.87200004 4290154376
-0.11012925 -0.0068356087 0.87200004 4291536028
-0.10861023 -0.0068356087 0.87200004 4291142534
-0.1070912 -0.0068356087 0.87200004 4287194953
-0.10557218 -0.0068356087 0.87200004 4288307712
-0.10405315 -0.0068356087 0.87200004 4289689091
-0.10253414 -0.0068356087 0.87200004 4290342233
-0.10101511 -0.0068356087 0.87200004 4291263335
-0.099496081 -0.0068356087 0.87200004 4290801694
-0.097977057 -0.0068356087 0.87200004 4289683213
-0.096458033 -0.0068356087 0.87200004 4290207232
-0.094721265 -0.0068199309 0.87000006 4289878016
-0.093205728 -0.0068199309 0.87000006 4290797568
-0.091690183 -0.0068199309 0.87000006 4290929152
-0.15196164 -0.0052921963 0.86800003 4283767808
-0.15044959 -0.0052921963 0.86800003 4283840569
-0.14893752 -0.0052921963 0.86800003 4287064426
-0.14742547 -0.0052921963 0.86800003 4287261537
-0.14591342 -0.0052921963 0.86800003 4288972412
-0.14440137 -0.0052921963 0.86800003 4289167742
-0.14288931 -0.0052921963 0.86800003 4289496450
-0.14137726 -0.0052921963 0.86800003 4289496704
-0.13986519 -0.0052921963 0.86800003 4290154635
-0.13835314 -0.0052921963 0.86800003 4290024584
-0.1371564 -0.005304391 0.87000006 4291077272
-0.13564084 -0.005304391 0.87000006 4291208342
-0.13412531 -0.005304391 0.87000006 4290945171
-0.13260977 -0.005304391 0.87000006 4291010195
-0.13109423 -0.005304391 0.87000006 4291404953
-0.12957868 -0.005304391 0.87000006 4291142034
-0.12806316 -0.005304391 0.87000006 4291142034
-0.12625669 -0.0052921963 0.86800003 4291469979
-0.12474463 -0.0052921963 0.86800003 4291469979
-0.12351653 -0.005304391 0.87000006 4291274135
-0.12200098 -0.005304391 0.87000006 4291208342
-0.12048545 -0.005304391 0.87000006 4291274133
-0.11896991 -0.005304391 0.87000006 4291339926
-0.11745436 -0.005304391 0.87000006 4291536799
-0.11593883 -0.005304391 0.87000006 4291076248
-0.11442329 -0.005304391 0.87000006 4290485124
-0.11290774 -0.005304391 0.87000006 4289498228
-0.1113922 -0.005304391 0.87000006 4290416010
-0.10987666 -0.005304391 0.87000006 4290876561
-0.10836112 -0.005304391 0.87000006 4290613096
-0.1070912 -0.0053165844 0.87200004 4287191860
-0.10557218 -0.0053165844 0.87200004 4288370432
-0.10405315 -0.0053165844 0.87200004 4291199514
-0.10229897 -0.005304391 0.87000006 4291264335
-0.10078342 -0.005304391 0.87000006 4291132748
-0.099267885 -0.005304391 0.87000006 4290802209
-0.097752348 -0.005304391 0.87000006 4289749521
-0.096236803 -0.005304391 0.87000006 4289943808
-0.094721265 -0.005304391 0.87000006 4291457030
-0.093205728 -0.005304391 0.87000006 4291654716
-0.091690183 -0.005304391 0.87000006 4293167955
-0.090174638 -0.005304391 0.87000006 4293173388
-0.15161151 -0.0037714306 0.86600006 4284357449
-0.15010294 -0.0037714306 0.86600006 4284500300
-0.14893752 -0.0037801403 0.86800003 4286868848
-0.14742547 -0.0037801403 0.86800003 4287722088
-0.14591342 -0.0037801403 0.86800003 4289367170
-0.14440137 -0.0037801403 0.86800003 4289760381
-0.14288931 -0.0037801403 0.86800003 4289891967
-0.14137726 -0.0037801403 0.86800003 4290023048
-0.13986519 -0.0037801403 0.86800003 4290680979
-0.13835314 -0.0037801403 0.86800003 4290813836
-0.13684107 -0.0037801403 0.86800003 4291405974
-0.13564084 -0.0037888505 0.87000006 4291536799
-0.13412531 -0.0037888505 0.87000006 4291142297
-0.13230492 -0.0037801403 0.86800003 4291141784
-0.13079286 -0.0037801403 0.86800003 4291470492
-0.12928081 -0.0037801403 0.86800003 4291666829
-0.12776874 -0.0037801403 0.86800003 4291864208
-0.12625669 -0.0037801403 0.86800003 4291667104
-0.12474463 -0.0037801403 0.86800003 4291535774
-0.12323258 -0.0037801403 0.86800003 4291536024
-0.12172052 -0.0037801403 0.86800003 4291536024
-0.12020846 -0.0037801403 0.86800003 4291470742
-0.11869641 -0.0037801403 0.86800003 4291536792
-0.11745436 -0.0037888505 0.87000006 4291339928
-0.11593883 -0.0037888505 0.87000006 4290024069
-0.11442329 -0.0037888505 0.87000006 4290154605
-0.11290774 -0.0037888505 0.87000006 4290680949
-0.1113922 -0.0037888505 0.87000006 4290943885
-0.10987666 -0.0037888505 0.87000006 4289430646
-0.10836112 -0.0037888505 0.87000006 4288834609
-0.1070912 -0.0037975605 0.87200004 4288110629
-0.10557218 -0.0037975605 0.87200004 4289555236
-0.10405315 -0.0037975605 0.87200004 4291397440
-0.10229897 -0.0037888505 0.87000006 4291461700
-0.10078342 -0.0037888505 0.87000006 4291132735
-0.099267885 -0.0037888505 0.87000006 4290868014
-0.097752348 -0.0037888505 0.87000006 4290933807
-0.096236803 -0.0037888505 0.87000006 4292578648
-0.094721265 -0.0037888505 0.87000006 4294960816
-0.093205728 -0.0037888505 0.87000006 4294967295
-0.091690183 -0.0037888505 0.87000006 4294967295
-0.090174638 -0.0037888505 0.87000006 4294967295
-0.15276644 -0.0022576321 0.86400002 4281466880
-0.15126136 -0.0022576321 0.86400002 4284624413
-0.15010294 -0.0022628582 0.86600006 4285288269
-0.14859435 -0.0022628582 0.86600006 4287459182
-0.14708579 -0.0022628582 0.86600006 4288051571
-0.14591342 -0.0022680843 0.86800003 4289301638
-0.14440137 -0.0022680843 0.86800003 4289628543
-0.14288931 -0.0022680843 0.86800003 4290220680
-0.14137726 -0.0022680843 0.86800003 4290024584
-0.13986519 -0.0022680843 0.86800003 4290945686
-0.13835314 -0.0022680843 0.86800003 4291077272
-0.13684107 -0.0022680843 0.86800003 4291077272
-0.13532902 -0.0022680843 0.86800003 4291273368
-0.13381697 -0.0022680843 0.86800003 4291141782
-0.13230492 -0.0022680843 0.86800003 4291206278
-0.13079286 -0.0022680843 0.86800003 4292061587
-0.12928081 -0.0022680843 0.86800003 4291865504
-0.12776874 -0.0022680843 0.86800003 4291536540
-0.12625669 -0.0022680843 0.86800003 4291536028
-0.12474463 -0.0022680843 0.86800003 4291536028
-0.12323258 -0.0022680843 0.86800003 4291536026
-0.12172052 -0.0022680843 0.86800003 4291667356
-0.12020846 -0.0022680843 0.86800003 4291536026
-0.11869641 -0.0022680843 0.86800003 4291733149
-0.11718436 -0.0022680843 0.86800003 4291536024
-0.11567229 -0.0022680843 0.86800003 4289693821
-0.11442329 -0.0022733102 0.87000006 4289955182
-0.11290774 -0.0022733102 0.87000006 4292126351
-0.1113922 -0.0022733102 0.87000006 4291734949
-0.10987666 -0.0022733102 0.87000006 4286471510
-0.10836112 -0.0022733102 0.87000006 4288566016
-0.1070912 -0.0022785363 0.87200004 4290013446
-0.10557218 -0.0022785363 0.87200004 4290672688
-0.10405315 -0.0022785363 0.87200004 4291462204
-0.10229897 -0.0022733102 0.87000006 4291329607
-0.10078342 -0.0022733102 0.87000006 4290145590
-0.099267885 -0.0022733102 0.87000006 4290012194
-0.097752348 -0.0022733102 0.87000006 4293301844
-0.096236803 -0.0022733102 0.87000006 4293242526
-0.094503507 -0.0022680843 0.86800003 4294967286
-0.092991456 -0.0022680843 0.86800003 4294967295
-0.091479391 -0.0022680843 0.86800003 4294967295
-0.089967348 -0.0022680843 0.86800003 4294967288
-0.088251472 -0.0022628582 0.86600006 4294107861
-0.0867429 -0.0022628582 0.86600006 4293910248
-0.085234329 -0.0022628582 0.86600006 4294238957
-0.083532386 -0.0022576321 0.86400002 4294961892
-0.15427154 -0.00075254409 0.86400002 4283381806
-0.15276644 -0.00075254409 0.86400002 4281798672
-0.15126136 -0.00075254409 0.86400002 4284890942
-0.14975627 -0.00075254409 0.86400002 4285025861
-0.14825119 -0.00075254409 0.86400002 4287723374
-0.14708579 -0.00075428607 0.86600006 4288446079
-0.14557722 -0.00075428607 0.86600006 4289170059
-0.14406864 -0.00075428607 0.86600006 4289562484
-0.14256008 -0.00075428607 0.86600006 4290549379
-0.14137726 -0.00075602805 0.86800003 4290878092
-0.13986519 -0.00075602805 0.86800003 4292259745
-0.13835314 -0.00075602805 0.86800003 4291209374
-0.13684107 -0.00075602805 0.86800003 4288051310
-0.13532902 -0.00075602805 0.86800003 4287062879
-0.13381697 -0.00075602805 0.86800003 4286997086
-0.13230492 -0.00075602805 0.86800003 4289627218
-0.13079286 -0.00075602805 0.86800003 4291601008
-0.12928081 -0.00075602805 0.86800003 4292653206
-0.12776874 -0.00075602805 0.86800003 4292653206
-0.12596577 -0.00075428607 0.86600006 4292324257
-0.12445721 -0.00075428607 0.86600006 4291995292
-0.12294863 -0.00075428607 0.86600006 4291929499
-0.12172052 -0.00075602805 0.86800003 4291995292
-0.1199315 -0.00075428607 0.86600006 4292061087
-0.11842292 -0.00075428607 0.86600006 4291929501
-0.11718436 -0.00075602805 0.86800003 4291535495
-0.11567229 -0.00075602805 0.86800003 4289956206
-0.11416024 -0.00075602805 0.86800003 4290416010
-0.11290774 -0.00075777009 0.87000006 4292257957
-0.1113922 -0.00075777009 0.87000006 4291864444
-0.10987666 -0.00075777009 0.87000006 4286008867
-0.10836112 -0.00075777009 0.87000006 4288105728
-0.1070912 -0.00075951207 0.87200004 4290869018
-0.10557218 -0.00075951207 0.87200004 4290936376
-0.10381451 -0.00075777009 0.87000006 4291067705
-0.10229897 -0.00075777009 0.87000006 4291132998
-0.10078342 -0.00075777009 0.87000006 4289554223
-0.099039681 -0.00075602805 0.86800003 4290339119
-0.097527616 -0.00075602805 0.86800003 4294957222
-0.096015565 -0.00075602805 0.86800003 4294967283
-0.094503507 -0.00075602805 0.86800003 4294967295
-0.092991456 -0.00075602805 0.86800003 4294967295
-0.091479391 -0.00075602805 0.86800003 4291413444
-0.08976005 -0.00075428607 0.86600006 4292982157
-0.088251472 -0.00075428607 0.86600006 4294958774
-0.086542569 -0.00075254409 0.86400002 4294959602
-0.085037477 -0.00075254409 0.86400002 4292722383
-0.083532386 -0.00075254409 0.86400002 4292983984
-0.082027301 -0.00075254409 0.86400002 4294036928
-0.080335826 -0.00075080211 0.86200005 4294234582
-0.078834213 -0.00075080211 0.86200005 4293905617
-0.15391442 0.00075080211 0.86200005 4282528295
-0.15276644 0.00075254409 0.86400002 4280483840
-0.15126136 0.00075254409 0.86400002 4283705889
-0.14975627 0.00075254409 0.86400002 4285417788
-0.14825119 0.00075254409 0.86400002 4288378730
-0.1467461 0.00075254409 0.86400002 4288774017
-0.14524101 0.00075254409 0.86400002 4289300361
-0.14373592 0.00075254409 0.86400002 4289628027
-0.14256008 0.00075428607 0.86600006 4290746252
-0.1410515 0.00075428607 0.86600006 4291272346
-0.13986519 0.00075602805 0.86800003 4291930532
-0.13835314 0.00075602805 0.86800003 4290946969
-0.13684107 0.00075602805 0.86800003 4283512360
-0.13532902 0.00075602805 0.86800003 4284033809
-0.13381697 0.00075602805 0.86800003 4285612842
-0.13230492 0.00075602805 0.86800003 4287125311
-0.13079286 0.00075602805 0.86800003 4290414961
-0.12928081 0.00075602805 0.86800003 4290744444
-0.12776874 0.00075602805 0.86800003 4292981405
-0.12596577 0.00075428607 0.86600006 4292391837
-0.12445721 0.00075428607 0.86600006 4291997079
-0.12294863 0.00075428607 0.86600006 4292126610
-0.12144006 0.00075428607 0.86600006 4292390039
-0.1199315 0.00075428607 0.86600006 4292521386
-0.11842292 0.00075428607 0.86600006 4291929249
-0.11691435 0.00075428607 0.86600006 4290680197
-0.11540577 0.00075428607 0.86600006 4290153853
-0.11416024 0.00075602805 0.86800003 4290678932
-0.11264818 0.00075602805 0.86800003 4290613139
-0.11113613 0.00075602805 0.86800003 4290281828
-0.10987666 0.00075777009 0.87000006 4287123764
-0.10836112 0.00075777009 0.87000006 4288828672
-0.10684558 0.00075777009 0.87000006 4291328803
-0.10533004 0.00075777009 0.87000006 4290936124
-0.10381451 0.00075777009 0.87000006 4291067453
-0.10206379 0.00075602805 0.86800003 4290935622
-0.10055173 0.00075602805 0.86800003 4289225003
-0.098811477 0.00075428607 0.86600006 4290403358
-0.097302906 0.00075428607 0.86600006 4294957725
-0.095794335 0.00075428607 0.86600006 4294967295
-0.094285764 0.00075428607 0.86600006 4294967295
-0.092777185 0.00075428607 0.86600006 4294967295
-0.091268614 0.00075428607 0.86600006 4290096812
-0.08976005 0.00075428607 0.86600006 4291527273
-0.088251472 0.00075428607 0.86600006 4294958789
-0.086542569 0.00075254409 0.86400002 4294967295
-0.085037477 0.00075254409 0.86400002 4291608256
-0.083532386 0.00075254409 0.86400002 4292651189
-0.082027301 0.00075254409 0.86400002 4294756308
-0.080335826 0.00075080211 0.86200005 4293839043
-0.078834213 0.00075080211 0.86200005 4293576127
-0.077332616 0.00075080211 0.86200005 4293511123
-0.075567096 0.00074818905 0.85900003 4293774294
-0.15391442 0.0022524062 0.86200005 4282593839
-0.15241282 0.0022524062 0.86200005 4280287232
-0.15091121 0.0022524062 0.86200005 4283246372
-0.14940962 0.0022524062 0.86200005 4284498222
-0.14790802 0.0022524062 0.86200005 4288248423
-0.14640641 0.0022524062 0.86200005 4288905085
-0.14490481 0.0022524062 0.86200005 4289497223
-0.1434032 0.0022524062 0.86200005 4289496441
-0.14223082 0.0022576321 0.86400002 4290285701
-0.14072575 0.0022576321 0.86400002 4290746504
-0.13954292 0.0022628582 0.86600006 4290154623
-0.13803436 0.0022628582 0.86600006 4287789641
-0.13684107 0.0022680843 0.86800003 4278583296
-0.13532902 0.0022680843 0.86800003 4278190080
-0.13381697 0.0022680843 0.86800003 4278190080
-0.13230492 0.0022680843 0.86800003 4279959552
-0.13079286 0.0022680843 0.86800003 4280352768
-0.12928081 0.0022680843 0.86800003 4281270272
-0.12776874 0.0022680843 0.86800003 4285541933
-0.12596577 0.0022628582 0.86600006 4287782198
-0.12445721 0.0022628582 0.86600006 4290808676
-0.12266468 0.0022576321 0.86400002 4292258913
-0.1211596 0.0022576321 0.86400002 4293048173
-0.11965451 0.0022576321 0.86400002 4292587935
-0.11814942 0.0022576321 0.86400002 4291074440
-0.11664432 0.0022576321 0.86400002 4291007613
-0.11540577 0.0022628582 0.86600006 4291336835
-0.11416024 0.0022680843 0.86800003 4290943896
-0.11264818 0.0022680843 0.86800003 4287654246
-0.11113613 0.0022680843 0.86800003 4287911211
-0.10962407 0.0022680843 0.86800003 4288371761
-0.10811201 0.0022680843 0.86800003 4289356340
-0.10659996 0.0022680843 0.86800003 4290803786
-0.10508791 0.0022680843 0.86800003 4290804506
-0.10357584 0.0022680843 0.86800003 4290870555
-0.10182863 0.0022628582 0.86600006 4290935102
-0.10032005 0.0022628582 0.86600006 4289224740
-0.098583274 0.0022576321 0.86400002 4290270732
-0.097078182 0.0022576321 0.86400002 4294955913
-0.095573097 0.0022576321 0.86400002 4294967280
-0.094068006 0.0022576321 0.86400002 4294967286
-0.092562921 0.0022576321 0.86400002 4294967271
-0.091057837 0.0022576321 0.86400002 4291014037
-0.089552745 0.0022576321 0.86400002 4291867329
-0.088047661 0.0022576321 0.86400002 4294499305
-0.086542569 0.0022576321 0.86400002 4294232992
-0.085037477 0.0022576321 0.86400002 4292917389
-0.083532386 0.0022576321 0.86400002 4294961898
-0.082027301 0.0022576321 0.86400002 4294964211
-0.080522217 0.0022576321 0.86400002 4294964966
-0.079017125 0.0022576321 0.86400002 4294967283
-0.077332616 0.0022524062 0.86200005 4294964977
-0.075567096 0.0022445673 0.85900003 4292790981
-0.074070714 0.0022445673 0.85900003 4294233037
-0.07257434 0.0022445673 0.85900003 4294962928
-0.07091248 0.0022393411 0.85700005 4294964459
-0.068085201 0.0022445673 0.85900003 4293120212
-0.066588826 0.0022445673 0.85900003 4293186005
-0.15391442 0.0037540107 0.86200005 4284107591
-0.15241282 0.0037540107 0.86200005 4279697414
-0.15091121 0.0037540107 0.86200005 4281999401
-0.14940962 0.0037540107 0.86200005 4284298292
-0.14790802 0.0037540107 0.86200005 4288311666
-0.14640641 0.0037540107 0.86200005 4289101694
-0.14490481 0.0037540107 0.86200005 4289496452
-0.1434032 0.0037540107 0.86200005 4289429881
-0.1419016 0.0037540107 0.86200005 4290745740
-0.14039999 0.0037540107 0.86200005 4290617236
-0.13922065 0.0037627204 0.86400002 4287130208
-0.13803436 0.0037714306 0.86600006 4285483804
-0.13684107 0.0037801403 0.86800003 4279042048
-0.13532902 0.0037801403 0.86800003 4278190080
-0.13381697 0.0037801403 0.86800003 4278190080
-0.13230492 0.0037801403 0.86800003 4278190080
-0.13079286 0.0037801403 0.86800003 4278190080
-0.12928081 0.0037801403 0.86800003 4278190080
-0.12776874 0.0037801403 0.86800003 4278190080
-0.12567486 0.0037627204 0.86400002 4283629568
-0.12416977 0.0037627204 0.86400002 4288629048
-0.12238074 0.0037540107 0.86200005 4289820514
-0.12087914 0.0037540107 0.86200005 4292123269
-0.11937754 0.0037540107 0.86200005 4290945675
-0.11814942 0.0037627204 0.86400002 4290353281
-0.11664432 0.0037627204 0.86400002 4290482553
-0.11540577 0.0037714306 0.86600006 4291601290
-0.11416024 0.0037801403 0.86800003 4291142815
-0.11264818 0.0037801403 0.86800003 4285681740
-0.11113613 0.0037801403 0.86800003 4287579904
-0.10962407 0.0037801403 0.86800003 4289487896
-0.10811201 0.0037801403 0.86800003 4289751599
-0.10635434 0.0037714306 0.86600006 4290146101
-0.10484577 0.0037714306 0.86600006 4290211113
-0.10333719 0.0037714306 0.86600006 4290474541
-0.10159344 0.0037627204 0.86400002 4290672449
-0.10008836 0.0037627204 0.86400002 4289356590
-0.098583274 0.0037627204 0.86400002 4290533139
-0.097078182 0.0037627204 0.86400002 4294950521
-0.095573097 0.0037627204 0.86400002 4294962134
-0.094068006 0.0037627204 0.86400002 4294967281
-0.092348658 0.0037540107 0.86200005 4293978342
-0.090847053 0.0037540107 0.86200005 4290885814
-0.089552745 0.0037627204 0.86400002 4291870942
-0.088047661 0.0037627204 0.86400002 4290489289
-0.086542569 0.0037627204 0.86400002 4289494040
-0.085037477 0.0037627204 0.86400002 4294957686
-0.083532386 0.0037627204 0.86400002 4294967295
-0.082027301 0.0037627204 0.86400002 4294967295
-0.080522217 0.0037627204 0.86400002 4294967295
-0.079017125 0.0037627204 0.86400002 4294967295
-0.077512041 0.0037627204 0.86400002 4294967029
-0.075831011 0.0037540107 0.86200005 4292658878
-0.074329406 0.0037540107 0.86200005 4294558907
-0.072827801 0.0037540107 0.86200005 4294963431
-0.071077965 0.0037409454 0.85900003 4294966525
-0.069581583 0.0037409454 0.85900003 4292001729
-0.068085201 0.0037409454 0.85900003 4291869857
-0.066588826 0.0037409454 0.85900003 4293514425
-0.065092452 0.0037409454 0.85900003 4293775826
-0.063818179 0.0037540107 0.86200005 4293381324
-0.062316574 0.0037540107 0.86200005 4293248175
-0.15391442 0.0052556149 0.86200005 4285882716
-0.15241282 0.0052556149 0.86200005 4280224800
-0.15091121 0.0052556149 0.86200005 4280882730
-0.14888963 0.0052373232 0.85900003 4283707956
-0.14739324 0.0052373232 0.85900003 4287721073
-0.14589687 0.0052373232 0.85900003 4288839290
-0.14440049 0.0052373232 0.85900003 4289299841
-0.1429041 0.0052373232 0.85900003 4289495674
-0.14140773 0.0052373232 0.85900003 4290548361
-0.13991137 0.0052373232 0.85900003 4290090890
-0.13889839 0.0052556149 0.86200005 4283116832
-0.13771556 0.0052678087 0.86400002 4279304192
-0.13652579 0.0052800025 0.86600006 4280090624
-0.13532902 0.0052921963 0.86800003 4280423696
-0.13381697 0.0052921963 0.86800003 4280094732
-0.13230492 0.0052921963 0.86800003 4279697939
-0.13079286 0.0052921963 0.86800003 4279500815
-0.12928081 0.0052921963 0.86800003 4278845440
-0.12776874 0.0052921963 0.86800003 4278386688
-0.12567486 0.0052678087 0.86400002 4279828480
-0.12416977 0.0052678087 0.86400002 4280156160
-0.12238074 0.0052556149 0.86200005 4281597952
-0.12087914 0.0052556149 0.86200005 4281729024
-0.11937754 0.0052556149 0.86200005 4282122240
-0.11814942 0.0052678087 0.86400002 4287710021
-0.11664432 0.0052678087 0.86400002 4288441689
-0.11513924 0.0052678087 0.86400002 4290547064
-0.1138972 0.0052800025 0.86600006 4289825100
-0.11238863 0.0052800025 0.86600006 4285745934
-0.11088005 0.0052800025 0.86600006 4287581476
-0.10937148 0.0052800025 0.86600006 4289489473
-0.10786291 0.0052800025 0.86600006 4290013988
-0.10635434 0.0052800025 0.86600006 4290211367
-0.10460363 0.0052678087 0.86400002 4290408244
-0.10309854 0.0052678087 0.86400002 4290540087
-0.10159344 0.0052678087 0.86400002 4290606654
-0.10008836 0.0052678087 0.86400002 4289882932
-0.098583274 0.0052678087 0.86400002 4290405414
-0.097078182 0.0052678087 0.86400002 4292642376
-0.095351867 0.0052556149 0.86200005 4294952802
-0.093850262 0.0052556149 0.86200005 4294967199
-0.092348658 0.0052556149 0.86200005 4294966526
-0.090847053 0.0052556149 0.86200005 4293842134
-0.089345448 0.0052556149 0.86200005 4292858879
-0.087843843 0.0052556149 0.86200005 4290424541
-0.086342238 0.0052556149 0.86200005 4290618520
-0.084840633 0.0052556149 0.86200005 4294961886
-0.083532386 0.0052678087 0.86400002 4294967293
-0.082027301 0.0052678087 0.86400002 4294967295
-0.080522217 0.0052678087 0.86400002 4294967292
-0.078834213 0.0052556149 0.86200005 4294962920
-0.077332616 0.0052556149 0.86200005 4294430869
-0.075831011 0.0052556149 0.86200005 4293115265
-0.074329406 0.0052556149 0.86200005 4294754723
-0.072827801 0.0052556149 0.86200005 4294962382
-0.071326204 0.0052556149 0.86200005 4294963694
-0.069824599 0.0052556149 0.86200005 4289368718
-0.068322986 0.0052556149 0.86200005 4291410112
-0.066821381 0.0052556149 0.86200005 4294966527
-0.065319784 0.0052556149 0.86200005 4294966782
-0.063818179 0.0052556149 0.86200005 4294965498
-0.062316574 0.0052556149 0.86200005 4294967295
-0.060814973 0.0052556149 0.86200005 4294967295
-0.059313368 0.0052556149 0.86200005 4294963153
-0.15241282 0.0067572189 0.86200005 4282321468
-0.15038601 0.0067337016 0.85900003 4281401390
-0.14888963 0.0067337016 0.85900003 4283641856
-0.14739324 0.0067337016 0.85900003 4287984444
-0.14589687 0.0067337016 0.85900003 4288576121
-0.14440049 0.0067337016 0.85900003 4289431429
-0.1429041 0.0067337016 0.85900003 4289628543
-0.14140773 0.0067337016 0.85900003 4290615438
-0.13991137 0.0067337016 0.85900003 4289763724
-0.13652579 0.0067885751 0.86600006 4279109637
-0.13532902 0.0068042525 0.86800003 4280291606
-0.13412531 0.0068199309 0.87000006 4280028691
-0.13230492 0.0068042525 0.86800003 4279438350
-0.13079286 0.0068042525 0.86800003 4279043592
-0.12928081 0.0068042525 0.86800003 4279502081
-0.12776874 0.0068042525 0.86800003 4279765253
-0.12567486 0.0067728963 0.86400002 4279304192
-0.12416977 0.0067728963 0.86400002 4278648832
-0.12238074 0.0067572189 0.86200005 4278190080
-0.12087914 0.0067572189 0.86200005 4278190080
-0.11937754 0.0067572189 0.86200005 4278321152
-0.11814942 0.0067728963 0.86400002 4280158471
-0.11664432 0.0067728963 0.86400002 4286661678
-0.11513924 0.0067728963 0.86400002 4287912001
-0.1138972 0.0067885751 0.86600006 4288044364
-0.11238863 0.0067885751 0.86600006 4287123262
-0.11088005 0.0067885751 0.86600006 4288304670
-0.10911889 0.0067728963 0.86400002 4289883445
-0.1076138 0.0067728963 0.86400002 4289686075
-0.10610872 0.0067728963 0.86400002 4289817404
-0.10460363 0.0067728963 0.86400002 4290341447
-0.10309854 0.0067728963 0.86400002 4290539083
-0.10159344 0.0067728963 0.86400002 4290672199
-0.10008836 0.0067728963 0.86400002 4290474821
-0.098583274 0.0067728963 0.86400002 4290409278
-0.096853472 0.0067572189 0.86200005 4291790931
-0.095351867 0.0067572189 0.86200005 4293301814
-0.093850262 0.0067572189 0.86200005 4294960774
-0.092348658 0.0067572189 0.86200005 4294967279
-0.090847053 0.0067572189 0.86200005 4294967277
-0.089345448 0.0067572189 0.86200005 4294967039
-0.087843843 0.0067572189 0.86200005 4291281102
-0.086342238 0.0067572189 0.86200005 4291341221
-0.084840633 0.0067572189 0.86200005 4294894043
-0.083339036 0.0067572189 0.86200005 4294566364
-0.08155261 0.0067337016 0.85900003 4294966775
-0.080056228 0.0067337016 0.85900003 4294967293
-0.078559853 0.0067337016 0.85900003 4292463300
-0.077063479 0.0067337016 0.85900003 4293769322
-0.075567096 0.0067337016 0.85900003 4294426996
-0.074070714 0.0067337016 0.85900003 4294559949
-0.072827801 0.0067572189 0.86200005 4294962675
-0.071326204 0.0067572189 0.86200005 4294962662
-0.069824599 0.0067572189 0.86200005 4289631373
-0.068322986 0.0067572189 0.86200005 4291734194
-0.066821381 0.0067572189 0.86200005 4294967295
-0.065319784 0.0067572189 0.86200005 4294967295
-0.063818179 0.0067572189 0.86200005 4294967295
-0.062316574 0.0067572189 0.86200005 4294967295
-0.060814973 0.0067572189 0.86200005 4294967295
-0.059313368 0.0067572189 0.86200005 4294967295
-0.057811759 0.0067572189 0.86200005 4282790461
-0.15038601 0.0082300799 0.85900003 4280159339
-0.14888963 0.0082300799 0.85900003 4283117101
-0.14705008 0.0082109179 0.85700005 4287524975
-0.14555718 0.0082109179 0.85700005 4288576632
-0.14406429 0.0082109179 0.85700005 4289629576
-0.14257139 0.0082109179 0.85700005 4290022783
-0.1410785 0.0082109179 0.85700005 4291272850
-0.1395856 0.0082109179 0.85700005 4289302660
-0.13260977 0.0083354712 0.87000006 4279635727
-0.13109423 0.0083354712 0.87000006 4279372555
-0.12776874 0.0083163092 0.86800003 4280553247
-0.12625669 0.0083163092 0.86800003 4280882966
-0.12416977 0.0082779853 0.86400002 4281080345
-0.12238074 0.0082588224 0.86200005 4280882460
-0.12087914 0.0082588224 0.86200005 4280816667
-0.11937754 0.0082588224 0.86200005 4281272863
-0.11787593 0.0082588224 0.86200005 4281667365
-0.11691435 0.0082971472 0.86600006 4282254848
-0.11540577 0.0082971472 0.86600006 4281663488
-0.1138972 0.0082971472 0.86600006 4283236353
-0.11238863 0.0082971472 0.86600006 4285799977
-0.11062398 0.0082779853 0.86400002 4285870336
-0.10911889 0.0082779853 0.86400002 4287120393
-0.1076138 0.0082779853 0.86400002 4287250696
-0.10610872 0.0082779853 0.86400002 4287777040
-0.10460363 0.0082779853 0.86400002 4288171044
-0.10285989 0.0082588224 0.86200005 4288697644
-0.10135828 0.0082588224 0.86200005 4289027847
-0.099856675 0.0082588224 0.86200005 4289159433
-0.09835507 0.0082588224 0.86200005 4288896275
-0.096853472 0.0082588224 0.86200005 4287843587
-0.095351867 0.0082588224 0.86200005 4290205952
-0.093850262 0.0082588224 0.86200005 4291784966
-0.092348658 0.0082588224 0.86200005 4294817063
-0.090847053 0.0082588224 0.86200005 4294963556
-0.089345448 0.0082588224 0.86200005 4294967295
-0.087538123 0.0082300799 0.85900003 4294967295
-0.086041741 0.0082300799 0.85900003 4294967295
-0.084545366 0.0082300799 0.85900003 4294967295
-0.083048992 0.0082300799 0.85900003 4294966255
-0.08155261 0.0082300799 0.85900003 4294967285
-0.080056228 0.0082300799 0.85900003 4294967285
-0.078559853 0.0082300799 0.85900003 4292199097
-0.077063479 0.0082300799 0.85900003 4293245064
-0.075567096 0.0082300799 0.85900003 4294957995
-0.074070714 0.0082300799 0.85900003 4294299625
-0.07257434 0.0082300799 0.85900003 4293970661
-0.071326204 0.0082588224 0.86200005 4293182392
-0.069824599 0.0082588224 0.86200005 4288840310
-0.068322986 0.0082588224 0.86200005 4291341505
-0.066821381 0.0082588224 0.86200005 4294967295
-0.065319784 0.0082588224 0.86200005 4294967295
-0.063818179 0.0082588224 0.86200005 4294967295
-0.062316574 0.0082588224 0.86200005 4294967295
-0.060814973 0.0082588224 0.86200005 4294967295
-0.059313368 0.0082588224 0.86200005 4294966783
-0.057811759 0.0082588224 0.86200005 4279764749
-0.056114182 0.0082300799 0.85900003 4285407770
-0.0546178 0.0082300799 0.85900003 4294955464
-0.14888963 0.0097264582 0.85900003 4283311616
-0.14705008 0.0097038122 0.85700005 4287917116
-0.14555718 0.0097038122 0.85700005 4288773749
-0.14406429 0.0097038122 0.85700005 4289760644
-0.14257139 0.0097038122 0.85700005 4290088842
-0.1410785 0.0097038122 0.85700005 4290944150
-0.1395856 0.0097038122 0.85700005 4288578680
-0.13809271 0.0097038122 0.85700005 4278255616
-0.12266468 0.0097830733 0.86400002 4281278494
-0.12087914 0.0097604273 0.86200005 4281344287
-0.11937754 0.0097604273 0.86200005 4281475616
-0.11787593 0.0097604273 0.86200005 4281475616
-0.11691435 0.0098057194 0.86600006 4281080859
-0.11540577 0.0098057194 0.86600006 4279699206
-0.1138972 0.0098057194 0.86600006 4281466880
-0.11212907 0.0097830733 0.86400002 4282980356
-0.11062398 0.0097830733 0.86400002 4285282048
-0.10911889 0.0097830733 0.86400002 4284887552
-0.1076138 0.0097830733 0.86400002 4285345280
-0.10610872 0.0097830733 0.86400002 4285411072
-0.10460363 0.0097830733 0.86400002 4286922240
-0.10285989 0.0097604273 0.86200005 4286922240
-0.10135828 0.0097604273 0.86200005 4287251200
-0.099856675 0.0097604273 0.86200005 4287317248
-0.09835507 0.0097604273 0.86200005 4287908099
-0.096853472 0.0097604273 0.86200005 4287513344
-0.095351867 0.0097604273 0.86200005 4287644928
-0.093850262 0.0097604273 0.86200005 4287579136
-0.092348658 0.0097604273 0.86200005 4290205184
-0.090847053 0.0097604273 0.86200005 4294947145
-0.089034498 0.0097264582 0.85900003 4294958796
-0.087538123 0.0097264582 0.85900003 4294967281
-0.086041741 0.0097264582 0.85900003 4294967295
-0.084545366 0.0097264582 0.85900003 4294967295
-0.083048992 0.0097264582 0.85900003 4294967290
-0.08155261 0.0097264582 0.85900003 4294967292
