# .PCD v0.7 - Point Cloud Data file format
VERSION 0.7
FIELDS x y z rgba
SIZE 4 4 4 4
TYPE F F F U
COUNT 1 1 1 1
WIDTH 1009
HEIGHT 1
VIEWPOINT 0 0 0 1 0 0 0
POINTS 1009
DATA ascii
0.029600941 -0.11586653 0.97100008 4292449108
0.03129242 -0.11586653 0.97100008 4291921486
0.032983903 -0.11586653 0.97100008 4291724106
0.034675386 -0.11586653 0.97100008 4291920717
0.036366869 -0.11586653 0.97100008 4291789132
0.038058352 -0.11586653 0.97100008 4291789114
0.039749835 -0.11586653 0.97100008 4291591991
0.041441314 -0.11586653 0.97100008 4291526728
0.043132797 -0.11586653 0.97100008 4291658313
0.04482428 -0.11586653 0.97100008 4291133000
0.046515759 -0.11586653 0.97100008 4290935622
0.048207242 -0.11586653 0.97100008 4290738504
0.049898725 -0.11586653 0.97100008 4290080830
0.051749598 -0.11622451 0.97400004 4290342731
0.053446308 -0.11622451 0.97400004 4290671695
0.055143014 -0.11622451 0.97400004 4290344291
0.056839723 -0.11622451 0.97400004 4289291860
0.058536429 -0.11622451 0.97400004 4288369440
0.060356826 -0.11646316 0.97600007 4288040732
0.062057018 -0.11646316 0.97600007 4287910175
0.063757211 -0.11646316 0.97600007 4287910175
0.065457404 -0.11646316 0.97600007 4287845136
0.067364015 -0.11682114 0.97900003 4287910929
0.022764459 -0.1138223 0.96800005 4291593288
0.024450716 -0.1138223 0.96800005 4292118610
0.02613697 -0.1138223 0.96800005 4292579161
0.027823228 -0.1138223 0.96800005 4292382802
0.029509483 -0.1138223 0.96800005 4292119630
0.031195739 -0.1138223 0.96800005 4291593549
0.032881998 -0.1138223 0.96800005 4291396427
0.034568254 -0.1138223 0.96800005 4291197249
0.036254507 -0.1138223 0.96800005 4291328835
0.037940763 -0.1138223 0.96800005 4291920717
0.039627019 -0.1138223 0.96800005 4291723339
0.041441314 -0.11417505 0.97100008 4291394889
0.043132797 -0.11417505 0.97100008 4291658061
0.04482428 -0.11417505 0.97100008 4290936652
0.046515759 -0.11417505 0.97100008 4290739274
0.048207242 -0.11417505 0.97100008 4290477385
0.049898725 -0.11417505 0.97100008 4289753662
0.051590208 -0.11417505 0.97100008 4290407242
0.053446308 -0.1145278 0.97400004 4290736207
0.055143014 -0.1145278 0.97400004 4289819480
0.056839723 -0.1145278 0.97400004 4288240705
0.058536429 -0.1145278 0.97400004 4287779592
0.060233139 -0.1145278 0.97400004 4287647750
0.062057018 -0.11476298 0.97600007 4287844643
0.063757211 -0.11476298 0.97600007 4287976485
0.065457404 -0.11476298 0.97600007 4287714863
0.014259142 -0.11155683 0.96300006 4290476853
0.015936689 -0.11155683 0.96300006 4291003197
0.017614236 -0.11155683 0.96300006 4291199305
0.019351879 -0.11190435 0.96600002 4291857491
0.021078203 -0.11213604 0.96800005 4291790914
0.022764459 -0.11213604 0.96800005 4291922501
0.024450716 -0.11213604 0.96800005 4291922253
0.02613697 -0.11213604 0.96800005 4291922253
0.027823228 -0.11213604 0.96800005 4291856204
0.029509483 -0.11213604 0.96800005 4291527495
0.031195739 -0.11213604 0.96800005 4291724106
0.032881998 -0.11213604 0.96800005 4291855692
0.034568254 -0.11213604 0.96800005 4291460683
0.036254507 -0.11213604 0.96800005 4291197510
0.037940763 -0.11213604 0.96800005 4291132235
0.039627019 -0.11213604 0.96800005 4291198028
0.041313276 -0.11213604 0.96800005 4291198278
0.042999536 -0.11213604 0.96800005 4291132485
0.04482428 -0.11248356 0.97100008 4290936650
0.046515759 -0.11248356 0.97100008 4290739528
0.048207242 -0.11248356 0.97100008 4290543428
0.049898725 -0.11248356 0.97100008 4289293361
0.051590208 -0.11248356 0.97100008 4288895816
0.053446308 -0.11283109 0.97400004 4288764230
0.055143014 -0.11283109 0.97400004 4288172591
0.056839723 -0.11283109 0.97400004 4287777833
0.058536429 -0.11283109 0.97400004 4287517981
0.060233139 -0.11283109 0.97400004 4287649567
0.062057018 -0.11306278 0.97600007 4287714863
0.063757211 -0.11306278 0.97600007 4287714863
0.012581596 -0.10987928 0.96300006 4291131692
0.014259142 -0.10987928 0.96300006 4291329346
0.015936689 -0.10987928 0.96300006 4291526982
0.017614236 -0.10987928 0.96300006 4291658552
0.019291783 -0.10987928 0.96300006 4291658552
0.021034651 -0.11022158 0.96600002 4291527495
0.022717424 -0.11022158 0.96600002 4291922253
0.024400195 -0.11022158 0.96600002 4291659342
0.026082968 -0.11022158 0.96600002 4291659342
0.02776574 -0.11022158 0.96600002 4291790412
0.029448513 -0.11022158 0.96600002 4291593034
0.031131284 -0.11022158 0.96600002 4291789132
0.032814056 -0.11022158 0.96600002 4292052304
0.034496829 -0.11022158 0.96600002 4291658327
0.036179602 -0.11022158 0.96600002 4291000397
0.037862372 -0.11022158 0.96600002 4290869831
0.039627019 -0.11044978 0.96800005 4291198540
0.041313276 -0.11044978 0.96800005 4291133782
0.042999536 -0.11044978 0.96800005 4290804817
0.04482428 -0.11079209 0.97100008 4290542676
0.046515759 -0.11079209 0.97100008 4290476883
0.048207242 -0.11079209 0.97100008 4289886029
0.049898725 -0.11079209 0.97100008 4288964927
0.051590208 -0.11079209 0.97100008 4288110398
0.053446308 -0.11113438 0.97400004 4287518261
0.055143014 -0.11113438 0.97400004 4287713314
0.056839723 -0.11113438 0.97400004 4288042278
0.058536429 -0.11113438 0.97400004 4287714611
0.060356826 -0.11136259 0.97600007 4287780404
0.062057018 -0.11136259 0.97600007 4287780678
0.063757211 -0.11136259 0.97600007 4287385920
0.01090405 -0.10820173 0.96300006 4291397203
0.012581596 -0.10820173 0.96300006 4291265618
0.014259142 -0.10820173 0.96300006 4291527241
0.015936689 -0.10820173 0.96300006 4291395655
0.017614236 -0.10820173 0.96300006 4291460905
0.019291783 -0.10820173 0.96300006 4291526698
0.020969328 -0.10820173 0.96300006 4291724102
0.022646874 -0.10820173 0.96300006 4292250702
0.024324421 -0.10820173 0.96300006 4291988559
0.026001967 -0.10820173 0.96300006 4291593801
0.02776574 -0.10853881 0.96600002 4291396173
0.029448513 -0.10853881 0.96600002 4291330380
0.031034604 -0.10820173 0.96300006 4291198030
0.03271215 -0.10820173 0.96300006 4290868809
0.034496829 -0.10853881 0.96600002 4291000395
0.036179602 -0.10853881 0.96600002 4291132237
0.037862372 -0.10853881 0.96600002 4290805321
0.039627019 -0.10876352 0.96800005 4290673479
0.041313276 -0.10876352 0.96800005 4289883990
0.042999536 -0.10876352 0.96800005 4289423439
0.044685792 -0.10876352 0.96800005 4288698685
0.046515759 -0.1091006 0.97100008 4288698685
0.048207242 -0.1091006 0.97100008 4288436521
0.049898725 -0.1091006 0.97100008 4288173092
0.051590208 -0.1091006 0.97100008 4287780919
0.053446308 -0.10943767 0.97400004 4287780919
0.055143014 -0.10943767 0.97400004 4287781169
0.056839723 -0.10943767 0.97400004 4287846962
0.058536429 -0.10943767 0.97400004 4287189318
0.060356826 -0.1096624 0.97600007 4286926403
0.0058348295 -0.10586048 0.95700002 4292118612
0.0075019235 -0.10586048 0.95700002 4291857230
0.0091977613 -0.10619233 0.96000004 4292054352
0.010870081 -0.10619233 0.96000004 4291989075
0.012542401 -0.10619233 0.96000004 4291791696
0.014214721 -0.10619233 0.96000004 4291396425
0.015887043 -0.10619233 0.96000004 4291330632
0.017614236 -0.10652418 0.96300006 4291526963
0.019291783 -0.10652418 0.96300006 4291724343
0.020969328 -0.10652418 0.96300006 4291987783
0.022646874 -0.10652418 0.96300006 4292448334
0.024324421 -0.10652418 0.96300006 4291989341
0.026001967 -0.10652418 0.96300006 4291397203
0.027679512 -0.10652418 0.96300006 4291134282
0.029357059 -0.10652418 0.96300006 4291134282
0.031034604 -0.10652418 0.96300006 4290804045
0.03271215 -0.10652418 0.96300006 4290541129
0.034389697 -0.10652418 0.96300006 4290803797
0.036179602 -0.10685603 0.96600002 4291067226
0.037862372 -0.10685603 0.96600002 4290608982
0.039627019 -0.10707726 0.96800005 4289951309
0.041313276 -0.10707726 0.96800005 4288899912
0.042999536 -0.10707726 0.96800005 4288439361
0.044685792 -0.10707726 0.96800005 4288371241
0.046515759 -0.10740912 0.97100008 4287976483
0.048207242 -0.10740912 0.97100008 4288042790
0.049898725 -0.10740912 0.97100008 4288174376
0.051590208 -0.10740912 0.97100008 4287648829
0.053446308 -0.10774097 0.97400004 4287780415
0.055143014 -0.10774097 0.97400004 4287781176
0.05695644 -0.10796221 0.97600007 4287386674
0.0024954153 -0.10397564 0.95500004 4291858002
0.0041590254 -0.10397564 0.95500004 4291988294
0.0058348295 -0.10419338 0.95700002 4292514638
0.0075019235 -0.10419338 0.95700002 4292317779
0.0091977613 -0.10452002 0.96000004 4292186193
0.010870081 -0.10452002 0.96000004 4292120136
0.012542401 -0.10452002 0.96000004 4292120136
0.014214721 -0.10452002 0.96000004 4291593038
0.015887043 -0.10452002 0.96000004 4291527245
0.017559361 -0.10452002 0.96000004 4291593034
0.019231683 -0.10452002 0.96000004 4292053585
0.020904001 -0.10452002 0.96000004 4291790914
0.022576323 -0.10452002 0.96000004 4291593536
0.024324421 -0.10484664 0.96300006 4290935637
0.026001967 -0.10484664 0.96300006 4290540879
0.027679512 -0.10484664 0.96300006 4290936139
0.029357059 -0.10484664 0.96300006 4291528277
0.031034604 -0.10484664 0.96300006 4291397451
0.03271215 -0.10484664 0.96300006 4291002693
0.034389697 -0.10484664 0.96300006 4290211928
0.036179602 -0.10517326 0.96600002 4289619535
0.037862372 -0.10517326 0.96600002 4288764993
0.039627019 -0.10539101 0.96800005 4288567871
0.041313276 -0.10539101 0.96800005 4287911211
0.042999536 -0.10539101 0.96800005 4287845417
0.04482428 -0.10571764 0.97100008 4287844643
0.046515759 -0.10571764 0.97100008 4287976485
0.048207242 -0.10571764 0.97100008 4287781428
0.049898725 -0.10571764 0.97100008 4288044857
0.051590208 -0.10571764 0.97100008 4287059518
0.053446308 -0.10604426 0.97400004 4286730553
-0.0024875761 -0.10199063 0.95200002 4292251995
-0.00082919205 -0.10199063 0.95200002 4291857237
0.00083180511 -0.10231203 0.95500004 4291856204
0.0024954153 -0.10231203 0.95500004 4292053839
0.0041590254 -0.10231203 0.95500004 4291857230
0.0058226357 -0.10231203 0.95500004 4291988559
0.0074862456 -0.10231203 0.95500004 4292119634
0.0091690179 -0.10252628 0.95700002 4292119634
0.010836111 -0.10252628 0.95700002 4292053839
0.012503206 -0.10252628 0.95700002 4291922253
0.014170301 -0.10252628 0.95700002 4291396679
0.015837394 -0.10252628 0.95700002 4291396679
0.017504489 -0.10252628 0.95700002 4291593286
0.019171583 -0.10252628 0.95700002 4291922251
0.020904001 -0.10284769 0.96000004 4291528776
0.022576323 -0.10284769 0.96000004 4290607674
0.024248641 -0.10284769 0.96000004 4290802248
0.025920963 -0.10284769 0.96000004 4290999884
0.027679512 -0.10316909 0.96300006 4290935887
0.029357059 -0.10316909 0.96300006 4291396438
0.031034604 -0.10316909 0.96300006 4291463515
0.03271215 -0.10316909 0.96300006 4291002964
0.034389697 -0.10316909 0.96300006 4289292871
0.036179602 -0.10349049 0.96600002 4288371769
0.037862372 -0.10349049 0.96600002 4288370474
0.039627019 -0.10370475 0.96800005 4288436523
0.041313276 -0.10370475 0.96800005 4288042790
0.042999536 -0.10370475 0.96800005 4287911460
0.04482428 -0.10402615 0.97100008 4287649319
0.046515759 -0.10402615 0.97100008 4287780906
0.048207242 -0.10402615 0.97100008 4287781682
-0.0057921507 -0.10012146 0.95000005 4291595087
-0.0041459603 -0.10033224 0.95200002 4292121431
-0.0024875761 -0.10033224 0.95200002 4292250689
-0.00082919205 -0.10033224 0.95200002 4292119103
0.00083180511 -0.10064842 0.95500004 4291987279
0.0024954153 -0.10064842 0.95500004 4292118608
0.0041590254 -0.10064842 0.95500004 4291791181
0.0058226357 -0.10064842 0.95500004 4291791181
0.0074862456 -0.10064842 0.95500004 4291791687
0.0091498559 -0.10064842 0.95500004 4291791687
0.010813466 -0.10064842 0.95500004 4291527758
0.012477077 -0.10064842 0.95500004 4291264587
0.014140686 -0.10064842 0.95500004 4291461700
0.015804296 -0.10064842 0.95500004 4291461700
0.017467907 -0.10064842 0.95500004 4291462200
0.019131517 -0.10064842 0.95500004 4291791164
0.020838678 -0.10085919 0.95700002 4291462954
0.022505771 -0.10085919 0.95700002 4290673438
0.024248641 -0.10117537 0.96000004 4290803795
0.025920963 -0.10117537 0.96000004 4290606673
0.027593281 -0.10117537 0.96000004 4289686613
0.029265603 -0.10117537 0.96000004 4289292112
0.031034604 -0.10149155 0.96300006 4288697903
0.03271215 -0.10149155 0.96300006 4288500781
0.034389697 -0.10149155 0.96300006 4288566294
0.036179602 -0.10180771 0.96600002 4288697881
0.037862372 -0.10180771 0.96600002 4288436782
0.039627019 -0.1020185 0.96800005 4288502575
0.041313276 -0.1020185 0.96800005 4288240184
-0.0074470504 -0.09846656 0.95000005 4292053587
-0.0057921507 -0.09846656 0.95000005 4291987010
-0.0041459603 -0.098673858 0.95200002 4292447561
-0.0024875761 -0.098673858 0.95200002 4292250711
-0.00082919205 -0.098673858 0.95200002 4292119382
0.00083180511 -0.098984808 0.95500004 4292184403
0.0024954153 -0.098984808 0.95500004 4292118610
0.0041459603 -0.098673858 0.95200002 4291922253
0.0058043445 -0.098673858 0.95200002 4291988046
0.0074627283 -0.098673858 0.95200002 4291791694
0.0091211125 -0.098673858 0.95200002 4291528778
0.010779497 -0.098673858 0.95200002 4291330634
0.012437881 -0.098673858 0.95200002 4291264585
0.014096265 -0.098673858 0.95200002 4291264585
0.015754649 -0.098673858 0.95200002 4291198791
0.017413033 -0.098673858 0.95200002 4291002182
0.019131517 -0.098984808 0.95500004 4291199305
0.020795127 -0.098984808 0.95500004 4290936648
0.022458738 -0.098984808 0.95500004 4290542147
0.024172865 -0.099192105 0.95700002 4290410836
0.025920963 -0.099503048 0.96000004 4290410836
0.027593281 -0.099503048 0.96000004 4289228363
0.029265603 -0.099503048 0.96000004 4287780917
0.030937923 -0.099503048 0.96000004 4287844354
0.03271215 -0.099813998 0.96300006 4288304905
0.034389697 -0.099813998 0.96300006 4288436001
0.036067244 -0.099813998 0.96300006 4288567587
0.037862372 -0.10012494 0.96600002 4288240686
-0.0074470504 -0.096811667 0.95000005 4292054604
-0.0057921507 -0.096811667 0.95000005 4291921740
-0.0041459603 -0.09701547 0.95200002 4292250448
-0.0024875761 -0.09701547 0.95200002 4292316255
-0.00082919205 -0.09701547 0.95200002 4291987290
0.00082919205 -0.09701547 0.95200002 4292248915
0.0024875761 -0.09701547 0.95200002 4292314708
0.0041459603 -0.09701547 0.95200002 4291921990
0.0058043445 -0.09701547 0.95200002 4291921990
0.0074627283 -0.09701547 0.95200002 4291659583
0.0091211125 -0.09701547 0.95200002 4291462204
0.010779497 -0.09701547 0.95200002 4291066442
0.012437881 -0.09701547 0.95200002 4290671684
0.014096265 -0.09701547 0.95200002 4290804038
0.015754649 -0.09701547 0.95200002 4291132746
0.017413033 -0.09701547 0.95200002 4290606675
0.019071417 -0.09701547 0.95200002 4290146124
0.020729803 -0.09701547 0.95200002 4289357130
0.022458738 -0.097321197 0.95500004 4288633664
0.024122348 -0.097321197 0.95500004 4288698405
0.025839958 -0.097525008 0.95700002 4288698405
0.027593281 -0.097830735 0.96000004 4287843126
0.029265603 -0.097830735 0.96000004 4287514417
0.030937923 -0.097830735 0.96000004 4287647519
0.03271215 -0.098136455 0.96300006 4288371241
0.034389697 -0.098136455 0.96300006 4288240423
0.036067244 -0.098136455 0.96300006 4288240423
-0.015671903 -0.09485627 0.94700003 4291396908
-0.012411752 -0.095156759 0.95000005 4292119893
-0.010756851 -0.095156759 0.95000005 4292317529
-0.0091019515 -0.095156759 0.95000005 4292119128
-0.0074470504 -0.095156759 0.95000005 4291790162
-0.0057921507 -0.095156759 0.95000005 4291921467
-0.0041459603 -0.09535709 0.95200002 4292119103
-0.0024875761 -0.09535709 0.95200002 4292118612
-0.00082919205 -0.09535709 0.95200002 4291987283
0.00082919205 -0.09535709 0.95200002 4292248913
0.0024875761 -0.09535709 0.95200002 4291920204
0.0041459603 -0.09535709 0.95200002 4291919689
0.0058043445 -0.09535709 0.95200002 4291722309
0.0074627283 -0.09535709 0.95200002 4291525957
0.0091019515 -0.095156759 0.95000005 4291525957
0.010756851 -0.095156759 0.95000005 4290804034
0.012437881 -0.09535709 0.95200002 4290738240
0.014096265 -0.09535709 0.95200002 4290869831
0.015754649 -0.09535709 0.95200002 4290935624
0.017413033 -0.09535709 0.95200002 4290082627
0.019071417 -0.09535709 0.95200002 4289490490
0.020729803 -0.09535709 0.95200002 4288767810
0.022458738 -0.095657587 0.95500004 4287254571
0.024122348 -0.095657587 0.95500004 4287975439
0.025839958 -0.095857911 0.95700002 4287843852
0.027593281 -0.096158408 0.96000004 4287843617
0.029265603 -0.096158408 0.96000004 4288106788
0.030937923 -0.096158408 0.96000004 4288042528
0.032610245 -0.096158408 0.96000004 4288371237
0.034389697 -0.096458912 0.96300006 4287913266
-0.017321579 -0.093206592 0.94700003 4291400018
-0.015671903 -0.093206592 0.94700003 4291660096
-0.014066652 -0.093501858 0.95000005 4291660096
-0.012411752 -0.093501858 0.95000005 4291986762
-0.010756851 -0.093501858 0.95000005 4292381264
-0.0091019515 -0.093501858 0.95000005 4292119634
-0.0074470504 -0.093501858 0.95000005 4291659083
-0.0057921507 -0.093501858 0.95000005 4291789618
-0.0041372501 -0.093501858 0.95000005 4292053046
-0.0024875761 -0.093698703 0.95200002 4292248913
-0.00082745007 -0.093501858 0.95000005 4292314706
0.00082745007 -0.093501858 0.95000005 4292117313
0.0024823502 -0.093501858 0.95000005 4291788605
0.0041372501 -0.093501858 0.95000005 4291394889
0.0057921507 -0.093501858 0.95000005 4291066181
0.0074470504 -0.093501858 0.95000005 4291066440
0.0091019515 -0.093501858 0.95000005 4291198026
0.010756851 -0.093501858 0.95000005 4290936135
0.012411752 -0.093501858 0.95000005 4290936135
0.014066652 -0.093501858 0.95000005 4290277180
0.015721552 -0.093501858 0.95000005 4289684787
0.017376453 -0.093501858 0.95000005 4289488157
0.019071417 -0.093698703 0.95200002 4289093400
0.020729803 -0.093698703 0.95200002 4288568119
0.022388186 -0.093698703 0.95200002 4287910188
0.024122348 -0.093993977 0.95500004 4287712793
0.025785958 -0.093993977 0.95500004 4287778587
0.027593281 -0.094486088 0.96000004 4287910707
0.029265603 -0.094486088 0.96000004 4288568380
0.030937923 -0.094486088 0.96000004 4288240423
0.032610245 -0.094486088 0.96000004 4288108837
-0.018971253 -0.091556914 0.94700003 4291989077
-0.017321579 -0.091556914 0.94700003 4291857491
-0.015671903 -0.091556914 0.94700003 4291659079
-0.014022231 -0.091556914 0.94700003 4291790664
-0.012372556 -0.091556914 0.94700003 4292249417
-0.010722882 -0.091556914 0.94700003 4292512845
-0.0090732072 -0.091556914 0.94700003 4292119634
-0.0074235341 -0.091556914 0.94700003 4291921999
-0.0057921507 -0.091846958 0.95000005 4291790651
-0.0041372501 -0.091846958 0.95000005 4291790651
-0.0024823502 -0.091846958 0.95000005 4291921740
-0.00082745007 -0.091846958 0.95000005 4291987533
0.00082745007 -0.091846958 0.95000005 4291789899
0.0024823502 -0.091846958 0.95000005 4291526728
0.0041372501 -0.091846958 0.95000005 4291067977
0.0057921507 -0.091846958 0.95000005 4290936135
0.0074470504 -0.091846958 0.95000005 4290935637
0.0091019515 -0.091846958 0.95000005 4291001430
0.010756851 -0.091846958 0.95000005 4290936135
0.012411752 -0.091846958 0.95000005 4290738756
0.014066652 -0.091846958 0.95000005 4289423146
0.015721552 -0.091846958 0.95000005 4289357353
0.017376453 -0.091846958 0.95000005 4289356601
0.019031351 -0.091846958 0.95000005 4288698927
0.020729803 -0.092040323 0.95200002 4288238123
0.022388186 -0.092040323 0.95200002 4288172329
0.024122348 -0.092330366 0.95500004 4287975970
0.025785958 -0.092330366 0.95500004 4288107299
0.027507054 -0.092523724 0.95700002 4287715124
0.029265603 -0.092813767 0.96000004 4288109882
0.030937923 -0.092813767 0.96000004 4287781700
-0.025434945 -0.089432545 0.94200003 4291137375
-0.02379398 -0.089432545 0.94200003 4291597926
-0.018971253 -0.089907236 0.94700003 4291791183
-0.017266706 -0.089622423 0.94400007 4291593547
-0.015622257 -0.089622423 0.94400007 4291593038
-0.013977809 -0.089622423 0.94400007 4291921747
-0.012333361 -0.089622423 0.94400007 4292119362
-0.010688914 -0.089622423 0.94400007 4292251204
-0.0090444656 -0.089622423 0.94400007 4291987533
-0.0074000168 -0.089622423 0.94400007 4291921740
-0.0057738596 -0.089907236 0.94700003 4291856194
-0.0041241855 -0.089907236 0.94700003 4291856194
-0.0024823502 -0.090192057 0.95000005 4291659583
-0.00082745007 -0.090192057 0.95000005 4291527997
0.00082745007 -0.090192057 0.95000005 4291066955
0.0024823502 -0.090192057 0.95000005 4290869577
0.0041372501 -0.090192057 0.95000005 4291002441
0.0057921507 -0.090192057 0.95000005 4291265870
0.0074470504 -0.090192057 0.95000005 4290672731
0.0091019515 -0.090192057 0.95000005 4289225029
0.010756851 -0.090192057 0.95000005 4289225492
0.012411752 -0.090192057 0.95000005 4289554457
0.014066652 -0.090192057 0.95000005 4288962845
0.015721552 -0.090192057 0.95000005 4287975950
0.017376453 -0.090192057 0.95000005 4288303149
0.019031351 -0.090192057 0.95000005 4288303149
0.020729803 -0.090381935 0.95200002 4288238123
0.022388186 -0.090381935 0.95200002 4288303916
0.024122348 -0.090666749 0.95500004 4287781165
0.025785958 -0.090666749 0.95500004 4287847214
0.027507054 -0.090856634 0.95700002 4287517757
-0.030261159 -0.087511994 0.93900007 4289958482
-0.028625418 -0.087511994 0.93900007 4291004509
-0.02698968 -0.087511994 0.93900007 4291859817
-0.025434945 -0.087791584 0.94200003 4292055132
-0.02379398 -0.087791584 0.94200003 4292121181
-0.02220005 -0.087977976 0.94400007 4292055384
-0.018911155 -0.087977976 0.94400007 4291856978
-0.017266706 -0.087977976 0.94400007 4291593549
-0.015622257 -0.087977976 0.94400007 4291920717
-0.013977809 -0.087977976 0.94400007 4292381268
-0.012333361 -0.087977976 0.94400007 4292054091
-0.010688914 -0.087977976 0.94400007 4292054091
-0.0090444656 -0.087977976 0.94400007 4291856710
-0.0074000168 -0.087977976 0.94400007 4291659331
-0.0057555684 -0.087977976 0.94400007 4291659596
-0.0041241855 -0.088257566 0.94700003 4291725390
-0.0024745113 -0.088257566 0.94700003 4291332430
-0.00082483707 -0.088257566 0.94700003 4291200588
0.00082745007 -0.088537157 0.95000005 4290543189
0.0024823502 -0.088537157 0.95000005 4290543189
0.0041372501 -0.088537157 0.95000005 4291003216
0.0057921507 -0.088537157 0.95000005 4291266131
0.0074470504 -0.088537157 0.95000005 4289819732
0.0091019515 -0.088537157 0.95000005 4288635459
0.010756851 -0.088537157 0.95000005 4288897331
0.012411752 -0.088537157 0.95000005 4289226296
0.014066652 -0.088537157 0.95000005 4288503593
0.015721552 -0.088537157 0.95000005 4287648284
0.017376453 -0.088537157 0.95000005 4288040489
0.019031351 -0.088537157 0.95000005 4288303918
0.020729803 -0.088723555 0.95200002 4288108083
0.022388186 -0.088723555 0.95200002 4288173876
0.024122348 -0.089003146 0.95500004 4287781176
0.025785958 -0.089003146 0.95500004 4287518261
-0.031896897 -0.085876256 0.93900007 4287454296
-0.030261159 -0.085876256 0.93900007 4289691002
-0.028625418 -0.085876256 0.93900007 4290674012
-0.02698968 -0.085876256 0.93900007 4291924079
-0.025434945 -0.086150616 0.94200003 4291988296
-0.02379398 -0.086150616 0.94200003 4291922503
-0.02220005 -0.086333536 0.94400007 4291988559
-0.020555602 -0.086333536 0.94400007 4292054352
-0.018911155 -0.086333536 0.94400007 4291790412
-0.017230125 -0.086150616 0.94200003 4291395655
-0.01558916 -0.086150616 0.94200003 4291920717
-0.013948195 -0.086150616 0.94200003 4292512855
-0.012307231 -0.086150616 0.94200003 4292184907
-0.010666267 -0.086150616 0.94200003 4292119114
-0.0090253027 -0.086150616 0.94200003 4291856698
-0.0073843389 -0.086150616 0.94200003 4291659063
-0.0057433746 -0.086150616 0.94200003 4291132748
-0.0041111205 -0.086333536 0.94400007 4290935626
-0.0024745113 -0.086607896 0.94700003 4291002182
-0.00082483707 -0.086607896 0.94700003 4291462733
0.00082483707 -0.086607896 0.94700003 4290807127
0.0024745113 -0.086607896 0.94700003 4289030972
0.0041241855 -0.086607896 0.94700003 4288763948
0.0057921507 -0.086882263 0.95000005 4288895535
0.0074470504 -0.086882263 0.95000005 4288435499
0.0091019515 -0.086882263 0.95000005 4288172327
0.010756851 -0.086882263 0.95000005 4288041775
0.012411752 -0.086882263 0.95000005 4287712810
0.014066652 -0.086882263 0.95000005 4287844373
0.015721552 -0.086882263 0.95000005 4288107288
0.017376453 -0.086882263 0.95000005 4288107047
0.019031351 -0.086882263 0.95000005 4288172840
0.020729803 -0.087065168 0.95200002 4287715376
0.022458738 -0.087339535 0.95500004 4287781169
-0.033461209 -0.084061086 0.93700004 4287788081
-0.031896897 -0.084240519 0.93900007 4289559417
-0.030261159 -0.084240519 0.93900007 4289625210
-0.028625418 -0.084240519 0.93900007 4290737768
-0.02698968 -0.084240519 0.93900007 4291395698
-0.025434945 -0.084509656 0.94200003 4292052776
-0.02379398 -0.084509656 0.94200003 4292316205
-0.022153016 -0.084509656 0.94200003 4292053307
-0.020512052 -0.084509656 0.94200003 4292053307
-0.018871088 -0.084509656 0.94200003 4291724104
-0.017230125 -0.084509656 0.94200003 4291658311
-0.01558916 -0.084509656 0.94200003 4292051020
-0.013948195 -0.084509656 0.94200003 4292643157
-0.012307231 -0.084509656 0.94200003 4292381770
-0.010666267 -0.084509656 0.94200003 4292381770
-0.0090253027 -0.084509656 0.94200003 4291856710
-0.0073843389 -0.084509656 0.94200003 4291330109
-0.0057433746 -0.084509656 0.94200003 4291132235
-0.0041024103 -0.084509656 0.94200003 4291329358
-0.0024666723 -0.084689088 0.94400007 4291133532
-0.00082222413 -0.084689088 0.94400007 4291067739
0.00082483707 -0.084958218 0.94700003 4290149467
0.0024745113 -0.084958218 0.94700003 4288767814
0.0041241855 -0.084958218 0.94700003 4288240173
0.0057921507 -0.085227363 0.95000005 4288240173
0.0074470504 -0.085227363 0.95000005 4287910175
0.0091019515 -0.085227363 0.95000005 4287778589
0.010756851 -0.085227363 0.95000005 4287844393
0.012411752 -0.085227363 0.95000005 4287844393
0.014066652 -0.085227363 0.95000005 4287844895
0.015721552 -0.085227363 0.95000005 4288042274
0.017413033 -0.08540678 0.95200002 4288042038
0.019071417 -0.08540678 0.95200002 4288042038
0.020729803 -0.08540678 0.95200002 4287846712
-0.035093464 -0.082428835 0.93700004 4293118065
-0.033461209 -0.082428835 0.93700004 4293841789
-0.031828959 -0.082428835 0.93700004 4293903319
-0.030196704 -0.082428835 0.93700004 4293113546
-0.028625418 -0.082604781 0.93900007 4292256124
-0.02698968 -0.082604781 0.93900007 4288505667
-0.025353944 -0.082604781 0.93900007 4290934031
-0.023718204 -0.082604781 0.93900007 4292381477
-0.022082467 -0.082604781 0.93900007 4292183851
-0.020446729 -0.082604781 0.93900007 4292183851
-0.018810989 -0.082604781 0.93900007 4291724106
-0.017175252 -0.082604781 0.93900007 4291724106
-0.015539513 -0.082604781 0.93900007 4291920715
-0.013903775 -0.082604781 0.93900007 4291920715
-0.012268037 -0.082604781 0.93900007 4291856446
-0.010632298 -0.082604781 0.93900007 4291988033
-0.0089965602 -0.082604781 0.93900007 4291397681
-0.0073843389 -0.082868695 0.94200003 4291068459
-0.0057433746 -0.082868695 0.94200003 4291002441
-0.0041024103 -0.082868695 0.94200003 4290739526
-0.0024666723 -0.083044641 0.94400007 4289620831
-0.00082222413 -0.083044641 0.94400007 4287712834
0.00082483707 -0.083308548 0.94700003 4287448833
0.0024745113 -0.083308548 0.94700003 4287645956
0.0041241855 -0.083308548 0.94700003 4287646515
0.0057738596 -0.083308548 0.94700003 4287843893
0.0074470504 -0.083572462 0.95000005 4287647521
0.0091019515 -0.083572462 0.95000005 4287976485
0.010756851 -0.083572462 0.95000005 4287714863
0.012411752 -0.083572462 0.95000005 4287714863
0.014066652 -0.083572462 0.95000005 4287780652
0.015754649 -0.0837484 0.95200002 4287978030
0.017413033 -0.0837484 0.95200002 4287189320
0.019071417 -0.0837484 0.95200002 4286465854
-0.035093464 -0.080796577 0.93700004 4294366924
-0.033461209 -0.080796577 0.93700004 4294103496
-0.031828959 -0.080796577 0.93700004 4294428883
-0.030196704 -0.080796577 0.93700004 4293244353
-0.028564449 -0.080796577 0.93700004 4291666079
-0.026932195 -0.080796577 0.93700004 4286402639
-0.025353944 -0.080969043 0.93900007 4288628992
-0.023718204 -0.080969043 0.93900007 4290536973
-0.022082467 -0.080969043 0.93900007 4292510272
-0.020446729 -0.080969043 0.93900007 4292313150
-0.018810989 -0.080969043 0.93900007 4291593286
-0.017175252 -0.080969043 0.93900007 4291659079
-0.015539513 -0.080969043 0.93900007 4291658577
-0.013903775 -0.080969043 0.93900007 4291855956
-0.012268037 -0.080969043 0.93900007 4291528788
-0.010632298 -0.080969043 0.93900007 4291265872
-0.0089965602 -0.080969043 0.93900007 4290543189
-0.0073843389 -0.081227727 0.94200003 4290543189
-0.0057433746 -0.081227727 0.94200003 4290280018
-0.0041024103 -0.081227727 0.94200003 4290214225
-0.0024666723 -0.081400186 0.94400007 4288177990
-0.00082222413 -0.081400186 0.94400007 4286006564
0.00082483707 -0.08165887 0.94700003 4286792193
0.0024745113 -0.08165887 0.94700003 4287318538
0.0041241855 -0.08165887 0.94700003 4287319332
0.0057738596 -0.08165887 0.94700003 4287582761
0.0074470504 -0.081917554 0.95000005 4287649569
0.0091019515 -0.081917554 0.95000005 4287715362
0.010756851 -0.081917554 0.95000005 4287584308
0.012411752 -0.081917554 0.95000005 4287584308
0.014066652 -0.081917554 0.95000005 4287583806
0.015754649 -0.082090013 0.95200002 4287583806
0.017413033 -0.082090013 0.95200002 4286336562
-0.036725719 -0.079164326 0.93700004 4294366931
-0.035093464 -0.079164326 0.93700004 4294562520
-0.033461209 -0.079164326 0.93700004 4294036176
-0.031727049 -0.078910865 0.93400002 4294950313
-0.03010002 -0.078910865 0.93400002 4292515714
-0.028472994 -0.078910865 0.93400002 4293167464
-0.026845964 -0.078910865 0.93400002 4288101659
-0.02529994 -0.079164326 0.93700004 4288621568
-0.023667686 -0.079164326 0.93700004 4290529547
-0.022035431 -0.079164326 0.93700004 4291461187
-0.020403177 -0.079164326 0.93700004 4291724102
-0.018810989 -0.079333305 0.93900007 4291724593
-0.017175252 -0.079333305 0.93900007 4292053557
-0.015539513 -0.079333305 0.93900007 4291856206
-0.013903775 -0.079333305 0.93900007 4291329861
-0.012268037 -0.079333305 0.93900007 4291002192
-0.010632298 -0.079333305 0.93900007 4290344518
-0.0089965602 -0.079333305 0.93900007 4289620834
-0.0073843389 -0.079586759 0.94200003 4288502609
-0.0057433746 -0.079586759 0.94200003 4287645983
-0.0041024103 -0.079586759 0.94200003 4287383068
-0.0024614464 -0.079586759 0.94200003 4287056648
-0.00082222413 -0.079755738 0.94400007 4287188235
0.00082483707 -0.080009192 0.94700003 4287319332
0.0024745113 -0.080009192 0.94700003 4287450919
0.0041241855 -0.080009192 0.94700003 4287583274
0.0057738596 -0.080009192 0.94700003 4287911983
0.0074470504 -0.080262654 0.95000005 4287584810
0.0091019515 -0.080262654 0.95000005 4287781932
0.010756851 -0.080262654 0.95000005 4287059518
0.012437881 -0.080431633 0.95200002 4286664760
0.014096265 -0.080431633 0.95200002 4286532408
-0.039862186 -0.077283837 0.93400002 4294954960
-0.038235161 -0.077283837 0.93400002 4294959587
-0.036725719 -0.077532075 0.93700004 4294103764
-0.035093464 -0.077532075 0.93700004 4294036426
-0.033461209 -0.077532075 0.93700004 4293312446
-0.031727049 -0.077283837 0.93400002 4294616991
-0.03010002 -0.077283837 0.93400002 4293235338
-0.028472994 -0.077283837 0.93400002 4293616452
-0.026845964 -0.077283837 0.93400002 4290523924
-0.02529994 -0.077532075 0.93700004 4288812544
-0.023667686 -0.077532075 0.93700004 4291312917
-0.022035431 -0.077532075 0.93700004 4290738002
-0.020403177 -0.077532075 0.93700004 4291724897
-0.018770922 -0.077532075 0.93700004 4291659093
-0.017175252 -0.077697568 0.93900007 4291527506
-0.015539513 -0.077697568 0.93900007 4291396438
-0.013903775 -0.077697568 0.93900007 4291198803
-0.012268037 -0.077697568 0.93900007 4290936398
-0.010632298 -0.077697568 0.93900007 4290541641
-0.0089965602 -0.077697568 0.93900007 4289162320
-0.0073608216 -0.077697568 0.93900007 4286991151
-0.0057250839 -0.077697568 0.93900007 4287056142
-0.0041024103 -0.077945799 0.94200003 4287187985
-0.0024614464 -0.077945799 0.94200003 4287253526
-0.00082222413 -0.078111291 0.94400007 4287451161
0.00082483707 -0.078359522 0.94700003 4287385378
0.0024745113 -0.078359522 0.94700003 4287714342
0.0041241855 -0.078359522 0.94700003 4287584308
-0.039862186 -0.075656809 0.93400002 4294431443
-0.038235161 -0.075656809 0.93400002 4294693836
-0.03660813 -0.075656809 0.93400002 4293641148
-0.034981105 -0.075656809 0.93400002 4293697926
-0.033354074 -0.075656809 0.93400002 4290474069
-0.031727049 -0.075656809 0.93400002 4290850622
-0.03010002 -0.075656809 0.93400002 4288153109
-0.028472994 -0.075656809 0.93400002 4289598464
-0.026845964 -0.075656809 0.93400002 4290848771
-0.02529994 -0.075899825 0.93700004 4290535206
-0.023667686 -0.075899825 0.93700004 4293232719
-0.022035431 -0.075899825 0.93700004 4291660630
-0.020403177 -0.075899825 0.93700004 4290805321
-0.018770922 -0.075899825 0.93700004 4290408285
-0.017138667 -0.075899825 0.93700004 4290145370
-0.015506416 -0.075899825 0.93700004 4290144838
-0.013903775 -0.076061822 0.93900007 4290013252
-0.012268037 -0.076061822 0.93900007 4288764971
-0.010632298 -0.076061822 0.93900007 4288172833
-0.0089965602 -0.076061822 0.93900007 4287580722
-0.0073608216 -0.076061822 0.93900007 4287383342
-0.0057250839 -0.076061822 0.93900007 4287451434
-0.0041024103 -0.076304831 0.94200003 4287583020
-0.0024614464 -0.076304831 0.94200003 4287583274
-0.00082222413 -0.076466843 0.94400007 4287583274
-0.043023922 -0.073871262 0.93200004 4294958561
-0.041400377 -0.073871262 0.93200004 4294957536
-0.039776832 -0.073871262 0.93200004 4294035150
-0.038153287 -0.073871262 0.93200004 4294098885
-0.036529746 -0.073871262 0.93200004 4293769663
-0.034906197 -0.073871262 0.93200004 4293231724
-0.033282656 -0.073871262 0.93200004 4291192398
-0.031659111 -0.073871262 0.93200004 4290589696
-0.030035567 -0.073871262 0.93200004 4287892224
-0.028412024 -0.073871262 0.93200004 4286317056
-0.026788479 -0.073871262 0.93200004 4290264618
-0.025218936 -0.074029781 0.93400002 4291655009
-0.023591908 -0.074029781 0.93400002 4293102455
-0.02196488 -0.074029781 0.93400002 4291725932
-0.020403177 -0.074267566 0.93700004 4290410073
-0.018770922 -0.074267566 0.93700004 4289687115
-0.017138667 -0.074267566 0.93700004 4289687115
-0.015506416 -0.074267566 0.93700004 4289489221
-0.013874161 -0.074267566 0.93700004 4288962877
-0.012241906 -0.074267566 0.93700004 4287911712
-0.010632298 -0.074426085 0.93900007 4287187733
-0.0089965602 -0.074426085 0.93900007 4287515921
-0.0073608216 -0.074426085 0.93900007 4287910679
-0.0057433746 -0.07466387 0.94200003 4287649067
-0.0041024103 -0.07466387 0.94200003 4287649067
-0.0024614464 -0.07466387 0.94200003 4287714611
-0.00082222413 -0.074822396 0.94400007 4287911733
-0.046122067 -0.072015159 0.92900002 4294961116
-0.044503748 -0.072015159 0.92900002 4294957024
-0.04288543 -0.072015159 0.92900002 4294034123
-0.041267112 -0.072015159 0.92900002 4292846535
-0.039648794 -0.072015159 0.92900002 4289556885
-0.038030475 -0.072015159 0.92900002 4289811288
-0.036412157 -0.072015159 0.92900002 4288627013
-0.034793843 -0.072015159 0.92900002 4289401344
-0.033175521 -0.072015159 0.92900002 4288808960
-0.031659111 -0.072247714 0.93200004 4290071552
-0.030035567 -0.072247714 0.93200004 4292637204
-0.028412024 -0.072247714 0.93200004 4291594068
-0.026788479 -0.072247714 0.93200004 4292515170
-0.025218936 -0.072402753 0.93400002 4291462263
-0.023591908 -0.072402753 0.93400002 4289948768
-0.02196488 -0.072402753 0.93400002 4289354569
-0.020337852 -0.072402753 0.93400002 4289288775
-0.018710824 -0.072402753 0.93400002 4288962615
-0.017083796 -0.072402753 0.93400002 4288502064
-0.015506416 -0.072635315 0.93700004 4288238372
-0.013874161 -0.072635315 0.93700004 4288106786
-0.012241906 -0.072635315 0.93700004 4287583022
-0.010609652 -0.072635315 0.93700004 4287451180
-0.0089965602 -0.072790354 0.93900007 4287844895
-0.0073608216 -0.072790354 0.93900007 4288042274
-0.0057250839 -0.072790354 0.93900007 4287715376
-0.0041024103 -0.073022909 0.94200003 4287715376
-0.0024614464 -0.073022909 0.94200003 4287320896
-0.050702658 -0.070017956 0.92400002 4293969847
-0.049252443 -0.070245288 0.92700005 4294958284
-0.047637608 -0.070245288 0.92700005 4294957781
-0.046022777 -0.070245288 0.92700005 4294958553
-0.044503748 -0.070396833 0.92900002 4294957020
-0.04288543 -0.070396833 0.92900002 4292390579
-0.041267112 -0.070396833 0.92900002 4291530127
-0.039648794 -0.070396833 0.92900002 4286200895
-0.038030475 -0.070396833 0.92900002 4288741376
-0.036412157 -0.070396833 0.92900002 4289793280
-0.034793843 -0.070396833 0.92900002 4287628288
-0.033175521 -0.070396833 0.92900002 4289075715
-0.031557202 -0.070396833 0.92900002 4289420306
-0.029938886 -0.070396833 0.92900002 4292512321
-0.028320566 -0.070396833 0.92900002 4292909941
-0.026702249 -0.070396833 0.92900002 4292580976
-0.025164936 -0.070624173 0.93200004 4290872434
-0.023591908 -0.070775725 0.93400002 4288569679
-0.02196488 -0.070775725 0.93400002 4288894494
-0.020337852 -0.070775725 0.93400002 4289355045
-0.018710824 -0.070775725 0.93400002 4288766267
-0.017083796 -0.070775725 0.93400002 4287845165
-0.015506416 -0.071003057 0.93700004 4287713564
-0.013874161 -0.071003057 0.93700004 4287910942
-0.012241906 -0.071003057 0.93700004 4287715112
-0.010609652 -0.071003057 0.93700004 4287649319
-0.0089965602 -0.071154617 0.93900007 4287845415
-0.0073608216 -0.071154617 0.93900007 4288108331
-0.0057250839 -0.071154617 0.93900007 4288239431
-0.057017412 -0.068260275 0.92200005 4290156361
-0.055531479 -0.068408348 0.92400002 4293840769
-0.053805158 -0.068260275 0.92200005 4294038484
-0.052199036 -0.068260275 0.92200005 4294170070
-0.050702658 -0.068408348 0.92400002 4294366670
-0.049252443 -0.068630457 0.92700005 4294827221
-0.047637608 -0.068630457 0.92700005 4294958288
-0.046022777 -0.068630457 0.92700005 4293772986
-0.044407938 -0.068630457 0.92700005 4291990172
-0.042793106 -0.068630457 0.92700005 4285279543
-0.041178271 -0.068630457 0.92700005 4286513920
-0.03956344 -0.068630457 0.92700005 4285726720
-0.037948601 -0.068630457 0.92700005 4287365120
-0.03633377 -0.068630457 0.92700005 4292233526
-0.034718934 -0.068630457 0.92700005 4292054811
-0.033104103 -0.068630457 0.92700005 4293634100
-0.031489264 -0.068630457 0.92700005 4292320368
-0.029938886 -0.068778522 0.92900002 4291070558
-0.028320566 -0.068778522 0.92900002 4290276186
-0.026702249 -0.068778522 0.92900002 4289552719
-0.025164936 -0.069000624 0.93200004 4288962877
-0.023541391 -0.069000624 0.93200004 4288436532
-0.02196488 -0.069148697 0.93400002 4287910175
-0.020337852 -0.069148697 0.93400002 4287910175
-0.018710824 -0.069148697 0.93400002 4287845165
-0.017083796 -0.069148697 0.93400002 4287779372
-0.015506416 -0.069370806 0.93700004 4287583270
-0.013874161 -0.069370806 0.93700004 4287715112
-0.012241906 -0.069370806 0.93700004 4287518760
-0.010609652 -0.069370806 0.93700004 4287584810
-0.0089965602 -0.069518872 0.93900007 4287388208
-0.0073608216 -0.069518872 0.93900007 4287322415
-0.057017412 -0.066654153 0.92200005 4292911254
-0.055531479 -0.066798739 0.92400002 4294957005
-0.053921871 -0.066798739 0.92400002 4294829029
-0.052312266 -0.066798739 0.92400002 4294039769
-0.050702658 -0.066798739 0.92400002 4294366418
-0.049252443 -0.067015618 0.92700005 4294432467
-0.047637608 -0.067015618 0.92700005 4294496973
-0.046022777 -0.067015618 0.92700005 4292391596
-0.044407938 -0.067015618 0.92700005 4288638039
-0.042793106 -0.067015618 0.92700005 4284361494
-0.041178271 -0.067015618 0.92700005 4286185472
-0.039435398 -0.066798739 0.92400002 4287040000
-0.037825793 -0.066798739 0.92400002 4287309824
-0.036216184 -0.066798739 0.92400002 4292375622
-0.034606576 -0.066798739 0.92400002 4292450936
-0.032996967 -0.066798739 0.92400002 4292911487
-0.031387359 -0.066798739 0.92400002 4292385410
-0.029874435 -0.067015618 0.92700005 4290543206
-0.028320566 -0.067160204 0.92900002 4288636210
-0.026702249 -0.067160204 0.92900002 4288044073
-0.025164936 -0.067377083 0.93200004 4287912487
-0.023541391 -0.067377083 0.93200004 4287715108
-0.02196488 -0.067521669 0.93400002 4287320084
-0.020337852 -0.067521669 0.93400002 4287320084
-0.018710824 -0.067521669 0.93400002 4287451686
-0.017138667 -0.067738548 0.93700004 4287649065
-0.015506416 -0.067738548 0.93700004 4287452202
-0.013874161 -0.067738548 0.93700004 4287452202
-0.012268037 -0.067883134 0.93900007 4287255854
-0.010632298 -0.067883134 0.93900007 4287387697
-0.061835781 -0.065048032 0.92200005 4290947619
-0.060229655 -0.065048032 0.92200005 4293184136
-0.0587507 -0.065189131 0.92400002 4294171287
-0.057017412 -0.065048032 0.92200005 4294365902
-0.055411287 -0.065048032 0.92200005 4294826453
-0.053805158 -0.065048032 0.92200005 4294826199
-0.052312266 -0.065189131 0.92400002 4293510595
-0.050702658 -0.065189131 0.92400002 4293108669
-0.049093049 -0.065189131 0.92400002 4289950605
-0.04748344 -0.065189131 0.92400002 4287368806
-0.045873832 -0.065189131 0.92400002 4285661260
-0.044264223 -0.065189131 0.92400002 4286387200
-0.042654615 -0.065189131 0.92400002 4287768833
-0.041045006 -0.065189131 0.92400002 4289618688
-0.039435398 -0.065189131 0.92400002 4292053013
-0.037743919 -0.065048032 0.92200005 4291660137
-0.036137793 -0.065048032 0.92200005 4292120688
-0.034606576 -0.065189131 0.92400002 4290542956
-0.032996967 -0.065189131 0.92400002 4288897874
-0.031387359 -0.065189131 0.92400002 4288763937
-0.029874435 -0.065400787 0.92700005 4288369179
-0.028320566 -0.065541886 0.92900002 4287515167
-0.026702249 -0.065541886 0.92900002 4287054616
-0.025164936 -0.065753542 0.93200004 4287317760
-0.023541391 -0.065753542 0.93200004 4287778309
-0.02196488 -0.065894641 0.93400002 4287647017
-0.020337852 -0.065894641 0.93400002 4287844395
-0.018770922 -0.066106297 0.93700004 4287583524
-0.017138667 -0.066106297 0.93700004 4287978282
-0.015506416 -0.066106297 0.93700004 4287321899
-0.013874161 -0.066106297 0.93700004 4287124520
-0.061969914 -0.063579522 0.92400002 4294297420
-0.060360305 -0.063579522 0.92400002 4294692289
-0.0587507 -0.063579522 0.92400002 4294955461
-0.057017412 -0.06344191 0.92200005 4294234321
-0.055411287 -0.06344191 0.92200005 4294036685
-0.053805158 -0.06344191 0.92200005 4294035652
-0.052312266 -0.063579522 0.92400002 4292785841
-0.050702658 -0.063579522 0.92400002 4292646533
-0.049093049 -0.063579522 0.92400002 4284751373
-0.04748344 -0.063579522 0.92400002 4288413696
-0.045873832 -0.063579522 0.92400002 4288282624
-0.044264223 -0.063579522 0.92400002 4286060032
-0.042654615 -0.063579522 0.92400002 4288494353
-0.041045006 -0.063579522 0.92400002 4290668613
-0.03935004 -0.06344191 0.92200005 4292774246
-0.037743919 -0.06344191 0.92200005 4292252788
-0.036137793 -0.06344191 0.92200005 4291726444
-0.034606576 -0.063579522 0.92400002 4289360976
-0.033104103 -0.063785948 0.92700005 4287190063
-0.031489264 -0.063785948 0.92700005 4287647519
-0.029874435 -0.063785948 0.92700005 4287647519
-0.028320566 -0.063923568 0.92900002 4287253526
-0.026702249 -0.063923568 0.92900002 4287121940
-0.025164936 -0.064130001 0.93200004 4287383820
-0.023541391 -0.064130001 0.93200004 4287778577
-0.02196488 -0.064267613 0.93400002 4287647019
-0.061969914 -0.061969914 0.92400002 4294955198
-0.060360305 -0.061969914 0.92400002 4294823609
-0.0587507 -0.061969914 0.92400002 4294560694
-0.057017412 -0.061835781 0.92200005 4294689739
-0.055411287 -0.061835781 0.92200005 4293505464
-0.053805158 -0.061835781 0.92200005 4293365113
-0.052199036 -0.061835781 0.92200005 4289878085
-0.05059291 -0.061835781 0.92200005 4289869312
-0.048986789 -0.061835781 0.92200005 4286842624
-0.047380663 -0.061835781 0.92200005 4287704064
-0.045774542 -0.061835781 0.92200005 4289612057
-0.044168416 -0.061835781 0.92200005 4290148129
-0.042562291 -0.061835781 0.92200005 4291529782
-0.041045006 -0.061969914 0.92400002 4290740571
-0.03935004 -0.061835781 0.92200005 4289687882
-0.037743919 -0.061835781 0.92200005 4288499523
-0.036137793 -0.061835781 0.92200005 4288038972
-0.034606576 -0.061969914 0.92400002 4287450128
-0.032996967 -0.061969914 0.92400002 4287384335
-0.031489264 -0.062171116 0.92700005 4287253539
-0.029874435 -0.062171116 0.92700005 4287253539
-0.028320566 -0.062305249 0.92900002 4287646496
-0.026702249 -0.062305249 0.92900002 4287712290
-0.025164936 -0.062506445 0.93200004 4287647519
-0.066798739 -0.060360305 0.92400002 4292125815
-0.065189131 -0.060360305 0.92400002 4294956969
-0.063579522 -0.060360305 0.92400002 4294692553
-0.061969914 -0.060360305 0.92400002 4294957010
-0.060360305 -0.060360305 0.92400002 4294695637
-0.0587507 -0.060360305 0.92400002 4292985019
-0.057017412 -0.060229655 0.92200005 4294684582
-0.055411287 -0.060229655 0.92200005 4294158238
-0.053805158 -0.060229655 0.92200005 4293882440
-0.052199036 -0.060229655 0.92200005 4290855706
-0.05059291 -0.060229655 0.92200005 4290459392
-0.048986789 -0.060229655 0.92200005 4288485632
-0.047226496 -0.060033683 0.91900003 4287774489
-0.045625597 -0.060033683 0.91900003 4290603844
-0.044168416 -0.060229655 0.92200005 4291199577
-0.042562291 -0.060229655 0.92200005 4291528286
-0.041045006 -0.060360305 0.92400002 4290281051
-0.039435398 -0.060360305 0.92400002 4287780917
-0.037743919 -0.060229655 0.92200005 4287056896
-0.036137793 -0.060229655 0.92200005 4286793984
-0.034606576 -0.060360305 0.92400002 4287121688
-0.032996967 -0.060360305 0.92400002 4287187481
-0.031489264 -0.060556281 0.92700005 4287319332
-0.029874435 -0.060556281 0.92700005 4287450919
-0.028320566 -0.060686931 0.92900002 4287319332
-0.026702249 -0.060686931 0.92900002 4287582761
-0.069639072 -0.058432784 0.91900003 4293649638
-0.068038173 -0.058432784 0.91900003 4287004545
-0.066654153 -0.058623537 0.92200005 4289038592
-0.065048032 -0.058623537 0.92200005 4291867930
-0.06344191 -0.058623537 0.92200005 4294954169
-0.061835781 -0.058623537 0.92200005 4294959824
-0.060229655 -0.058623537 0.92200005 4294955945
-0.0587507 -0.0587507 0.92400002 4291134041
-0.057017412 -0.058623537 0.92200005 4291116097
-0.055411287 -0.058623537 0.92200005 4289668395
-0.053630088 -0.058432784 0.91900003 4289664512
-0.052029189 -0.058432784 0.91900003 4289796096
-0.050428294 -0.058432784 0.91900003 4290337041
-0.048827395 -0.058432784 0.91900003 4292245038
-0.047226496 -0.058432784 0.91900003 4290674512
-0.045625597 -0.058432784 0.91900003 4290871891
-0.044168416 -0.058623537 0.92200005 4289951309
-0.042562291 -0.058623537 0.92200005 4288174641
-0.040956166 -0.058623537 0.92200005 4287316489
-0.03935004 -0.058623537 0.92200005 4286461184
-0.037743919 -0.058623537 0.92200005 4286594048
-0.036137793 -0.058623537 0.92200005 4287186176
-0.034606576 -0.0587507 0.92400002 4287055913
-0.033104103 -0.05894145 0.92700005 4287318828
-0.031489264 -0.05894145 0.92700005 4287517727
-0.029938886 -0.059068613 0.92900002 4287715362
-0.074279763 -0.056708202 0.91700006 4294967295
-0.072682343 -0.056708202 0.91700006 4294967295
-0.071084931 -0.056708202 0.91700006 4294967295
-0.069639072 -0.056831881 0.91900003 4294967295
-0.068038173 -0.056831881 0.91900003 4294308084
-0.066437274 -0.056831881 0.91900003 4285434515
-0.064836375 -0.056831881 0.91900003 4286158238
-0.063235477 -0.056831881 0.91900003 4292257687
-0.061835781 -0.057017412 0.92200005 4293441705
-0.060229655 -0.057017412 0.92200005 4294940318
-0.058623537 -0.057017412 0.92200005 4294210942
-0.057017412 -0.057017412 0.92200005 4291840515
-0.055230986 -0.056831881 0.91900003 4289866752
-0.053630088 -0.056831881 0.91900003 4286915328
-0.052029189 -0.056831881 0.91900003 4287244288
-0.050428294 -0.056831881 0.91900003 4290141758
-0.048827395 -0.056831881 0.91900003 4292181341
-0.047226496 -0.056831881 0.91900003 4291067987
-0.045625597 -0.056831881 0.91900003 4290673229
-0.044024698 -0.056831881 0.91900003 4288571712
-0.042562291 -0.057017412 0.92200005 4286203164
-0.040956166 -0.057017412 0.92200005 4286921216
-0.03935004 -0.057017412 0.92200005 4286987008
-0.037743919 -0.057017412 0.92200005 4286987776
-0.036137793 -0.057017412 0.92200005 4287514376
-0.034606576 -0.057141092 0.92400002 4287383329
-0.033104103 -0.057326611 0.92700005 4287778087
-0.077221125 -0.05493049 0.91400003 4293315013
-0.075628936 -0.05493049 0.91400003 4294826233
-0.074036755 -0.05493049 0.91400003 4294967295
-0.072444558 -0.05493049 0.91400003 4294967295
-0.071084931 -0.05511079 0.91700006 4294967295
-0.06948752 -0.05511079 0.91700006 4294967295
-0.067890108 -0.05511079 0.91700006 4294967295
-0.066292688 -0.05511079 0.91700006 4294106353
-0.064695276 -0.05511079 0.91700006 4283974488
