# .PCD v0.7 - Point Cloud Data file format
VERSION 0.7
FIELDS x y z rgba
SIZE 4 4 4 4
TYPE F F F U
COUNT 1 1 1 1
WIDTH 1045
HEIGHT 1
VIEWPOINT 0 0 0 1 0 0 0
POINTS 1045
DATA ascii
-0.171783 0.065207422 0.80500007 4290212680
-0.1703807 0.065207422 0.80500007 4290212930
-0.16897838 0.065207422 0.80500007 4290212930
-0.16757607 0.065207422 0.80500007 4290409278
-0.16658661 0.065369427 0.80700004 4290738243
-0.1651808 0.065369427 0.80700004 4290607424
-0.16377501 0.065369427 0.80700004 4290607424
-0.16277161 0.065531433 0.80900002 4290672951
-0.16136234 0.065531433 0.80900002 4290936124
-0.15995307 0.065531433 0.80900002 4290805823
-0.15815185 0.065369427 0.80700004 4290937152
-0.15674606 0.065369427 0.80700004 4290347332
-0.15495528 0.065207422 0.80500007 4287452184
-0.15355296 0.065207422 0.80500007 4286270720
-0.15215066 0.065207422 0.80500007 4284362752
-0.15074834 0.065207422 0.80500007 4283709714
-0.14934604 0.065207422 0.80500007 4284564767
-0.14794372 0.065207422 0.80500007 4284763708
-0.14654142 0.065207422 0.80500007 4284697915
-0.1447785 0.065045416 0.80300003 4284566343
-0.14337967 0.065045416 0.80300003 4284500550
-0.14198086 0.065045416 0.80300003 4284434757
-0.14058203 0.065045416 0.80300003 4284368964
-0.13918321 0.065045416 0.80300003 4284368953
-0.13778438 0.065045416 0.80300003 4284237110
-0.13638555 0.065045416 0.80300003 4284433712
-0.13498671 0.065045416 0.80300003 4284762677
-0.1335879 0.065045416 0.80300003 4284960318
-0.13218908 0.065045416 0.80300003 4285026367
-0.13079025 0.065045416 0.80300003 4285157453
-0.12939142 0.065045416 0.80300003 4285157453
-0.12799259 0.065045416 0.80300003 4284829776
-0.12659377 0.065045416 0.80300003 4284632654
-0.12519494 0.065045416 0.80300003 4284829752
-0.12379612 0.065045416 0.80300003 4286079818
-0.12239729 0.065045416 0.80300003 4287589989
-0.12099846 0.065045416 0.80300003 4290484881
-0.11959963 0.065045416 0.80300003 4290617234
-0.11820081 0.065045416 0.80300003 4291998887
-0.1170929 0.065207422 0.80500007 4292325801
-0.1156906 0.065207422 0.80500007 4292917939
-0.11428829 0.065207422 0.80500007 4292590525
-0.11288597 0.065207422 0.80500007 4292656318
-0.11148366 0.065207422 0.80500007 4289636011
-0.11008135 0.065207422 0.80500007 4284043606
-0.10894905 0.065369427 0.80700004 4283640348
-0.10780977 0.065531433 0.80900002 4285153587
-0.1064005 0.065531433 0.80900002 4285680986
-0.20555688 0.067106202 0.81100005 4282974228
-0.20414414 0.067106202 0.81100005 4284223271
-0.20223141 0.06694071 0.80900002 4284686609
-0.20082213 0.06694071 0.80900002 4285936676
-0.19941285 0.06694071 0.80900002 4285741066
-0.19800358 0.06694071 0.80900002 4285872909
-0.1965943 0.06694071 0.80900002 4285872155
-0.19518502 0.06694071 0.80900002 4285872155
-0.19377574 0.06694071 0.80900002 4286134309
-0.19236647 0.06694071 0.80900002 4286200102
-0.19095717 0.06694071 0.80900002 4286463274
-0.18861072 0.066609733 0.80500007 4287055411
-0.18720841 0.066609733 0.80500007 4287383579
-0.18534447 0.066444241 0.80300003 4287515421
-0.18394564 0.066444241 0.80300003 4287581725
-0.18254681 0.066444241 0.80300003 4287713312
-0.18114798 0.066444241 0.80300003 4287975970
-0.17974916 0.066444241 0.80300003 4287844384
-0.17835034 0.066444241 0.80300003 4288369942
-0.17695151 0.066444241 0.80300003 4288764700
-0.17598994 0.066609733 0.80500007 4289947684
-0.17458762 0.066609733 0.80500007 4291592253
-0.17318532 0.066609733 0.80500007 4291132776
-0.171783 0.066609733 0.80500007 4290474846
-0.1703807 0.066609733 0.80500007 4290278723
-0.16897838 0.066609733 0.80500007 4290147137
-0.16757607 0.066609733 0.80500007 4290407992
-0.16617376 0.066609733 0.80500007 4290407992
-0.1651808 0.066775218 0.80700004 4290606141
-0.16377501 0.066775218 0.80700004 4290606141
-0.16196683 0.066609733 0.80500007 4290870064
-0.16056451 0.066609733 0.80500007 4291199030
-0.15916221 0.066609733 0.80500007 4290543669
-0.1577599 0.066609733 0.80500007 4289359138
-0.15635759 0.066609733 0.80500007 4288636672
-0.15495528 0.066609733 0.80500007 4286268160
-0.15355296 0.066609733 0.80500007 4285550129
-0.15215066 0.066609733 0.80500007 4285484336
-0.15074834 0.066609733 0.80500007 4284632370
-0.14934604 0.066609733 0.80500007 4284698163
-0.14794372 0.066609733 0.80500007 4284829752
-0.14654142 0.066609733 0.80500007 4284632372
-0.1451391 0.066609733 0.80500007 4284434757
-0.14373679 0.066609733 0.80500007 4284434757
-0.14233448 0.066609733 0.80500007 4284434757
-0.14058203 0.066444241 0.80300003 4284566343
-0.13918321 0.066444241 0.80300003 4284829250
-0.13778438 0.066444241 0.80300003 4284960835
-0.13638555 0.066444241 0.80300003 4285157703
-0.13498671 0.066444241 0.80300003 4285420619
-0.1335879 0.066444241 0.80300003 4285420619
-0.13218908 0.066444241 0.80300003 4285420619
-0.13079025 0.066444241 0.80300003 4285420619
-0.12906915 0.066278756 0.80100006 4285289032
-0.1276738 0.066278756 0.80100006 4285485912
-0.12659377 0.066444241 0.80300003 4285814877
-0.12519494 0.066444241 0.80300003 4286143046
-0.12379612 0.066444241 0.80300003 4288972145
-0.12239729 0.066444241 0.80300003 4289301125
-0.12099846 0.066444241 0.80300003 4290880157
-0.11959963 0.066444241 0.80300003 4291208342
-0.11820081 0.066444241 0.80300003 4291800479
-0.11680198 0.066444241 0.80300003 4292456608
-0.11540316 0.066444241 0.80300003 4292720037
-0.11400434 0.066444241 0.80300003 4292786102
-0.1126055 0.066444241 0.80300003 4292917689
-0.11120667 0.066444241 0.80300003 4291408552
-0.11008135 0.066609733 0.80500007 4288447866
-0.10867904 0.066609733 0.80500007 4285357156
-0.10727673 0.066609733 0.80500007 4284370261
-0.20414414 0.068518966 0.81100005 4282778625
-0.20273137 0.068518966 0.81100005 4283962880
-0.20131861 0.068518966 0.81100005 4285278732
-0.19941285 0.068349987 0.80900002 4285610273
-0.19800358 0.068349987 0.80900002 4285742115
-0.1965943 0.068349987 0.80900002 4285808421
-0.19518502 0.068349987 0.80900002 4285874215
-0.19377574 0.068349987 0.80900002 4286003486
-0.19236647 0.068349987 0.80900002 4286069279
-0.19095717 0.068349987 0.80900002 4286200604
-0.18861072 0.068012044 0.80500007 4286858277
-0.18720841 0.068012044 0.80500007 4287056667
-0.18534447 0.067843072 0.80300003 4287253789
-0.18394564 0.067843072 0.80300003 4287581476
-0.18254681 0.067843072 0.80300003 4287844391
-0.18114798 0.067843072 0.80300003 4287649319
-0.17974916 0.067843072 0.80300003 4287451684
-0.17835034 0.067843072 0.80300003 4287517718
-0.17695151 0.067843072 0.80300003 4287254289
-0.17555268 0.067843072 0.80300003 4288828672
-0.17415385 0.067843072 0.80300003 4290934046
-0.17275502 0.067843072 0.80300003 4291002446
-0.1713562 0.067843072 0.80300003 4290607688
-0.16995738 0.067843072 0.80300003 4290344531
-0.16855855 0.067843072 0.80300003 4290146896
-0.16715972 0.067843072 0.80300003 4290407742
-0.16576089 0.067843072 0.80300003 4290341949
-0.16477145 0.068012044 0.80500007 4290670649
-0.16336913 0.068012044 0.80500007 4291263042
-0.16196683 0.068012044 0.80500007 4290935624
-0.16056451 0.068012044 0.80500007 4291198540
-0.15916221 0.068012044 0.80500007 4290412360
-0.1577599 0.068012044 0.80500007 4288504363
-0.15635759 0.068012044 0.80500007 4287323904
-0.15495528 0.068012044 0.80500007 4285481728
-0.15355296 0.068012044 0.80500007 4284960318
-0.15215066 0.068012044 0.80500007 4285092160
-0.15074834 0.068012044 0.80500007 4284632120
-0.14934604 0.068012044 0.80500007 4284632120
-0.14794372 0.068012044 0.80500007 4284632120
-0.14654142 0.068012044 0.80500007 4284632120
-0.1451391 0.068012044 0.80500007 4284566075
-0.14337967 0.067843072 0.80300003 4284500282
-0.14198086 0.067843072 0.80300003 4284434757
-0.14058203 0.067843072 0.80300003 4284566343
-0.13918321 0.067843072 0.80300003 4284894025
-0.13778438 0.067843072 0.80300003 4285288782
-0.13638555 0.067843072 0.80300003 4285224010
-0.13498671 0.067843072 0.80300003 4285421132
-0.13325518 0.0676741 0.80100006 4285486412
-0.13185984 0.0676741 0.80100006 4285552461
-0.13013874 0.067505121 0.79900002 4285355859
-0.12874688 0.067505121 0.79900002 4285026894
-0.12735502 0.067505121 0.79900002 4285551435
-0.12596317 0.067505121 0.79900002 4286604379
-0.12457131 0.067505121 0.79900002 4287654498
-0.12348779 0.0676741 0.80100006 4289825924
-0.12209243 0.0676741 0.80100006 4289432694
-0.1206971 0.0676741 0.80100006 4290353796
-0.11930176 0.0676741 0.80100006 4290880143
-0.11790641 0.0676741 0.80100006 4292195746
-0.11680198 0.067843072 0.80300003 4292195233
-0.11540316 0.067843072 0.80300003 4292392869
-0.11400434 0.067843072 0.80300003 4293114804
-0.1126055 0.067843072 0.80300003 4292720046
-0.11120667 0.067843072 0.80300003 4292195498
-0.10980786 0.067843072 0.80300003 4291274396
-0.10840902 0.067843072 0.80300003 4288316558
-0.1070102 0.067843072 0.80300003 4284697943
-0.20273137 0.069931723 0.81100005 4282782208
-0.20131861 0.069931723 0.81100005 4283242758
-0.19990584 0.069931723 0.81100005 4283834659
-0.19800358 0.069759272 0.80900002 4284821554
-0.1965943 0.069759272 0.80900002 4284889386
-0.19518502 0.069759272 0.80900002 4285547060
-0.19377574 0.069759272 0.80900002 4285941023
-0.19236647 0.069759272 0.80900002 4285809694
-0.19095717 0.069759272 0.80900002 4286202149
-0.18907931 0.069586813 0.80700004 4286070563
-0.18720841 0.069414355 0.80500007 4286266131
-0.18534447 0.069241896 0.80300003 4286266131
-0.18394564 0.069241896 0.80300003 4286397997
-0.18254681 0.069241896 0.80300003 4287121719
-0.18114798 0.069241896 0.80300003 4287189018
-0.17974916 0.069241896 0.80300003 4287189018
-0.17835034 0.069241896 0.80300003 4287188768
-0.17695151 0.069241896 0.80300003 4286794011
-0.17555268 0.069241896 0.80300003 4288106754
-0.17415385 0.069241896 0.80300003 4288370183
-0.17275502 0.069241896 0.80300003 4289225216
-0.1713562 0.069241896 0.80300003 4290475266
-0.16995738 0.069241896 0.80300003 4290344026
-0.16855855 0.069241896 0.80300003 4290015317
-0.16715972 0.069241896 0.80300003 4290276177
-0.16576089 0.069241896 0.80300003 4290407506
-0.16436207 0.069241896 0.80300003 4290605376
-0.16296326 0.069241896 0.80300003 4291329098
-0.16156442 0.069241896 0.80300003 4291067726
-0.16016559 0.069241896 0.80300003 4291001932
-0.15876676 0.069241896 0.80300003 4290478125
-0.15736794 0.069241896 0.80300003 4288767251
-0.15596911 0.069241896 0.80300003 4287587584
-0.1545703 0.069241896 0.80300003 4285350656
-0.15317146 0.069241896 0.80300003 4284630853
-0.15177263 0.069241896 0.80300003 4284565060
-0.1503738 0.069241896 0.80300003 4284566075
-0.14897498 0.069241896 0.80300003 4284566075
-0.14757617 0.069241896 0.80300003 4284500282
-0.14617734 0.069241896 0.80300003 4284500282
-0.1447785 0.069241896 0.80300003 4284500282
-0.14337967 0.069241896 0.80300003 4284500282
-0.14198086 0.069241896 0.80300003 4284368710
-0.14058203 0.069241896 0.80300003 4284566345
-0.13883655 0.069069438 0.80100006 4284829265
-0.1374412 0.069069438 0.80100006 4285355609
-0.13604586 0.069069438 0.80100006 4285486664
-0.13465053 0.069069438 0.80100006 4285486664
-0.13292246 0.068896979 0.79900002 4285486412
-0.1315306 0.068896979 0.79900002 4285552461
-0.13013874 0.068896979 0.79900002 4285289812
-0.12874688 0.068896979 0.79900002 4284895310
-0.12735502 0.068896979 0.79900002 4285879623
-0.12596317 0.068896979 0.79900002 4289103480
-0.12457131 0.068896979 0.79900002 4290223996
-0.12317944 0.068896979 0.79900002 4289632115
-0.12178758 0.068896979 0.79900002 4288708974
-0.12039573 0.068896979 0.79900002 4289761662
-0.11900386 0.068896979 0.79900002 4291603335
-0.11761201 0.068896979 0.79900002 4292656279
-0.11651108 0.069069438 0.80100006 4292655005
-0.11511573 0.069069438 0.80100006 4292589211
-0.11400434 0.069241896 0.80300003 4292588962
-0.1126055 0.069241896 0.80300003 4291404688
-0.11120667 0.069241896 0.80300003 4291865739
-0.10980786 0.069241896 0.80300003 4293313441
-0.10840902 0.069241896 0.80300003 4290881969
-0.10674368 0.069069438 0.80100006 4284960599
-0.10534834 0.069069438 0.80100006 4284961364
-0.20131861 0.071344487 0.81100005 4281997084
-0.19990584 0.071344487 0.81100005 4282784774
-0.19849308 0.071344487 0.81100005 4284429599
-0.19708033 0.071344487 0.81100005 4284626728
-0.19566756 0.071344487 0.81100005 4284955693
-0.19377574 0.071168542 0.80900002 4285678368
-0.19236647 0.071168542 0.80900002 4286007590
-0.19095717 0.071168542 0.80900002 4286006834
-0.18907931 0.070992604 0.80700004 4285875248
-0.18720841 0.070816666 0.80500007 4285873953
-0.18534447 0.07064072 0.80300003 4285742111
-0.18394564 0.07064072 0.80300003 4286134559
-0.18254681 0.07064072 0.80300003 4287055661
-0.18114798 0.07064072 0.80300003 4287057971
-0.17974916 0.07064072 0.80300003 4286860848
-0.17835034 0.07064072 0.80300003 4286926371
-0.17695151 0.07064072 0.80300003 4287058214
-0.17555268 0.07064072 0.80300003 4287254291
-0.17415385 0.07064072 0.80300003 4287451671
-0.17275502 0.07064072 0.80300003 4287976192
-0.1713562 0.07064072 0.80300003 4289686543
-0.16995738 0.07064072 0.80300003 4290344791
-0.16855855 0.07064072 0.80300003 4290081875
-0.16715972 0.07064072 0.80300003 4290407992
-0.16576089 0.07064072 0.80300003 4290605628
-0.16436207 0.07064072 0.80300003 4290410043
-0.16296326 0.07064072 0.80300003 4291067973
-0.16156442 0.07064072 0.80300003 4291003214
-0.16016559 0.07064072 0.80300003 4290805834
-0.15876676 0.07064072 0.80300003 4289818183
-0.15736794 0.07064072 0.80300003 4289226046
-0.15558065 0.070464782 0.80100006 4286666034
-0.15380032 0.070288837 0.79900002 4284955159
-0.15240847 0.070288837 0.79900002 4284433976
-0.15139464 0.070464782 0.80100006 4284631355
-0.14999929 0.070464782 0.80100006 4284565812
-0.14860393 0.070464782 0.80100006 4284500019
-0.1472086 0.070464782 0.80100006 4284500282
-0.14581326 0.070464782 0.80100006 4284303160
-0.14441791 0.070464782 0.80100006 4284303409
-0.14302258 0.070464782 0.80100006 4284369203
-0.14162724 0.070464782 0.80100006 4284368710
-0.14023189 0.070464782 0.80100006 4284895310
-0.13883655 0.070464782 0.80100006 4285026644
-0.13709801 0.070288837 0.79900002 4285223767
-0.13570617 0.070288837 0.79900002 4285486412
-0.13431431 0.070288837 0.79900002 4285420619
-0.13292246 0.070288837 0.79900002 4285749070
-0.13136597 0.070200868 0.79800004 4285683277
-0.12997587 0.070200868 0.79800004 4285354826
-0.12858574 0.070200868 0.79800004 4284960068
-0.12719563 0.070200868 0.79800004 4286405971
-0.12580551 0.070200868 0.79800004 4290682516
-0.1244154 0.070200868 0.79800004 4289897620
-0.12302528 0.070200868 0.79800004 4288318845
-0.12163517 0.070200868 0.79800004 4287590493
-0.12024504 0.070200868 0.79800004 4291340694
-0.11885493 0.070200868 0.79800004 4292327589
-0.11746481 0.070200868 0.79800004 4292853933
-0.11622015 0.070288837 0.79900002 4292984501
-0.1148283 0.070288837 0.79900002 4292852916
-0.11372038 0.070464782 0.80100006 4291999391
-0.11232505 0.070464782 0.80100006 4291078289
-0.11092971 0.070464782 0.80100006 4291536274
-0.10953436 0.070464782 0.80100006 4292852134
-0.10813902 0.070464782 0.80100006 4291866284
-0.10647715 0.070288837 0.79900002 4285681742
-0.19708033 0.072757252 0.81100005 4283379253
-0.19566756 0.072757252 0.81100005 4282852909
-0.1942548 0.072757252 0.81100005 4283902251
-0.19236647 0.072577827 0.80900002 4285152574
-0.19095717 0.072577827 0.80900002 4285416503
-0.18907931 0.072398394 0.80700004 4285679932
-0.18720841 0.072218977 0.80500007 4285941554
-0.18534447 0.072039545 0.80300003 4285875761
-0.18394564 0.072039545 0.80300003 4286071344
-0.18254681 0.072039545 0.80300003 4286137137
-0.18114798 0.072039545 0.80300003 4286334254
-0.17974916 0.072039545 0.80300003 4286202412
-0.17835034 0.072039545 0.80300003 4286268205
-0.17695151 0.072039545 0.80300003 4286662963
-0.17555268 0.072039545 0.80300003 4286662681
-0.17415385 0.072039545 0.80300003 4286662681
-0.17275502 0.072039545 0.80300003 4287121438
-0.17092942 0.07186012 0.80100006 4286858266
-0.16953409 0.07186012 0.80100006 4288237343
-0.16813874 0.07186012 0.80100006 4289158445
-0.16674338 0.07186012 0.80100006 4289948936
-0.16576089 0.072039545 0.80300003 4290870038
-0.16436207 0.072039545 0.80300003 4290476077
-0.16296326 0.072039545 0.80300003 4290410284
-0.16116203 0.07186012 0.80100006 4289556501
-0.15976669 0.07186012 0.80100006 4287517184
-0.15837133 0.07186012 0.80100006 4286068766
-0.15697598 0.07186012 0.80100006 4285279250
-0.15558065 0.07186012 0.80100006 4284496185
-0.15380032 0.071680695 0.79900002 4284628027
-0.15240847 0.071680695 0.79900002 4284237364
-0.15101661 0.071680695 0.79900002 4284500280
-0.14962475 0.071680695 0.79900002 4284369203
-0.14823289 0.071680695 0.79900002 4284303409
-0.14684103 0.071680695 0.79900002 4284368953
-0.14544918 0.071680695 0.79900002 4284303160
-0.14405732 0.071680695 0.79900002 4284433710
-0.14266545 0.071680695 0.79900002 4284499759
-0.1412736 0.071680695 0.79900002 4284566343
-0.13988173 0.071680695 0.79900002 4285290066
-0.13848989 0.071680695 0.79900002 4285421402
-0.13692644 0.071590982 0.79800004 4285223767
-0.13553631 0.071590982 0.79800004 4285420369
-0.13414621 0.071590982 0.79800004 4285551955
-0.1327561 0.071590982 0.79800004 4285749322
-0.13136597 0.071590982 0.79800004 4285420357
-0.12997587 0.071590982 0.79800004 4285288519
-0.12858574 0.071590982 0.79800004 4286472537
-0.12719563 0.071590982 0.79800004 4287261058
-0.12580551 0.071590982 0.79800004 4290550708
-0.1244154 0.071590982 0.79800004 4289630074
-0.12302528 0.071590982 0.79800004 4288577386
-0.12163517 0.071590982 0.79800004 4289825435
-0.12024504 0.071590982 0.79800004 4293115085
-0.11885493 0.071590982 0.79800004 4293313721
-0.11746481 0.071590982 0.79800004 4293247928
-0.1160747 0.071590982 0.79800004 4293247687
-0.1148283 0.071680695 0.79900002 4292852929
-0.11343643 0.071680695 0.79900002 4292326301
-0.11204458 0.071680695 0.79900002 4292655523
-0.11065271 0.071680695 0.79900002 4292787876
-0.10953436 0.07186012 0.80100006 4290024571
-0.10813902 0.07186012 0.80100006 4288378446
-0.10647715 0.071680695 0.79900002 4285746983
-0.10508529 0.071680695 0.79900002 4286405467
-0.18720841 0.073621288 0.80500007 4285483582
-0.1858061 0.073621288 0.80500007 4285417788
-0.18394564 0.073438369 0.80300003 4285941052
-0.18254681 0.073438369 0.80300003 4285875259
-0.18114798 0.073438369 0.80300003 4286071344
-0.17974916 0.073438369 0.80300003 4285939758
-0.17835034 0.073438369 0.80300003 4286202662
-0.17695151 0.073438369 0.80300003 4286597420
-0.17555268 0.073438369 0.80300003 4286466352
-0.17415385 0.073438369 0.80300003 4286466352
-0.17275502 0.073438369 0.80300003 4286466602
-0.17092942 0.073255464 0.80100006 4285808671
-0.16953409 0.073255464 0.80100006 4286660096
-0.16813874 0.073255464 0.80100006 4288173331
-0.16674338 0.073255464 0.80100006 4289159710
-0.16534805 0.073255464 0.80100006 4290672949
-0.16395271 0.073255464 0.80100006 4289886779
-0.16255736 0.073255464 0.80100006 4290018365
-0.16116203 0.073255464 0.80100006 4288441650
-0.15976669 0.073255464 0.80100006 4286599446
-0.15837133 0.073255464 0.80100006 4284563987
-0.15658404 0.073072553 0.79900002 4282392832
-0.15519218 0.073072553 0.79900002 4283248430
-0.15360783 0.072981097 0.79800004 4284498754
-0.15221772 0.072981097 0.79800004 4284368953
-0.15082762 0.072981097 0.79800004 4284368953
-0.14943749 0.072981097 0.79800004 4284303169
-0.14804737 0.072981097 0.79800004 4284237376
-0.14665726 0.072981097 0.79800004 4284237364
-0.14526714 0.072981097 0.79800004 4284171571
-0.14387701 0.072981097 0.79800004 4284367667
-0.14266545 0.073072553 0.79900002 4284828218
-0.14109679 0.072981097 0.79800004 4284566343
-0.13970667 0.072981097 0.79800004 4285290066
-0.13831656 0.072981097 0.79800004 4285486677
-0.13692644 0.072981097 0.79800004 4285552470
-0.13553631 0.072981097 0.79800004 4285552461
-0.13414621 0.072981097 0.79800004 4285486412
-0.1327561 0.072981097 0.79800004 4285551687
-0.13103674 0.072798193 0.79600006 4285288771
-0.1296501 0.072798193 0.79600006 4285419858
-0.12826347 0.072798193 0.79600006 4287656563
-0.12687685 0.072798193 0.79600006 4289232266
-0.1254902 0.072798193 0.79600006 4288574335
-0.12410358 0.072798193 0.79600006 4288506452
-0.12271695 0.072798193 0.79600006 4291401345
-0.12133032 0.072798193 0.79600006 4291602848
-0.11994369 0.072798193 0.79600006 4293313467
-0.11855705 0.072798193 0.79600006 4293444287
-0.11717042 0.072798193 0.79600006 4293707202
-0.1160747 0.072981097 0.79800004 4293511879
-0.11468459 0.072981097 0.79800004 4292196019
-0.11329447 0.072981097 0.79800004 4292587933
-0.11204458 0.073072553 0.79900002 4293640364
-0.11065271 0.073072553 0.79900002 4293116850
-0.10926086 0.073072553 0.79900002 4285879877
-0.107869 0.073072553 0.79900002 4285941504
-0.10634389 0.072981097 0.79800004 4286533632
-0.10495377 0.072981097 0.79800004 4286997338
-0.18440379 0.075023599 0.80500007 4285482569
-0.18254681 0.0748372 0.80300003 4285613898
-0.18114798 0.0748372 0.80300003 4286138168
-0.17974916 0.0748372 0.80300003 4286006582
-0.17835034 0.0748372 0.80300003 4286072107
-0.17695151 0.0748372 0.80300003 4285743399
-0.17555268 0.0748372 0.80300003 4285808169
-0.17415385 0.0748372 0.80300003 4285808169
-0.17275502 0.0748372 0.80300003 4285611043
-0.1713562 0.0748372 0.80300003 4285018906
-0.16953409 0.074650809 0.80100006 4285476615
-0.16813874 0.074650809 0.80100006 4285476615
-0.16674338 0.074650809 0.80100006 4286065674
-0.16534805 0.074650809 0.80100006 4287118106
-0.16395271 0.074650809 0.80100006 4286792964
-0.16215147 0.074464411 0.79900002 4288305946
-0.16075961 0.074464411 0.79900002 4287783688
-0.15936776 0.074464411 0.79900002 4287126016
-0.1579759 0.074464411 0.79900002 4284959538
-0.15638806 0.074371211 0.79800004 4283380763
-0.15499796 0.074371211 0.79800004 4283974208
-0.15322286 0.07418482 0.79600006 4284500552
-0.15183623 0.07418482 0.79600006 4284500532
-0.15044959 0.07418482 0.79600006 4284500532
-0.14906296 0.07418482 0.79600006 4284499780
-0.14767633 0.07418482 0.79600006 4284302658
-0.14628969 0.07418482 0.79600006 4284237364
-0.14526714 0.074371211 0.79800004 4284237364
-0.14387701 0.074371211 0.79800004 4284302656
-0.14248691 0.074371211 0.79800004 4284631620
-0.14109679 0.074371211 0.79800004 4284959818
-0.13970667 0.074371211 0.79800004 4285354576
-0.1379699 0.07418482 0.79600006 4285223760
-0.13658327 0.07418482 0.79600006 4285552468
-0.13519664 0.07418482 0.79600006 4285749070
-0.13381 0.07418482 0.79600006 4285551435
-0.13242337 0.07418482 0.79600006 4285551687
-0.13103674 0.07418482 0.79600006 4285749322
-0.1296501 0.07418482 0.79600006 4287063674
-0.12826347 0.07418482 0.79600006 4290682289
-0.12687685 0.07418482 0.79600006 4289825685
-0.1254902 0.07418482 0.79600006 4287128173
-0.12410358 0.07418482 0.79600006 4288770406
-0.12271695 0.07418482 0.79600006 4293112744
-0.12133032 0.07418482 0.79600006 4293377958
-0.11994369 0.07418482 0.79600006 4293509800
-0.11855705 0.07418482 0.79600006 4293641650
-0.11717042 0.07418482 0.79600006 4293707443
-0.11578379 0.07418482 0.79600006 4293445041
-0.11468459 0.074371211 0.79800004 4292392096
-0.11329447 0.074371211 0.79800004 4292786339
-0.11190435 0.074371211 0.79800004 4292259995
-0.11051423 0.074371211 0.79800004 4290617695
-0.10926086 0.074464411 0.79900002 4282590976
-0.107869 0.074464411 0.79900002 4282851072
-0.10634389 0.074371211 0.79800004 4285745945
-0.10495377 0.074371211 0.79800004 4287061837
-0.18300147 0.07642591 0.80500007 4285352266
-0.18159917 0.07642591 0.80500007 4285483332
-0.18019685 0.07642591 0.80500007 4285483332
-0.17835034 0.076236024 0.80300003 4285548597
-0.17695151 0.076236024 0.80300003 4285482548
-0.17555268 0.076236024 0.80300003 4285154087
-0.17415385 0.076236024 0.80300003 4284561950
-0.17275502 0.076236024 0.80300003 4284823843
-0.1713562 0.076236024 0.80300003 4284165657
-0.16995738 0.076236024 0.80300003 4284230659
-0.16813874 0.076046146 0.80100006 4283901696
-0.16674338 0.076046146 0.80100006 4284557312
-0.16493519 0.075856268 0.79900002 4284359936
-0.16354333 0.075856268 0.79900002 4286004480
-0.16215147 0.075856268 0.79900002 4288175380
-0.16055842 0.075761326 0.79800004 4287457092
-0.1591683 0.075761326 0.79800004 4286273075
-0.15777819 0.075761326 0.79800004 4284041012
-0.15638806 0.075761326 0.79800004 4283317546
-0.15460949 0.075571455 0.79600006 4284499780
-0.15322286 0.075571455 0.79600006 4284499780
-0.15183623 0.075571455 0.79600006 4284369203
-0.15044959 0.075571455 0.79600006 4284500532
-0.14906296 0.075571455 0.79600006 4284368449
-0.14767633 0.075571455 0.79600006 4284236862
-0.14628969 0.075571455 0.79600006 4284171069
-0.14490306 0.075571455 0.79600006 4284105276
-0.14351644 0.075571455 0.79600006 4284303169
-0.14212979 0.075571455 0.79600006 4284566597
-0.14074317 0.075571455 0.79600006 4284829765
-0.13935654 0.075571455 0.79600006 4285158730
-0.1379699 0.075571455 0.79600006 4285420369
-0.13624008 0.075381577 0.79400003 4285749333
-0.13485694 0.075381577 0.79400003 4285683277
-0.1334738 0.075381577 0.79400003 4285617484
-0.13209064 0.075381577 0.79400003 4285815376
-0.1307075 0.075381577 0.79400003 4286407514
-0.12932436 0.075381577 0.79400003 4289098131
-0.12794119 0.075381577 0.79400003 4290085026
-0.12655805 0.075381577 0.79400003 4289693293
-0.12517491 0.075381577 0.79400003 4288640349
-0.12379176 0.075381577 0.79400003 4289692798
-0.12240861 0.075381577 0.79400003 4293509048
-0.12133032 0.075571455 0.79600006 4293444026
-0.11994369 0.075571455 0.79600006 4293444026
-0.11855705 0.075571455 0.79600006 4293444787
-0.11717042 0.075571455 0.79600006 4293378994
-0.11578379 0.075571455 0.79600006 4292853935
-0.11468459 0.075761326 0.79800004 4293182644
-0.11329447 0.075761326 0.79800004 4293314482
-0.11190435 0.075761326 0.79800004 4289037937
-0.11051423 0.075761326 0.79800004 4288637507
-0.10926086 0.075856268 0.79900002 4282847744
-0.107869 0.075856268 0.79900002 4282850560
-0.10634389 0.075761326 0.79800004 4285548054
-0.10495377 0.075761326 0.79800004 4287125581
-0.18019685 0.077828221 0.80500007 4285220423
-0.17879456 0.077828221 0.80500007 4285220664
-0.17739224 0.077828221 0.80500007 4285351993
-0.17555268 0.077634849 0.80300003 4285417257
-0.17415385 0.077634849 0.80300003 4284364826
-0.17275502 0.077634849 0.80300003 4284299044
-0.1713562 0.077634849 0.80300003 4283904286
-0.16995738 0.077634849 0.80300003 4284165911
-0.16813874 0.077441491 0.80100006 4284231704
-0.16674338 0.077441491 0.80100006 4284427800
-0.16493519 0.077248126 0.79900002 4284296214
-0.16354333 0.077248126 0.79900002 4285217293
-0.16194853 0.077151448 0.79800004 4286269724
-0.16055842 0.077151448 0.79800004 4284693034
-0.1591683 0.077151448 0.79800004 4283837982
-0.15777819 0.077151448 0.79800004 4283707956
-0.15599613 0.07695809 0.79600006 4284102714
-0.15460949 0.07695809 0.79600006 4284237866
-0.15322286 0.07695809 0.79600006 4284237866
-0.15145472 0.076764718 0.79400003 4284171571
-0.15007158 0.076764718 0.79400003 4284237364
-0.14868842 0.076764718 0.79400003 4284171571
-0.14730528 0.076764718 0.79400003 4284039729
-0.14628969 0.07695809 0.79600006 4284105276
-0.14490306 0.07695809 0.79600006 4284105276
-0.14351644 0.07695809 0.79600006 4284432958
-0.14212979 0.07695809 0.79600006 4285090888
-0.14074317 0.07695809 0.79600006 4285026367
-0.13935654 0.07695809 0.79600006 4285157953
-0.13762325 0.076764718 0.79400003 4285420369
-0.13624008 0.076764718 0.79400003 4285880920
-0.13485694 0.076764718 0.79400003 4285880906
-0.1334738 0.076764718 0.79400003 4286144078
-0.13209064 0.076764718 0.79400003 4287392110
-0.1307075 0.076764718 0.79400003 4290221209
-0.12932436 0.076764718 0.79400003 4290023821
-0.12794119 0.076764718 0.79400003 4286799964
-0.12655805 0.076764718 0.79400003 4287323737
-0.12517491 0.076764718 0.79400003 4291402903
-0.12379176 0.076764718 0.79400003 4292456874
-0.12240861 0.076764718 0.79400003 4293904577
-0.12102547 0.076764718 0.79400003 4293904575
-0.11964231 0.076764718 0.79400003 4293641146
-0.11855705 0.07695809 0.79600006 4293115054
-0.11717042 0.07695809 0.79600006 4292851882
-0.11578379 0.07695809 0.79600006 4293312946
-0.11439716 0.07695809 0.79600006 4294497477
-0.11329447 0.077151448 0.79800004 4292985773
-0.11190435 0.077151448 0.79800004 4284958771
-0.11051423 0.077151448 0.79800004 4282187800
-0.10912412 0.077151448 0.79800004 4282122263
-0.107734 0.077151448 0.79800004 4282784547
-0.10634389 0.077151448 0.79800004 4285416523
-0.10495377 0.077151448 0.79800004 4286599500
-0.17879456 0.079230525 0.80500007 4285089591
-0.17739224 0.079230525 0.80500007 4285155384
-0.17598994 0.079230525 0.80500007 4285483586
-0.17458762 0.079230525 0.80500007 4284364848
-0.17275502 0.07903368 0.80300003 4284166438
-0.1713562 0.07903368 0.80300003 4284100645
-0.16995738 0.07903368 0.80300003 4284100888
-0.16813874 0.078836836 0.80100006 4284100888
-0.16674338 0.078836836 0.80100006 4284428050
-0.16493519 0.078639984 0.79900002 4284428050
-0.16333865 0.078541562 0.79800004 4284231945
-0.16194853 0.078541562 0.79800004 4284231945
-0.16055842 0.078541562 0.79800004 4283508745
-0.15876938 0.078344718 0.79600006 4283377158
-0.15738276 0.078344718 0.79600006 4283509037
-0.15599613 0.078344718 0.79600006 4284035382
-0.15422103 0.078147866 0.79400003 4284171571
-0.15283786 0.078147866 0.79400003 4284105778
-0.15145472 0.078147866 0.79400003 4283908913
-0.15007158 0.078147866 0.79400003 4283908913
-0.14868842 0.078147866 0.79400003 4283973423
-0.14730528 0.078147866 0.79400003 4283907629
-0.14592214 0.078147866 0.79400003 4283973423
-0.14453897 0.078147866 0.79400003 4284039216
-0.14315583 0.078147866 0.79400003 4284236081
-0.14177269 0.078147866 0.79400003 4284696632
-0.14038953 0.078147866 0.79400003 4285222722
-0.13900639 0.078147866 0.79400003 4285288771
-0.13727659 0.077951029 0.79200006 4285157453
-0.13555375 0.077754177 0.79000002 4285749333
-0.13417757 0.077754177 0.79000002 4285815115
-0.1331376 0.077951029 0.79200006 4287064926
-0.13175793 0.077951029 0.79200006 4288902794
-0.13037826 0.077951029 0.79200006 4290744998
-0.12899859 0.077951029 0.79200006 4290223240
-0.12761894 0.077951029 0.79200006 4286078281
-0.12623927 0.077951029 0.79200006 4287257160
-0.1248596 0.077951029 0.79200006 4293376165
-0.12347994 0.077951029 0.79200006 4292854464
-0.12210028 0.077951029 0.79200006 4293183429
-0.12102547 0.078147866 0.79400003 4293838781
-0.11964231 0.078147866 0.79400003 4293575353
-0.11825916 0.078147866 0.79400003 4292852136
-0.11717042 0.078344718 0.79600006 4292983723
-0.11578379 0.078344718 0.79600006 4293445050
-0.11439716 0.078344718 0.79600006 4294102980
-0.11301053 0.078344718 0.79600006 4291868573
-0.11190435 0.078541562 0.79800004 4282460174
-0.11051423 0.078541562 0.79800004 4281074944
-0.10912412 0.078541562 0.79800004 4281930240
-0.107734 0.078541562 0.79800004 4282916609
-0.10634389 0.078541562 0.79800004 4285350951
-0.10495377 0.078541562 0.79800004 4286271051
-0.17598994 0.080632836 0.80500007 4284100675
-0.17458762 0.080632836 0.80500007 4284100675
-0.17318532 0.080632836 0.80500007 4284232499
-0.171783 0.080632836 0.80500007 4284232499
-0.16995738 0.080432504 0.80300003 4284232989
-0.16813874 0.080232173 0.80100006 4284298783
-0.16674338 0.080232173 0.80100006 4284167444
-0.16472876 0.079931676 0.79800004 4284233237
-0.16333865 0.079931676 0.79800004 4284299033
-0.16194853 0.079931676 0.79800004 4284233239
-0.16015601 0.079731353 0.79600006 4283773718
-0.15876938 0.079731353 0.79600006 4283049994
-0.15738276 0.079731353 0.79600006 4282851887
-0.15560417 0.079531021 0.79400003 4282588971
-0.15422103 0.079531021 0.79400003 4282918706
-0.15283786 0.079531021 0.79400003 4283642173
-0.15107323 0.07933069 0.79200006 4283446830
-0.14969356 0.07933069 0.79200006 4283710003
-0.14831389 0.07933069 0.79200006 4283645225
-0.14693424 0.07933069 0.79200006 4283645225
-0.14555457 0.07933069 0.79200006 4283907366
-0.1441749 0.07933069 0.79200006 4283907366
-0.14279525 0.07933069 0.79200006 4283907114
-0.14141558 0.07933069 0.79200006 4284170286
-0.13968229 0.079130359 0.79000002 4284499265
-0.13830611 0.079130359 0.79000002 4285091658
-0.13692993 0.079130359 0.79000002 4284960581
-0.13521057 0.078930028 0.78800005 4285618767
-0.13383788 0.078930028 0.78800005 4286668623
-0.13280138 0.079130359 0.79000002 4289695101
-0.1314252 0.079130359 0.79000002 4289957274
-0.13004902 0.079130359 0.79000002 4288970379
-0.12867285 0.079130359 0.79000002 4288052818
-0.12729667 0.079130359 0.79000002 4289171042
-0.12592049 0.079130359 0.79000002 4290287268
-0.1245443 0.079130359 0.79000002 4292918987
-0.12316812 0.079130359 0.79000002 4293444537
-0.12179194 0.079130359 0.79000002 4293312950
-0.12072061 0.07933069 0.79200006 4293508517
-0.11964231 0.079531021 0.79400003 4293113759
-0.11825916 0.079531021 0.79400003 4293311142
-0.11687602 0.079531021 0.79400003 4294758589
-0.11549287 0.079531021 0.79400003 4293905601
-0.11439716 0.079731353 0.79600006 4289958278
-0.11301053 0.079731353 0.79600006 4288051241
-0.11190435 0.079931676 0.79800004 4279369728
-0.11051423 0.079931676 0.79800004 4279697408
-0.10912412 0.079931676 0.79800004 4280549376
-0.107734 0.079931676 0.79800004 4282062080
-0.10634389 0.079931676 0.79800004 4284693788
-0.10495377 0.079931676 0.79800004 4286471260
-0.16674338 0.081627518 0.80100006 4284168741
-0.16472876 0.081321798 0.79800004 4284102692
-0.16333865 0.081321798 0.79800004 4284037669
-0.16154265 0.08111798 0.79600006 4284037669
-0.16015601 0.08111798 0.79600006 4283577885
-0.15876938 0.08111798 0.79600006 4282920212
-0.15698731 0.080914162 0.79400003 4282656811
-0.15560417 0.080914162 0.79400003 4282130467
-0.15383255 0.080710359 0.79200006 4282393375
-0.15245289 0.080710359 0.79200006 4282656804
-0.15107323 0.080710359 0.79200006 4283051557
-0.14969356 0.080710359 0.79200006 4283775280
-0.14793937 0.080506533 0.79000002 4283188019
-0.14656319 0.080506533 0.79000002 4282990641
-0.14518701 0.080506533 0.79000002 4283448114
-0.14381082 0.080506533 0.79000002 4283579700
-0.14243464 0.080506533 0.79000002 4284039216
-0.14105846 0.080506533 0.79000002 4283907629
-0.13968229 0.080506533 0.79000002 4284169775
-0.13830611 0.080506533 0.79000002 4285156670
-0.13658327 0.08030273 0.78800005 4284763457
-0.13521057 0.08030273 0.78800005 4286013523
-0.13383788 0.08030273 0.78800005 4287064415
-0.13246518 0.08030273 0.78800005 4291011738
-0.13109249 0.08030273 0.78800005 4290421405
-0.12971978 0.08030273 0.78800005 4286473824
-0.12867285 0.080506533 0.79000002 4287126053
-0.12729667 0.080506533 0.79000002 4292126321
-0.12592049 0.080506533 0.79000002 4291604645
-0.1245443 0.080506533 0.79000002 4292723126
-0.12316812 0.080506533 0.79000002 4293247424
-0.12179194 0.080506533 0.79000002 4293050044
-0.12041575 0.080506533 0.79000002 4293114539
-0.11873822 0.08030273 0.78800005 4293180588
-0.11736552 0.08030273 0.78800005 4293310650
-0.11628722 0.080506533 0.79000002 4294495180
-0.11491104 0.080506533 0.79000002 4294036937
-0.11410972 0.080914162 0.79400003 4286668121
-0.11301053 0.08111798 0.79600006 4284563712
-0.11162389 0.08111798 0.79600006 4279697408
-0.11051423 0.081321798 0.79800004 4280221696
-0.10912412 0.081321798 0.79800004 4280746240
-0.107734 0.081321798 0.79800004 4281534208
-0.10647715 0.0814237 0.79900002 4285744945
-0.16472876 0.082711913 0.79800004 4283114784
-0.16333865 0.082711913 0.79800004 4283246633
-0.16154265 0.082504615 0.79600006 4283510062
-0.16015601 0.082504615 0.79600006 4283445786
-0.15876938 0.082504615 0.79600006 4283313943
-0.15698731 0.08229731 0.79400003 4282919982
-0.15560417 0.08229731 0.79400003 4282788653
-0.15383255 0.08209002 0.79200006 4282920234
-0.15245289 0.08209002 0.79200006 4282722856
-0.15107323 0.08209002 0.79200006 4282657061
-0.14931555 0.081882715 0.79000002 4282525474
-0.14793937 0.081882715 0.79000002 4281805088
-0.14656319 0.081882715 0.79000002 4281805088
-0.14518701 0.081882715 0.79000002 4282656815
-0.14381082 0.081882715 0.79000002 4282919730
-0.14207405 0.081675418 0.78800005 4283116599
-0.14070135 0.081675418 0.78800005 4284037701
-0.13932866 0.081675418 0.78800005 4283645995
-0.13795596 0.081675418 0.78800005 4284764220
-0.13658327 0.081675418 0.78800005 4285158212
-0.13503899 0.081571773 0.78700006 4287592810
-0.13366804 0.081571773 0.78700006 4289168775
-0.13229707 0.081571773 0.78700006 4291471274
-0.13109249 0.081675418 0.78800005 4290485372
-0.12971978 0.081675418 0.78800005 4286603584
-0.12834708 0.081675418 0.78800005 4287588251
-0.1269744 0.081675418 0.78800005 4292522726
-0.12560169 0.081675418 0.78800005 4292984224
-0.124229 0.081675418 0.78800005 4292984224
-0.1228563 0.081675418 0.78800005 4292852668
-0.12148362 0.081675418 0.78800005 4292392117
-0.12011091 0.081675418 0.78800005 4293180065
-0.11873822 0.081675418 0.78800005 4294035631
-0.11736552 0.081675418 0.78800005 4293838539
-0.11628722 0.081882715 0.79000002 4291864748
-0.11491104 0.081882715 0.79000002 4290221445
-0.11410972 0.08229731 0.79400003 4283050265
-0.11301053 0.082504615 0.79600006 4282654208
-0.11162389 0.082504615 0.79600006 4282456832
-0.11051423 0.082711913 0.79800004 4282917936
-0.10912412 0.082711913 0.79800004 4281470234
-0.107734 0.082711913 0.79800004 4281602304
-0.16333865 0.084102027 0.79800004 4283050787
-0.16194853 0.084102027 0.79800004 4283050787
-0.16015601 0.08389125 0.79600006 4283247385
-0.15876938 0.08389125 0.79600006 4283313178
-0.15698731 0.083680466 0.79400003 4282985526
-0.15560417 0.083680466 0.79400003 4282919732
-0.15383255 0.083469681 0.79200006 4282788653
-0.15245289 0.083469681 0.79200006 4282919982
-0.15069173 0.083258897 0.79000002 4282723110
-0.14931555 0.083258897 0.79000002 4282591268
-0.14793937 0.083258897 0.79000002 4281805088
-0.14656319 0.083258897 0.79000002 4281673502
-0.14481944 0.08304812 0.78800005 4282657061
-0.14344676 0.08304812 0.78800005 4282657061
-0.14189376 0.082942724 0.78700006 4282722604
-0.14052279 0.082942724 0.78700006 4283841084
-0.13915186 0.082942724 0.78700006 4283449379
-0.13778089 0.082942724 0.78700006 4285094205
-0.13640994 0.082942724 0.78700006 4285684560
-0.13503899 0.082942724 0.78700006 4289040004
-0.13366804 0.082942724 0.78700006 4289827469
-0.13229707 0.082942724 0.78700006 4291209122
-0.13092613 0.082942724 0.78700006 4290683270
-0.12955517 0.082942724 0.78700006 4289696119
-0.12818421 0.082942724 0.78700006 4290156431
-0.1269744 0.08304812 0.78800005 4292590773
-0.12560169 0.08304812 0.78800005 4292983974
-0.124229 0.08304812 0.78800005 4292654753
-0.1228563 0.08304812 0.78800005 4292523950
-0.12148362 0.08304812 0.78800005 4292326572
-0.12011091 0.08304812 0.78800005 4292783792
-0.11873822 0.08304812 0.78800005 4294691790
-0.11736552 0.08304812 0.78800005 4293907414
-0.11658162 0.083469681 0.79200006 4289170318
-0.11520196 0.083469681 0.79200006 4287064413
-0.1138223 0.083469681 0.79200006 4281998608
-0.11301053 0.08389125 0.79600006 4282653696
-0.11190435 0.084102027 0.79800004 4284627212
-0.11051423 0.084102027 0.79800004 4283710266
-0.10912412 0.084102027 0.79800004 4282262820
-0.107734 0.084102027 0.79800004 4282195219
-0.16194853 0.085492149 0.79800004 4281014815
-0.16015601 0.085277878 0.79600006 4282128657
-0.15876938 0.085277878 0.79600006 4282786586
-0.15698731 0.085063607 0.79400003 4282722354
-0.15560417 0.085063607 0.79400003 4282788147
-0.15383255 0.08484935 0.79200006 4282722604
-0.15245289 0.08484935 0.79200006 4282788653
-0.15069173 0.084635079 0.79000002 4282788653
-0.14931555 0.084635079 0.79000002 4282788653
-0.14793937 0.084635079 0.79000002 4282920234
-0.14656319 0.084635079 0.79000002 4282920234
-0.14481944 0.084420815 0.78800005 4282920234
-0.14344676 0.084420815 0.78800005 4282788649
-0.14189376 0.084313683 0.78700006 4282461760
-0.13980858 0.083885148 0.78300005 4283317068
-0.13844459 0.083885148 0.78300005 4283316276
-0.13708061 0.083885148 0.78300005 4285750617
-0.13571663 0.083885148 0.78300005 4286406008
-0.13469581 0.084099412 0.78500003 4289629865
-0.13332835 0.084099412 0.78500003 4290944652
-0.13196087 0.084099412 0.78500003 4291602583
-0.13092613 0.084313683 0.78700006 4291866004
-0.12955517 0.084313683 0.78700006 4292392348
-0.12818421 0.084313683 0.78700006 4292261544
-0.12681326 0.084313683 0.78700006 4292458923
-0.12544231 0.084313683 0.78700006 4292720285
-0.12407135 0.084313683 0.78700006 4292588698
-0.12270041 0.084313683 0.78700006 4292719262
-0.12132945 0.084313683 0.78700006 4293311656
-0.11995849 0.084313683 0.78700006 4293246142
-0.11858755 0.084313683 0.78700006 4291996076
-0.11736552 0.084420815 0.78800005 4290155148
-0.11628722 0.084635079 0.79000002 4286010189
-0.11520196 0.08484935 0.79200006 4285419787
-0.1138223 0.08484935 0.79200006 4282590464
-0.11301053 0.085277878 0.79600006 4283181592
-0.11190435 0.085492149 0.79800004 4283773729
-0.11051423 0.085492149 0.79800004 4283314223
-0.10912412 0.085492149 0.79800004 4283906616
-0.16015601 0.086664513 0.79600006 4281537566
-0.15876938 0.086664513 0.79600006 4281998117
-0.15738276 0.086664513 0.79600006 4282262053
-0.15560417 0.086446755 0.79400003 4282591018
-0.15422103 0.086446755 0.79400003 4282656815
-0.15322286 0.086664513 0.79600006 4282722608
-0.15107323 0.086229011 0.79200006 4282722604
-0.14931555 0.086011253 0.79000002 4282788653
-0.14793937 0.086011253 0.79000002 4282788147
-0.14656319 0.086011253 0.79000002 4282788147
-0.14253657 0.085249133 0.78300005 4282394660
-0.14117257 0.085249133 0.78300005 4282001697
-0.13980858 0.085249133 0.78300005 4283515193
-0.13844459 0.085249133 0.78300005 4284368964
-0.13708061 0.085249133 0.78300005 4286737512
-0.13571663 0.085249133 0.78300005 4287985528
-0.13435264 0.085249133 0.78300005 4290354076
-0.13298866 0.085249133 0.78300005 4291207577
-0.13162465 0.085249133 0.78300005 4291470492
-0.13059339 0.085466884 0.78500003 4292061850
-0.12955517 0.085684635 0.78700006 4292720037
-0.12818421 0.085684635 0.78700006 4292457892
-0.12681326 0.085684635 0.78700006 4292523685
-0.12544231 0.085684635 0.78700006 4292785056
-0.12375605 0.085466884 0.78500003 4292258711
-0.12238857 0.085466884 0.78500003 4292518817
-0.12102111 0.085466884 0.78500003 4294163899
-0.11965363 0.085466884 0.78500003 4293183688
-0.11828617 0.085466884 0.78500003 4289038729
-0.11691869 0.085466884 0.78500003 4287851367
-0.11599283 0.08579351 0.78800005 4285285439
-0.11301053 0.086664513 0.79600006 4283246883
-0.11190435 0.086882263 0.79800004 4282983968
-0.11023726 0.086664513 0.79600006 4282328586
-0.15738276 0.088051148 0.79600006 4281804588
-0.15560417 0.08782991 0.79400003 4281277988
-0.15422103 0.08782991 0.79400003 4281476398
-0.14217247 0.086391889 0.78100002 4282194713
-0.14081198 0.086391889 0.78100002 4282261033
-0.13945147 0.086391889 0.78100002 4285155925
-0.13809097 0.086391889 0.78100002 4285222765
-0.13673046 0.086391889 0.78100002 4288512415
-0.13536996 0.086391889 0.78100002 4289104023
-0.13435264 0.086613126 0.78300005 4290156711
-0.13298866 0.086613126 0.78300005 4291009428
-0.13162465 0.086613126 0.78300005 4291404186
-0.13026068 0.086613126 0.78300005 4291864208
-0.12922592 0.086834349 0.78500003 4292127380
-0.12785845 0.086834349 0.78500003 4292128145
-0.126491 0.086834349 0.78500003 4291865230
-0.12512352 0.086834349 0.78500003 4292126112
-0.12375605 0.086834349 0.78500003 4292323491
-0.12238857 0.086834349 0.78500003 4292521136
-0.12071277 0.086613126 0.78300005 4292389550
-0.11934879 0.086613126 0.78300005 4290813582
-0.11798481 0.086613126 0.78300005 4285550142
-0.11662082 0.086613126 0.78300005 4284165189
-0.11599283 0.087166205 0.78800005 4284230982
-0.14353298 0.087752387 0.78100002 4282653717
-0.14217247 0.087752387 0.78100002 4282193166
-0.14081198 0.087752387 0.78100002 4284430339
-0.13945147 0.087752387 0.78100002 4285811992
-0.13809097 0.087752387 0.78100002 4287061587
-0.13673046 0.087752387 0.78100002 4289890686
-0.13536996 0.087752387 0.78100002 4289892492
-0.13400947 0.087752387 0.78100002 4290353043
-0.13298866 0.087977104 0.78300005 4290943635
-0.13162465 0.087977104 0.78300005 4291404186
-0.13026068 0.087977104 0.78300005 4291534995
-0.1288967 0.087977104 0.78300005 4292127132
-0.12753271 0.087977104 0.78300005 4291997089
-0.12616873 0.087977104 0.78300005 4291141780
-0.12480474 0.087977104 0.78300005 4291599003
-0.12344075 0.087977104 0.78300005 4292914606
-0.12207676 0.087977104 0.78300005 4292984769
-0.12071277 0.087977104 0.78300005 4290944930
-0.11934879 0.087977104 0.78300005 4288382073
-0.11798481 0.087977104 0.78300005 4282921255
-0.11662082 0.087977104 0.78300005 4284362257
-0.11525683 0.087977104 0.78300005 4284888601
-0.1456922 0.088770591 0.77800006 4284237069
-0.14433691 0.088770591 0.77800006 4285881894
-0.14298163 0.088770591 0.77800006 4286340437
-0.14162636 0.088770591 0.77800006 4286406230
-0.14063168 0.088998787 0.78000003 4287918145
-0.13927291 0.088998787 0.78000003 4288773454
-0.13791417 0.088998787 0.78000003 4288641662
-0.13655539 0.088998787 0.78000003 4290154900
-0.13519663 0.088998787 0.78000003 4290220943
-0.13400947 0.089112893 0.78100002 4290813080
-0.13264894 0.089112893 0.78100002 4290944150
-0.13128845 0.089112893 0.78100002 4291141530
-0.12992795 0.089112893 0.78100002 4291404436
-0.1288967 0.089341097 0.78300005 4291470485
-0.12753271 0.089341097 0.78300005 4291536028
-0.12616873 0.089341097 0.78300005 4291733151
-0.12480474 0.089341097 0.78300005 4291865002
-0.12344075 0.089341097 0.78300005 4291601831
-0.12207676 0.089341097 0.78300005 4290154637
-0.12071277 0.089341097 0.78300005 4286338643
-0.11934879 0.089341097 0.78300005 4283968073
-0.11798481 0.089341097 0.78300005 4282586421
-0.11662082 0.089341097 0.78300005 4283705108
-0.11525683 0.089341097 0.78300005 4284428831
-0.14802124 0.089894176 0.77600002 4282655232
-0.14666943 0.089894176 0.77600002 4283378692
-0.14531766 0.089894176 0.77600002 4285155373
-0.14396587 0.089894176 0.77600002 4286602819
-0.14261407 0.089894176 0.77600002 4287062098
-0.14126228 0.089894176 0.77600002 4287588442
-0.13991049 0.089894176 0.77600002 4289297511
-0.13891581 0.090125866 0.77800006 4289166182
-0.13756053 0.090125866 0.77800006 4289955445
-0.13620526 0.090125866 0.77800006 4290744961
-0.13519663 0.090357549 0.78000003 4290943372
-0.13383788 0.090357549 0.78000003 4291206543
-0.13264894 0.090473391 0.78100002 4291075735
-0.13112035 0.090357549 0.78000003 4291141784
-0.12976159 0.090357549 0.78000003 4291733151
-0.12856746 0.090473391 0.78100002 4291338393
-0.12720694 0.090473391 0.78100002 4291272346
-0.12584645 0.090473391 0.78100002 4291864739
-0.12480474 0.090705082 0.78300005 4292260790
-0.12344075 0.090705082 0.78300005 4290682014
-0.12207676 0.090705082 0.78300005 4287921259
-0.12071277 0.090705082 0.78300005 4282197012
-0.11934879 0.090705082 0.78300005 4284029440
-0.11798481 0.090705082 0.78300005 4285937418
-0.11662082 0.090705082 0.78300005 4285023814
-0.14802124 0.091245964 0.77600002 4284567612
-0.14666943 0.091245964 0.77600002 4285686094
-0.14531766 0.091245964 0.77600002 4287195481
-0.14396587 0.091245964 0.77600002 4288643183
-0.14261407 0.091245964 0.77600002 4290286693
-0.14126228 0.091245964 0.77600002 4290879087
-0.13991049 0.091245964 0.77600002 4291141530
-0.13855869 0.091245964 0.77600002 4291207323
-0.1372069 0.091245964 0.77600002 4291404436
-0.13620526 0.091481142 0.77800006 4292259745
-0.13484998 0.091481142 0.77800006 4291997591
-0.1334947 0.091481142 0.77800006 4291931797
-0.13247912 0.091716312 0.78000003 4291339678
-0.13112035 0.091716312 0.78000003 4291273885
-0.12976159 0.091716312 0.78000003 4291339928
-0.12840284 0.091716312 0.78000003 4291142293
-0.12720694 0.091833897 0.78100002 4290550674
-0.12584645 0.091833897 0.78100002 4289169277
-0.12448595 0.091833897 0.78100002 4287523210
-0.12344075 0.092069067 0.78300005 4286536315
-0.12207676 0.092069067 0.78300005 4285681967
-0.12102111 0.092304237 0.78500003 4281273856
-0.11965363 0.092304237 0.78500003 4282912768
-0.11828617 0.092304237 0.78500003 4287189298
-0.11691869 0.092304237 0.78500003 4286274159
-0.14898805 0.092359111 0.77400005 4284372055
-0.14763975 0.092359111 0.77400005 4285353769
-0.14629143 0.092359111 0.77400005 4286143285
-0.14494312 0.092359111 0.77400005 4288113493
-0.14396587 0.09259776 0.77600002 4290087284
-0.14261407 0.09259776 0.77600002 4290745740
-0.14126228 0.09259776 0.77600002 4291272085
