# .PCD v0.7 - Point Cloud Data file format
VERSION 0.7
FIELDS x y z rgba
SIZE 4 4 4 4
TYPE F F F U
COUNT 1 1 1 1
WIDTH 1044
HEIGHT 1
VIEWPOINT 0 0 0 1 0 0 0
POINTS 1044
DATA ascii
0.23383738 -0.084509656 0.94200003 4282921738
0.23547836 -0.084509656 0.94200003 4283645462
0.23711932 -0.084509656 0.94200003 4285415197
0.23926722 -0.084689088 0.94400007 4288244296
0.24167727 -0.084958218 0.94700003 4290149969
0.24255611 -0.084689088 0.94400007 4290676313
0.24420056 -0.084689088 0.94400007 4289626462
0.245845 -0.084689088 0.94400007 4288639567
0.24748945 -0.084689088 0.94400007 4288376650
0.24992563 -0.084958218 0.94700003 4288047685
0.25157532 -0.084958218 0.94700003 4288177990
0.25402719 -0.085227363 0.95000005 4288441161
0.25568208 -0.085227363 0.95000005 4288441187
0.25733697 -0.085227363 0.95000005 4288638565
0.25899187 -0.085227363 0.95000005 4288245856
0.26064676 -0.085227363 0.95000005 4287522134
0.26285389 -0.08540678 0.95200002 4286472498
0.26534584 -0.085675925 0.95500004 4285617189
0.26700944 -0.085675925 0.95500004 4283647022
0.26867306 -0.085675925 0.95500004 4283976243
0.27090278 -0.085855342 0.95700002 4284369203
0.32960126 -0.084240519 0.93900007 4282198320
0.33053148 -0.084061086 0.93700004 4284434212
0.33216372 -0.084061086 0.93700004 4285815865
0.33379596 -0.084061086 0.93700004 4285750115
0.33542824 -0.084061086 0.93700004 4285750115
0.33706048 -0.084061086 0.93700004 4285685092
0.33941567 -0.084240519 0.93900007 4285290077
0.3410514 -0.084240519 0.93900007 4284372576
0.34268716 -0.084240519 0.93900007 4289767601
0.19995113 -0.082428835 0.93700004 4289672960
0.20158339 -0.082428835 0.93700004 4291120388
0.20364942 -0.082604781 0.93900007 4291851034
0.20528515 -0.082604781 0.93900007 4293035565
0.20692088 -0.082604781 0.93900007 4293373290
0.20855662 -0.082604781 0.93900007 4294952579
0.21019235 -0.082604781 0.93900007 4294035643
0.2118281 -0.082604781 0.93900007 4294627780
0.21300916 -0.082428835 0.93700004 4294168024
0.21464142 -0.082428835 0.93700004 4294102231
0.21627368 -0.082428835 0.93700004 4293906384
0.21790594 -0.082428835 0.93700004 4293313991
0.21953818 -0.082428835 0.93700004 4293118915
0.22164254 -0.082604781 0.93900007 4292263863
0.22327827 -0.082604781 0.93900007 4290158764
0.224914 -0.082604781 0.93900007 4286803064
0.22654974 -0.082604781 0.93900007 4285288797
0.22818547 -0.082604781 0.93900007 4283446849
0.23055546 -0.082868695 0.94200003 4284235818
0.23219642 -0.082868695 0.94200003 4284959284
0.23383738 -0.082868695 0.94200003 4287918095
0.23547836 -0.082868695 0.94200003 4289760299
0.23762275 -0.083044641 0.94400007 4289626983
0.23926722 -0.083044641 0.94400007 4289363810
0.24091166 -0.083044641 0.94400007 4289493309
0.24255611 -0.083044641 0.94400007 4288835122
0.24420056 -0.083044641 0.94400007 4288637255
0.245845 -0.083044641 0.94400007 4288571462
0.24748945 -0.083044641 0.94400007 4288376138
0.24992563 -0.083308548 0.94700003 4288573261
0.25157532 -0.083308548 0.94700003 4288311890
0.25402719 -0.083572462 0.95000005 4287785546
0.25568208 -0.083572462 0.95000005 4286142572
0.25733697 -0.083572462 0.95000005 4284760919
0.25899187 -0.083572462 0.95000005 4281864006
0.26119551 -0.0837484 0.95200002 4279500834
0.26285389 -0.0837484 0.95200002 4280942592
0.33123699 -0.082604781 0.93900007 4285029197
0.33216372 -0.082428835 0.93700004 4285292112
0.33379596 -0.082428835 0.93700004 4285487457
0.33542824 -0.082428835 0.93700004 4285553250
0.33706048 -0.082428835 0.93700004 4284766813
0.34050006 -0.082868695 0.94200003 4284503642
0.19831888 -0.080796577 0.93700004 4289086506
0.19995113 -0.080796577 0.93700004 4291901440
0.20158339 -0.080796577 0.93700004 4293809681
0.20321564 -0.080796577 0.93700004 4293950827
0.2048479 -0.080796577 0.93700004 4294740086
0.20648015 -0.080796577 0.93700004 4293309605
0.2081124 -0.080796577 0.93700004 4294230707
0.20974466 -0.080796577 0.93700004 4293249985
0.21137692 -0.080796577 0.93700004 4293710536
0.21300916 -0.080796577 0.93700004 4293840858
0.21464142 -0.080796577 0.93700004 4293643478
0.21627368 -0.080796577 0.93700004 4293643213
0.21790594 -0.080796577 0.93700004 4293380040
0.21953818 -0.080796577 0.93700004 4292461767
0.22117044 -0.080796577 0.93700004 4291409078
0.2228027 -0.080796577 0.93700004 4285960053
0.224914 -0.080969043 0.93900007 4280367648
0.22654974 -0.080969043 0.93900007 4280814080
0.22818547 -0.080969043 0.93900007 4283379990
0.23055546 -0.081227727 0.94200003 4284890388
0.23219642 -0.081227727 0.94200003 4287061557
0.23383738 -0.081227727 0.94200003 4290082638
0.23547836 -0.081227727 0.94200003 4291135327
0.23711932 -0.081227727 0.94200003 4290479724
0.23926722 -0.081400186 0.94400007 4289690209
0.24091166 -0.081400186 0.94400007 4289166154
0.24255611 -0.081400186 0.94400007 4288245052
0.24420056 -0.081400186 0.94400007 4288637257
0.245845 -0.081400186 0.94400007 4288966222
0.24748945 -0.081400186 0.94400007 4288770406
0.24992563 -0.08165887 0.94700003 4288770406
0.25157532 -0.08165887 0.94700003 4288049497
0.25402719 -0.081917554 0.95000005 4287325774
0.25568208 -0.081917554 0.95000005 4284045112
0.25733697 -0.081917554 0.95000005 4282137114
0.25953713 -0.082090013 0.95200002 4278192384
0.26119551 -0.082090013 0.95200002 4278190080
0.33123699 -0.080969043 0.93900007 4285226069
0.33216372 -0.080796577 0.93700004 4285291863
0.33379596 -0.080796577 0.93700004 4285619045
0.33614421 -0.080969043 0.93900007 4285421665
0.33777994 -0.080969043 0.93900007 4284175446
0.34050006 -0.081227727 0.94200003 4284570204
0.19442986 -0.078910865 0.93400002 4287973651
0.19605689 -0.078910865 0.93400002 4289874512
0.19768392 -0.078910865 0.93400002 4293690762
0.19931094 -0.078910865 0.93400002 4294421615
0.20093797 -0.078910865 0.93400002 4294950015
0.20256501 -0.078910865 0.93400002 4294557108
0.20419203 -0.078910865 0.93400002 4294952380
0.20581906 -0.078910865 0.93400002 4293444800
0.20744608 -0.078910865 0.93400002 4293313471
0.20907313 -0.078910865 0.93400002 4293184192
0.21070014 -0.078910865 0.93400002 4293776330
0.21232717 -0.078910865 0.93400002 4293711568
0.2139542 -0.078910865 0.93400002 4292132535
0.21558124 -0.078910865 0.93400002 4290024612
0.21790594 -0.079164326 0.93700004 4287261306
0.21953818 -0.079164326 0.93700004 4283639415
0.22117044 -0.079164326 0.93700004 4282257762
0.2228027 -0.079164326 0.93700004 4282457600
0.22443496 -0.079164326 0.93700004 4283312896
0.2260672 -0.079164326 0.93700004 4286733848
0.22769944 -0.079164326 0.93700004 4289299518
0.22982121 -0.079333305 0.93900007 4289298265
0.23145697 -0.079333305 0.93900007 4289035093
0.23383738 -0.079586759 0.94200003 4289032004
0.23547836 -0.079586759 0.94200003 4289032004
0.23711932 -0.079586759 0.94200003 4289031754
0.23926722 -0.079755738 0.94400007 4288899912
0.24091166 -0.079755738 0.94400007 4288507718
0.24255611 -0.079755738 0.94400007 4288573511
0.24420056 -0.079755738 0.94400007 4288180300
0.245845 -0.079755738 0.94400007 4287324991
0.24748945 -0.079755738 0.94400007 4285550449
0.25071737 -0.080262654 0.95000005 4284103003
0.25237226 -0.080262654 0.95000005 4280156203
0.25402719 -0.080262654 0.95000005 4278583315
0.33379596 -0.079164326 0.93700004 4285027941
0.33614421 -0.079333305 0.93900007 4284238168
0.33777994 -0.079333305 0.93900007 4284043856
0.18812819 -0.076704621 0.92700005 4290347332
0.18974303 -0.076704621 0.92700005 4288110370
0.19238998 -0.077118345 0.93200004 4289943852
0.19401354 -0.077118345 0.93200004 4289812010
0.19563708 -0.077118345 0.93200004 4290927663
0.19726062 -0.077118345 0.93200004 4294942835
0.19888416 -0.077118345 0.93200004 4293573808
0.20093797 -0.077283837 0.93400002 4293573808
0.20256501 -0.077283837 0.93400002 4292723389
0.20419203 -0.077283837 0.93400002 4292986818
0.20581906 -0.077283837 0.93400002 4292592834
0.20744608 -0.077283837 0.93400002 4293053385
0.20907313 -0.077283837 0.93400002 4293053637
0.21070014 -0.077283837 0.93400002 4292856259
0.21232717 -0.077283837 0.93400002 4292330447
0.2139542 -0.077283837 0.93400002 4290883000
0.21558124 -0.077283837 0.93400002 4286678381
0.21790594 -0.077532075 0.93700004 4281085976
0.21953818 -0.077532075 0.93700004 4280614912
0.22117044 -0.077532075 0.93700004 4282123780
0.2228027 -0.077532075 0.93700004 4283434752
0.22443496 -0.077532075 0.93700004 4286263832
0.2260672 -0.077532075 0.93700004 4289555277
0.22769944 -0.077532075 0.93700004 4290936930
0.22982121 -0.077697568 0.93900007 4289954401
0.23145697 -0.077697568 0.93900007 4289296214
0.23383738 -0.077945799 0.94200003 4288377403
0.23547836 -0.077945799 0.94200003 4288377403
0.23711932 -0.077945799 0.94200003 4288639821
0.23926722 -0.078111291 0.94400007 4288639821
0.24091166 -0.078111291 0.94400007 4288311134
0.24255611 -0.078111291 0.94400007 4287850583
0.24497661 -0.078359522 0.94700003 4286867272
0.24662629 -0.078359522 0.94700003 4286143292
0.24827595 -0.078359522 0.94700003 4282929193
0.17843917 -0.07508979 0.92700005 4288832001
0.18005401 -0.07508979 0.92700005 4289687310
0.18206079 -0.075251795 0.92900002 4290346798
0.18367912 -0.075251795 0.92900002 4290873142
0.1858958 -0.075494803 0.93200004 4291004492
0.18751936 -0.075494803 0.93200004 4291596629
0.18853407 -0.075251795 0.92900002 4291071569
0.19015238 -0.075251795 0.92900002 4291137362
0.19238998 -0.075494803 0.93200004 4291528788
0.19401354 -0.075494803 0.93200004 4290081342
0.19563708 -0.075494803 0.93200004 4290014029
0.19726062 -0.075494803 0.93200004 4293435522
0.19888416 -0.075494803 0.93200004 4293179561
0.20093797 -0.075656809 0.93400002 4293377197
0.20256501 -0.075656809 0.93400002 4293379775
0.20419203 -0.075656809 0.93400002 4293774533
0.20581906 -0.075656809 0.93400002 4293383120
0.20744608 -0.075656809 0.93400002 4293317327
0.20907313 -0.075656809 0.93400002 4292132524
0.21070014 -0.075656809 0.93400002 4288250481
0.21232717 -0.075656809 0.93400002 4283972241
0.2139542 -0.075656809 0.93400002 4280682591
0.21558124 -0.075656809 0.93400002 4282525440
0.21790594 -0.075899825 0.93700004 4283183104
0.21953818 -0.075899825 0.93700004 4286403328
0.22117044 -0.075899825 0.93700004 4289100831
0.2228027 -0.075899825 0.93700004 4289035095
0.22443496 -0.075899825 0.93700004 4289035095
0.2260672 -0.075899825 0.93700004 4288967753
0.22769944 -0.075899825 0.93700004 4288573251
0.2293317 -0.075899825 0.93700004 4288769611
0.23145697 -0.076061822 0.93900007 4288769611
0.23383738 -0.076304831 0.94200003 4288574015
0.23547836 -0.076304831 0.94200003 4288705601
0.23711932 -0.076304831 0.94200003 4288048950
0.23926722 -0.076466843 0.94400007 4287456813
0.24091166 -0.076466843 0.94400007 4285419113
0.24332695 -0.076709844 0.94700003 4282655807
0.24497661 -0.076709844 0.94700003 4281602816
0.24662629 -0.076709844 0.94700003 4280352768
0.24827595 -0.076709844 0.94700003 4282199552
0.17520951 -0.073474951 0.92700005 4288370726
0.17720583 -0.073633477 0.92900002 4288897070
0.17843917 -0.073474951 0.92700005 4290079767
0.18005401 -0.073474951 0.92700005 4290869540
0.18206079 -0.073633477 0.92900002 4291528006
0.18367912 -0.073633477 0.92900002 4291659592
0.18529741 -0.073633477 0.92900002 4291332430
0.18691574 -0.073633477 0.92900002 4291661139
0.18853407 -0.073633477 0.92900002 4291202385
0.19015238 -0.073633477 0.92900002 4291400020
0.1917707 -0.073633477 0.92900002 4291792743
0.19338901 -0.073633477 0.92900002 4291134813
0.19500734 -0.073633477 0.92900002 4289031754
0.19662566 -0.073633477 0.92900002 4289821013
0.19824398 -0.073633477 0.92900002 4290350453
0.2005077 -0.073871262 0.93200004 4293574310
0.20213124 -0.073871262 0.93200004 4292986577
0.2037548 -0.073871262 0.93200004 4293381335
0.20537834 -0.073871262 0.93200004 4293383902
0.20700188 -0.073871262 0.93200004 4292528593
0.20862544 -0.073871262 0.93200004 4289111704
0.21024898 -0.073871262 0.93200004 4284440401
0.21232717 -0.074029781 0.93400002 4282396468
0.2139542 -0.074029781 0.93400002 4281672746
0.21558124 -0.074029781 0.93400002 4283381248
0.21720825 -0.074029781 0.93400002 4284762886
0.21953818 -0.074267566 0.93700004 4288635960
0.22117044 -0.074267566 0.93700004 4290412371
0.2228027 -0.074267566 0.93700004 4289822812
0.22443496 -0.074267566 0.93700004 4289296468
0.2260672 -0.074267566 0.93700004 4288573259
0.22769944 -0.074267566 0.93700004 4288376136
0.2293317 -0.074267566 0.93700004 4288507468
0.23145697 -0.074426085 0.93900007 4288704847
0.23383738 -0.07466387 0.94200003 4288639835
0.23547836 -0.07466387 0.94200003 4288639835
0.23762275 -0.074822396 0.94400007 4287130180
0.23926722 -0.074822396 0.94400007 4286471994
0.24091166 -0.074822396 0.94400007 4283256128
0.24332695 -0.075060174 0.94700003 4279900684
0.24497661 -0.075060174 0.94700003 4279567616
0.24662629 -0.075060174 0.94700003 4280685824
0.17303288 -0.071627557 0.92400002 4290017543
0.17520951 -0.07186012 0.92700005 4290544434
0.17720583 -0.072015159 0.92900002 4291136571
0.17843917 -0.07186012 0.92700005 4291266633
0.18005401 -0.07186012 0.92700005 4291266633
0.18166885 -0.07186012 0.92700005 4291462985
0.18328369 -0.07186012 0.92700005 4291462985
0.18529741 -0.072015159 0.92900002 4291463246
0.18691574 -0.072015159 0.92900002 4291463246
0.18812819 -0.07186012 0.92700005 4291266894
0.18974303 -0.07186012 0.92700005 4291266894
0.19135785 -0.07186012 0.92700005 4291594583
0.19297269 -0.07186012 0.92700005 4291857754
0.19458751 -0.07186012 0.92700005 4290608730
0.19620235 -0.07186012 0.92700005 4289095491
0.19781718 -0.07186012 0.92700005 4289823012
0.19986229 -0.072015159 0.92900002 4291928131
0.2014806 -0.072015159 0.92900002 4289629376
0.20309892 -0.072015159 0.92900002 4288839861
0.20471725 -0.072015159 0.92900002 4285026978
0.20633556 -0.072015159 0.92900002 4282263672
0.20862544 -0.072247714 0.93200004 4283247385
0.21024898 -0.072247714 0.93200004 4284431916
0.21187252 -0.072247714 0.93200004 4286670394
0.2139542 -0.072402753 0.93400002 4288117841
0.21558124 -0.072402753 0.93400002 4288576843
0.21720825 -0.072402753 0.93400002 4288708429
0.21953818 -0.072635315 0.93700004 4289099596
0.22117044 -0.072635315 0.93700004 4289099596
0.2228027 -0.072635315 0.93700004 4289098310
0.22443496 -0.072635315 0.93700004 4288900675
0.2260672 -0.072635315 0.93700004 4288639558
0.22769944 -0.072635315 0.93700004 4288639558
0.22982121 -0.072790354 0.93900007 4288180040
0.23145697 -0.072790354 0.93900007 4287785283
0.23433386 -0.073177949 0.94400007 4286405215
0.23597831 -0.073177949 0.94400007 4285220941
0.23762275 -0.073177949 0.94400007 4284696617
0.24002758 -0.073410504 0.94700003 4284630823
0.24167727 -0.073410504 0.94700003 4284962087
0.1694461 -0.069866404 0.92200005 4288765722
0.17105223 -0.069866404 0.92200005 4290342940
0.17303288 -0.070017956 0.92400002 4291593006
0.17520951 -0.070245288 0.92700005 4291529040
0.17682435 -0.070245288 0.92700005 4291529040
0.17843917 -0.070245288 0.92700005 4291463498
0.18005401 -0.070245288 0.92700005 4291397449
0.18166885 -0.070245288 0.92700005 4291462733
0.18328369 -0.070245288 0.92700005 4291462733
0.18489851 -0.070245288 0.92700005 4291594320
0.18651335 -0.070245288 0.92700005 4291528526
0.18812819 -0.070245288 0.92700005 4291332426
0.18974303 -0.070245288 0.92700005 4291266633
0.19135785 -0.070245288 0.92700005 4291594068
0.19297269 -0.070245288 0.92700005 4291923032
0.19458751 -0.070245288 0.92700005 4291792228
0.19620235 -0.070245288 0.92700005 4291594592
0.19781718 -0.070245288 0.92700005 4288903244
0.19943202 -0.070245288 0.92700005 4288837450
0.20104685 -0.070245288 0.92700005 4287658864
0.20266169 -0.070245288 0.92700005 4283908663
0.20471725 -0.070396833 0.92900002 4283905831
0.20633556 -0.070396833 0.92900002 4282063627
0.20862544 -0.070624173 0.93200004 4283313153
0.21024898 -0.070624173 0.93200004 4285286943
0.21187252 -0.070624173 0.93200004 4288571475
0.2139542 -0.070775725 0.93400002 4289756006
0.21558124 -0.070775725 0.93400002 4289690961
0.21720825 -0.070775725 0.93400002 4289559374
0.21883528 -0.070775725 0.93400002 4289033800
0.22117044 -0.071003057 0.93700004 4288836165
0.2228027 -0.071003057 0.93700004 4288901197
0.22443496 -0.071003057 0.93700004 4289098319
0.2260672 -0.071003057 0.93700004 4288639586
0.22769944 -0.071003057 0.93700004 4288442206
0.22982121 -0.071154617 0.93900007 4287785555
0.23219642 -0.071381941 0.94200003 4287325004
0.16783997 -0.068260275 0.92200005 4290479170
0.1694461 -0.068260275 0.92200005 4290742086
0.17105223 -0.068260275 0.92200005 4291200329
0.17303288 -0.068408348 0.92400002 4291529038
0.17520951 -0.068630457 0.92700005 4291528788
0.17682435 -0.068630457 0.92700005 4291462994
0.17843917 -0.068630457 0.92700005 4291529040
0.18005401 -0.068630457 0.92700005 4291463246
0.18108092 -0.068408348 0.92400002 4291397199
0.18269052 -0.068408348 0.92400002 4291462992
0.18489851 -0.068630457 0.92700005 4291463246
0.18651335 -0.068630457 0.92700005 4291397453
0.18751936 -0.068408348 0.92400002 4291397703
0.18912895 -0.068408348 0.92400002 4291463496
0.19073856 -0.068408348 0.92400002 4291397972
0.19234817 -0.068408348 0.92400002 4291595094
0.19458751 -0.068630457 0.92700005 4291530075
0.19620235 -0.068630457 0.92700005 4291924577
0.19781718 -0.068630457 0.92700005 4290743653
0.19943202 -0.068630457 0.92700005 4286927659
0.20104685 -0.068630457 0.92700005 4285814784
0.20266169 -0.068630457 0.92700005 4283183104
0.20427652 -0.068630457 0.92700005 4285223715
0.20589136 -0.068630457 0.92700005 4287329090
0.20862544 -0.069000624 0.93200004 4288839501
0.21024898 -0.069000624 0.93200004 4289168210
0.21187252 -0.069000624 0.93200004 4289165911
0.2139542 -0.069148697 0.93400002 4288902996
0.21558124 -0.069148697 0.93400002 4289230132
0.21720825 -0.069148697 0.93400002 4289230132
0.21883528 -0.069148697 0.93400002 4288836408
0.22117044 -0.069370806 0.93700004 4287915306
0.2228027 -0.069370806 0.93700004 4287717965
0.22443496 -0.069370806 0.93700004 4287389001
0.2260672 -0.069370806 0.93700004 4286075232
0.22769944 -0.069370806 0.93700004 4285351510
0.22982121 -0.069518872 0.93900007 4285220914
0.16054013 -0.066292688 0.91700006 4288434432
0.16533238 -0.066292688 0.91700006 4291725349
0.16820405 -0.066798739 0.92400002 4291397199
0.16981366 -0.066798739 0.92400002 4291200077
0.17142327 -0.066798739 0.92400002 4291331145
0.17303288 -0.066798739 0.92400002 4291528524
0.17464249 -0.066798739 0.92400002 4291594331
0.1762521 -0.066798739 0.92400002 4291528538
0.17786171 -0.066798739 0.92400002 4291462997
0.1794713 -0.066798739 0.92400002 4291462997
0.18108092 -0.066798739 0.92400002 4291462992
0.18269052 -0.066798739 0.92400002 4291529042
0.18430014 -0.066798739 0.92400002 4291398224
0.18590973 -0.066798739 0.92400002 4291398224
0.18751936 -0.066798739 0.92400002 4291332942
0.18912895 -0.066798739 0.92400002 4291332942
0.19073856 -0.066798739 0.92400002 4291398487
0.19234817 -0.066798739 0.92400002 4291398487
0.19395778 -0.066798739 0.92400002 4291201885
0.1955674 -0.066798739 0.92400002 4291662436
0.19781718 -0.067015618 0.92700005 4291270272
0.19943202 -0.067015618 0.92700005 4289164896
0.20104685 -0.067015618 0.92700005 4287325481
0.20266169 -0.067015618 0.92700005 4285285898
0.20427652 -0.067015618 0.92700005 4286928159
0.20589136 -0.067015618 0.92700005 4289559878
0.20862544 -0.067377083 0.93200004 4289953367
0.21024898 -0.067377083 0.93200004 4289821781
0.21187252 -0.067377083 0.93200004 4289558870
0.2139542 -0.067521669 0.93400002 4289230162
0.21558124 -0.067521669 0.93400002 4288704067
0.21720825 -0.067521669 0.93400002 4288835654
0.21953818 -0.067738548 0.93700004 4288573009
0.22117044 -0.067738548 0.93700004 4287651907
0.2228027 -0.067738548 0.93700004 4286800462
0.22443496 -0.067738548 0.93700004 4286010945
0.22654974 -0.067883134 0.93900007 4284763457
0.22818547 -0.067883134 0.93900007 4284237112
0.15574789 -0.064695276 0.91700006 4288567040
0.15734531 -0.064695276 0.91700006 4289555736
0.15894271 -0.064695276 0.91700006 4290411045
0.16054013 -0.064695276 0.91700006 4290938184
0.16213754 -0.064695276 0.91700006 4291332942
0.16409206 -0.064836375 0.91900003 4291594574
0.16623385 -0.065048032 0.92200005 4291528524
0.16820405 -0.065189131 0.92400002 4291528788
0.16981366 -0.065189131 0.92400002 4291594581
0.17142327 -0.065189131 0.92400002 4291594320
0.17303288 -0.065189131 0.92400002 4291857491
0.17464249 -0.065189131 0.92400002 4291857250
0.1762521 -0.065189131 0.92400002 4291528286
0.17786171 -0.065189131 0.92400002 4291265881
0.17908286 -0.065048032 0.92200005 4291134295
0.18068898 -0.065048032 0.92200005 4291529040
0.18229508 -0.065048032 0.92200005 4291726675
0.18390122 -0.065048032 0.92200005 4291595600
0.18550734 -0.065048032 0.92200005 4291398222
0.18711348 -0.065048032 0.92200005 4291332690
0.1887196 -0.065048032 0.92200005 4291332690
0.19073856 -0.065189131 0.92400002 4291332438
0.19234817 -0.065189131 0.92400002 4291464280
0.19395778 -0.065189131 0.92400002 4291597413
0.1955674 -0.065189131 0.92400002 4291992171
0.19717699 -0.065189131 0.92400002 4291600002
0.19878662 -0.065189131 0.92400002 4290810743
0.20104685 -0.065400787 0.92700005 4289035356
0.20266169 -0.065400787 0.92700005 4288706648
0.20427652 -0.065400787 0.92700005 4289100368
0.20633556 -0.065541886 0.92900002 4289166161
0.20795389 -0.065541886 0.92900002 4289230900
0.21024898 -0.065753542 0.93200004 4288770349
0.21187252 -0.065753542 0.93200004 4288112458
0.2139542 -0.065894641 0.93400002 4287783749
0.21558124 -0.065894641 0.93400002 4287783999
0.21790594 -0.066106297 0.93700004 4287783999
0.21953818 -0.066106297 0.93700004 4286732372
0.22117044 -0.066106297 0.93700004 4286139979
0.2228027 -0.066106297 0.93700004 4285353794
0.224914 -0.066247396 0.93900007 4284893243
0.15205397 -0.062891431 0.91400003 4286601536
0.15364616 -0.062891431 0.91400003 4289089280
0.15523835 -0.062891431 0.91400003 4290273805
0.15683053 -0.062891431 0.91400003 4290802489
0.15842272 -0.062891431 0.91400003 4291526211
0.16054013 -0.063097857 0.91700006 4291724886
0.16213754 -0.063097857 0.91700006 4291988057
0.16409206 -0.063235477 0.91900003 4291660628
0.16569296 -0.063235477 0.91900003 4291594835
0.16783997 -0.06344191 0.92200005 4291725653
0.1694461 -0.06344191 0.92200005 4291725653
0.17105223 -0.06344191 0.92200005 4291790933
0.17303288 -0.063579522 0.92400002 4291790933
0.17426448 -0.06344191 0.92200005 4291725151
0.1758706 -0.06344191 0.92200005 4291593566
0.17747672 -0.06344191 0.92200005 4291266133
0.17908286 -0.06344191 0.92200005 4291266133
0.18068898 -0.06344191 0.92200005 4291528790
0.18170194 -0.063235477 0.91900003 4291857754
0.18330283 -0.063235477 0.91900003 4291596120
0.18490373 -0.063235477 0.91900003 4291398485
0.18711348 -0.06344191 0.92200005 4291004763
0.1887196 -0.06344191 0.92200005 4290938969
0.19032571 -0.06344191 0.92200005 4291135065
0.19193184 -0.06344191 0.92200005 4291726946
0.19395778 -0.063579522 0.92400002 4291861114
0.1955674 -0.063579522 0.92400002 4291795321
0.19717699 -0.063579522 0.92400002 4291271294
0.19878662 -0.063579522 0.92400002 4290415985
0.20104685 -0.063785948 0.92700005 4289363545
0.20266169 -0.063785948 0.92700005 4289231958
0.20427652 -0.063785948 0.92700005 4289623632
0.20633556 -0.063923568 0.92900002 4289623632
0.20795389 -0.063923568 0.92900002 4288837199
0.21024898 -0.064130001 0.93200004 4288179268
0.21187252 -0.064130001 0.93200004 4287259981
0.2139542 -0.064267613 0.93400002 4287259981
0.21558124 -0.064267613 0.93400002 4287194188
0.21790594 -0.064474039 0.93700004 4286667844
0.21953818 -0.064474039 0.93700004 4285617734
0.22117044 -0.064474039 0.93700004 4285091390
0.22327827 -0.064611658 0.93900007 4284500282
0.15095563 -0.061500445 0.91700006 4289029635
0.15255305 -0.061500445 0.91700006 4290016530
0.15364616 -0.061299246 0.91400003 4290411338
0.15523835 -0.061299246 0.91400003 4291266647
0.15683053 -0.061299246 0.91400003 4291331175
0.15842272 -0.061299246 0.91400003 4291133539
0.16054013 -0.061500445 0.91700006 4291330380
0.16213754 -0.061500445 0.91700006 4291396173
0.16409206 -0.061634578 0.91900003 4291396436
0.16569296 -0.061634578 0.91900003 4291725401
0.16729385 -0.061634578 0.91900003 4291726673
0.1694461 -0.061835781 0.92200005 4291726673
0.17105223 -0.061835781 0.92200005 4291725401
0.17265835 -0.061835781 0.92200005 4291594072
0.17426448 -0.061835781 0.92200005 4291593818
0.1758706 -0.061835781 0.92200005 4291593818
0.17689924 -0.061634578 0.91900003 4291397974
0.17850015 -0.061634578 0.91900003 4291397974
0.18010104 -0.061634578 0.91900003 4291332690
0.18170194 -0.061634578 0.91900003 4291135567
0.18330283 -0.061634578 0.91900003 4291266647
0.18490373 -0.061634578 0.91900003 4291464026
0.18650465 -0.061634578 0.91900003 4291333475
0.1887196 -0.061835781 0.92200005 4291004511
0.19032571 -0.061835781 0.92200005 4291004772
0.19193184 -0.061835781 0.92200005 4291136614
0.19395778 -0.061969914 0.92400002 4290215269
0.1955674 -0.061969914 0.92400002 4289426010
0.19717699 -0.061969914 0.92400002 4289098310
0.19878662 -0.061969914 0.92400002 4289032517
0.20104685 -0.062171116 0.92700005 4289164103
0.20266169 -0.062171116 0.92700005 4288966724
0.20427652 -0.062171116 0.92700005 4288900415
0.20633556 -0.062305249 0.92900002 4288110900
0.20795389 -0.062305249 0.92900002 4287717191
0.21024898 -0.062506445 0.93200004 4287453762
0.21187252 -0.062506445 0.93200004 4286602317
0.2139542 -0.062640585 0.93400002 4286338888
0.21627368 -0.062841788 0.93700004 4285485117
0.21790594 -0.062841788 0.93700004 4284958773
0.21953818 -0.062841788 0.93700004 4285484867
0.14886959 -0.059707057 0.91400003 4289028097
0.15046178 -0.059707057 0.91400003 4290013709
0.15255305 -0.059903029 0.91700006 4290869018
0.15415047 -0.059903029 0.91700006 4290805069
0.15574789 -0.059903029 0.91700006 4291396949
0.15734531 -0.059903029 0.91700006 4291265881
0.15894271 -0.059903029 0.91700006 4291134295
0.16054013 -0.059903029 0.91700006 4291067973
0.16213754 -0.059903029 0.91700006 4291199559
0.16373496 -0.059903029 0.91700006 4291199305
0.16569296 -0.060033683 0.91900003 4291725649
0.16692978 -0.059903029 0.91700006 4291660891
0.1685272 -0.059903029 0.91700006 4291595098
0.17012462 -0.059903029 0.91700006 4291660378
0.17172202 -0.059903029 0.91700006 4291660378
0.17369744 -0.060033683 0.91900003 4291660378
0.17491685 -0.059903029 0.91700006 4291989087
0.17651427 -0.059903029 0.91700006 4291466077
0.17850015 -0.060033683 0.91900003 4291005526
0.18010104 -0.060033683 0.91900003 4291005013
0.18170194 -0.060033683 0.91900003 4290873426
0.18330283 -0.060033683 0.91900003 4290938969
0.18490373 -0.060033683 0.91900003 4291399520
0.18650465 -0.060033683 0.91900003 4291400815
0.1887196 -0.060229655 0.92200005 4290742629
0.19032571 -0.060229655 0.92200005 4290676061
0.19193184 -0.060229655 0.92200005 4290676061
0.19395778 -0.060360305 0.92400002 4289427791
0.1955674 -0.060360305 0.92400002 4288243517
0.19717699 -0.060360305 0.92400002 4288833335
0.19878662 -0.060360305 0.92400002 4289162557
0.20104685 -0.060556281 0.92700005 4289229896
0.20266169 -0.060556281 0.92700005 4289164103
0.20427652 -0.060556281 0.92700005 4288639569
0.20633556 -0.060686931 0.92900002 4287389502
0.20862544 -0.060882904 0.93200004 4287585348
0.21024898 -0.060882904 0.93200004 4287256640
0.21232717 -0.061013557 0.93400002 4286274120
0.2139542 -0.061013557 0.93400002 4285615933
0.14886959 -0.058114864 0.91400003 4290938425
0.15046178 -0.058114864 0.91400003 4291068461
0.15255305 -0.058305617 0.91700006 4291068461
0.15415047 -0.058305617 0.91700006 4290936650
0.15574789 -0.058305617 0.91700006 4291397201
0.15734531 -0.058305617 0.91700006 4291265870
0.15894271 -0.058305617 0.91700006 4291200077
0.16054013 -0.058305617 0.91700006 4291068237
0.16213754 -0.058305617 0.91700006 4291200079
0.16373496 -0.058305617 0.91700006 4291265620
0.16533238 -0.058305617 0.91700006 4291528536
0.16692978 -0.058305617 0.91700006 4291528538
0.1685272 -0.058305617 0.91700006 4291528538
0.17012462 -0.058305617 0.91700006 4291660891
0.17172202 -0.058305617 0.91700006 4291726684
0.17331944 -0.058305617 0.91700006 4291727195
0.17491685 -0.058305617 0.91700006 4291792989
0.17651427 -0.058305617 0.91700006 4291596872
0.17850015 -0.058432784 0.91900003 4291267650
0.17970909 -0.058305617 0.91700006 4291136332
0.18130651 -0.058305617 0.91700006 4290807368
0.18290393 -0.058305617 0.91700006 4290741602
0.18490373 -0.058432784 0.91900003 4291004774
0.18650465 -0.058432784 0.91900003 4290545758
0.18810554 -0.058432784 0.91900003 4288966470
0.18970643 -0.058432784 0.91900003 4289029935
0.19193184 -0.058623537 0.92200005 4289029935
0.19395778 -0.0587507 0.92400002 4288768312
0.1955674 -0.0587507 0.92400002 4289031483
0.19717699 -0.0587507 0.92400002 4288705097
0.19943202 -0.05894145 0.92700005 4288639304
0.20104685 -0.05894145 0.92700005 4288770374
0.20266169 -0.05894145 0.92700005 4288309823
0.20471725 -0.059068613 0.92900002 4287191635
0.20700188 -0.059259363 0.93200004 4286467912
0.20862544 -0.059259363 0.93200004 4286139449
0.14727741 -0.056522682 0.91400003 4291527495
0.14886959 -0.056522682 0.91400003 4291329859
0.15046178 -0.056522682 0.91400003 4291264546
0.15205397 -0.056522682 0.91400003 4291264546
0.15364616 -0.056522682 0.91400003 4290804547
0.15523835 -0.056522682 0.91400003 4291462733
0.15683053 -0.056522682 0.91400003 4291332430
0.15842272 -0.056522682 0.91400003 4291134795
0.16001491 -0.056522682 0.91400003 4291068489
0.1616071 -0.056522682 0.91400003 4291200075
0.16319929 -0.056522682 0.91400003 4291265872
0.16533238 -0.056708202 0.91700006 4291462994
0.16692978 -0.056708202 0.91700006 4291462994
0.1685272 -0.056708202 0.91700006 4291923545
0.17012462 -0.056708202 0.91700006 4291924840
0.17172202 -0.056708202 0.91700006 4291990633
0.17331944 -0.056708202 0.91700006 4291859817
0.17491685 -0.056708202 0.91700006 4291267680
0.17651427 -0.056708202 0.91700006 4291332430
0.17811169 -0.056708202 0.91700006 4291332430
0.17970909 -0.056708202 0.91700006 4291004509
0.18130651 -0.056708202 0.91700006 4290807129
0.18290393 -0.056708202 0.91700006 4290610527
0.18490373 -0.056831881 0.91900003 4290479198
0.18650465 -0.056831881 0.91900003 4290019927
0.18810554 -0.056831881 0.91900003 4288243517
0.18970643 -0.056831881 0.91900003 4288504878
0.19193184 -0.057017412 0.92200005 4288636464
0.19395778 -0.057141092 0.92400002 4288637507
0.1955674 -0.057141092 0.92400002 4289032265
0.19717699 -0.057141092 0.92400002 4288771407
0.19943202 -0.057326611 0.92700005 4288837201
0.20104685 -0.057326611 0.92700005 4288706142
0.20266169 -0.057326611 0.92700005 4287390538
0.20471725 -0.057450291 0.92900002 4286534979
0.14377773 -0.054810297 0.91200006 4290870581
0.14536643 -0.054810297 0.91200006 4291133752
0.14695515 -0.054810297 0.91200006 4290936628
0.14854383 -0.054810297 0.91200006 4289752097
0.15013255 -0.054810297 0.91200006 4290276143
0.15205397 -0.05493049 0.91400003 4291329087
0.15364616 -0.05493049 0.91400003 4291002947
0.15523835 -0.05493049 0.91400003 4291200327
0.15683053 -0.05493049 0.91400003 4291266122
0.15842272 -0.05493049 0.91400003 4291463244
0.16001491 -0.05493049 0.91400003 4291464269
0.1616071 -0.05493049 0.91400003 4291661391
0.16319929 -0.05493049 0.91400003 4291595868
0.16479148 -0.05493049 0.91400003 4291595868
0.16692978 -0.05511079 0.91700006 4291924570
0.1685272 -0.05511079 0.91700006 4292582243
0.17012462 -0.05511079 0.91700006 4292451436
0.17172202 -0.05511079 0.91700006 4292385643
0.17331944 -0.05511079 0.91700006 4292122987
0.17491685 -0.05511079 0.91700006 4290807127
0.17651427 -0.05511079 0.91700006 4290675016
0.17811169 -0.05511079 0.91700006 4290082879
0.17970909 -0.05511079 0.91700006 4289358164
0.18130651 -0.05511079 0.91700006 4289160784
0.18330283 -0.055230986 0.91900003 4289029935
0.18490373 -0.055230986 0.91900003 4289293363
0.18650465 -0.055230986 0.91900003 4288900152
0.1887196 -0.055411287 0.92200005 4288900152
0.19032571 -0.055411287 0.92200005 4288769609
0.19193184 -0.055411287 0.92200005 4288638022
0.19353797 -0.055411287 0.92200005 4288506954
0.19514409 -0.055411287 0.92200005 4288572748
0.19717699 -0.055531479 0.92400002 4288244809
0.19878662 -0.055531479 0.92400002 4287916101
0.20104685 -0.05571178 0.92700005 4286732646
0.20266169 -0.05571178 0.92700005 4285416787
0.13006209 -0.05281309 0.90500003 4289959289
0.1316386 -0.05281309 0.90500003 4285946172
0.13538739 -0.053046521 0.90900004 4289683461
0.13697086 -0.053046521 0.90900004 4290475305
0.13855435 -0.053046521 0.90900004 4290870062
0.14013782 -0.053046521 0.90900004 4290936648
0.14172131 -0.053046521 0.90900004 4290936648
0.14330478 -0.053046521 0.90900004 4290936124
0.14488825 -0.053046521 0.90900004 4291265089
0.14647174 -0.053046521 0.90900004 4290806595
0.14805521 -0.053046521 0.90900004 4289293613
0.14963868 -0.053046521 0.90900004 4290012675
0.15172125 -0.053221591 0.91200006 4291591964
0.15330996 -0.053221591 0.91200006 4291003214
0.15489866 -0.053221591 0.91200006 4291200592
0.15648738 -0.053221591 0.91200006 4291265870
0.15807606 -0.053221591 0.91200006 4291660628
0.15966477 -0.053221591 0.91200006 4291464278
0.16125348 -0.053221591 0.91200006 4291727449
0.16319929 -0.053338304 0.91400003 4291661673
0.16479148 -0.053338304 0.91400003 4291727466
0.16638365 -0.053338304 0.91400003 4292121961
0.16797584 -0.053338304 0.91400003 4292516718
0.16956803 -0.053338304 0.91400003 4292451705
0.17172202 -0.053513374 0.91700006 4292122739
0.17331944 -0.053513374 0.91700006 4291793772
0.17491685 -0.053513374 0.91700006 4290938463
0.17651427 -0.053513374 0.91700006 4290675280
0.17811169 -0.053513374 0.91700006 4289359420
0.17970909 -0.053513374 0.91700006 4289094980
0.18170194 -0.053630088 0.91900003 4288502587
0.18330283 -0.053630088 0.91900003 4288569388
0.18490373 -0.053630088 0.91900003 4288766767
0.18650465 -0.053630088 0.91900003 4288703552
0.1887196 -0.053805158 0.92200005 4288900675
0.19032571 -0.053805158 0.92200005 4288508240
0.19193184 -0.053805158 0.92200005 4288244811
0.19353797 -0.053805158 0.92200005 4288177490
0.19514409 -0.053805158 0.92200005 4288440405
0.19717699 -0.053921871 0.92400002 4288047948
0.19878662 -0.053921871 0.92400002 4287455811
0.20104685 -0.054096945 0.92700005 4285420369
0.12375605 -0.051236577 0.90500003 4291927269
0.12533255 -0.051236577 0.90500003 4289098170
0.12690906 -0.051236577 0.90500003 4288830995
0.12848558 -0.051236577 0.90500003 4288238858
0.13006209 -0.051236577 0.90500003 4289161216
0.1316386 -0.051236577 0.90500003 4290148098
0.1335095 -0.051349815 0.90700006 4290346048
0.1350895 -0.051349815 0.90700006 4290609221
0.13697086 -0.051463041 0.90900004 4290870092
0.13855435 -0.051463041 0.90900004 4290738506
0.14013782 -0.051463041 0.90900004 4290805069
0.14172131 -0.051463041 0.90900004 4290936398
0.14330478 -0.051463041 0.90900004 4290936648
0.14456947 -0.051349815 0.90700006 4291002441
0.14614947 -0.051349815 0.90700006 4291135049
0.14772946 -0.051349815 0.90700006 4291003464
0.14930946 -0.051349815 0.90700006 4290675268
0.15172125 -0.051632885 0.91200006 4290806597
0.15280564 -0.051463041 0.90900004 4291134547
0.15438911 -0.051463041 0.90900004 4291331927
0.15648738 -0.051632885 0.91200006 4291332181
0.15807606 -0.051632885 0.91200006 4291595096
0.15966477 -0.051632885 0.91200006 4291595868
0.16125348 -0.051632885 0.91200006 4292516970
0.16319929 -0.051746115 0.91400003 4291991165
0.16479148 -0.051746115 0.91400003 4291596663
0.16638365 -0.051746115 0.91400003 4291201135
0.16797584 -0.051746115 0.91400003 4290937964
0.16956803 -0.051746115 0.91400003 4290082657
0.17116024 -0.051746115 0.91400003 4289951070
0.17331944 -0.051915962 0.91700006 4289752640
0.17491685 -0.051915962 0.91700006 4289489725
0.17651427 -0.051915962 0.91700006 4289096763
0.17811169 -0.051915962 0.91700006 4289030970
0.17970909 -0.051915962 0.91700006 4288899650
0.18170194 -0.052029189 0.91900003 4288768064
0.18330283 -0.052029189 0.91900003 4288637507
0.18490373 -0.052029189 0.91900003 4288769350
0.18711348 -0.052199036 0.92200005 4288440646
0.1887196 -0.052199036 0.92200005 4288243267
0.19032571 -0.052199036 0.92200005 4287915333
0.19193184 -0.052199036 0.92200005 4288046663
0.19395778 -0.052312266 0.92400002 4286993502
0.1955674 -0.052312266 0.92400002 4286204242
0.19781718 -0.052482113 0.92700005 4285549375
0.12217954 -0.049660072 0.90500003 4293052870
0.12375605 -0.049660072 0.90500003 4290091142
0.12533255 -0.049660072 0.90500003 4286143563
0.12690906 -0.049660072 0.90500003 4288170240
0.12848558 -0.049660072 0.90500003 4289551876
0.13006209 -0.049660072 0.90500003 4290540057
0.1316386 -0.049660072 0.90500003 4291395110
0.1335095 -0.049769815 0.90700006 4291002434
0.1350895 -0.049769815 0.90700006 4290870592
0.13697086 -0.049879562 0.90900004 4290804288
0.13824949 -0.049769815 0.90700006 4290804288
0.13982949 -0.049769815 0.90700006 4290738754
0.14140949 -0.049769815 0.90700006 4290936389
0.14298947 -0.049769815 0.90700006 4291068237
0.14456947 -0.049769815 0.90700006 4291134030
0.14614947 -0.049769815 0.90700006 4291200079
0.14772946 -0.049769815 0.90700006 4291134030
0.14930946 -0.049769815 0.90700006 4291003216
0.15122215 -0.049879562 0.90900004 4291266131
0.15280564 -0.049879562 0.90900004 4291266131
0.15438911 -0.049879562 0.90900004 4291332181
0.1559726 -0.049879562 0.90900004 4291528540
0.15755607 -0.049879562 0.90900004 4291923298
0.15966477 -0.050044183 0.91200006 4291793513
0.16125348 -0.050044183 0.91200006 4291990635
0.16319929 -0.050153926 0.91400003 4291860349
0.16479148 -0.050153926 0.91400003 4291597176
0.16638365 -0.050153926 0.91400003 4290545758
0.16797584 -0.050153926 0.91400003 4289690449
0.16956803 -0.050153926 0.91400003 4289491530
0.17116024 -0.050153926 0.91400003 4289228615
0.17275243 -0.050153926 0.91400003 4289095741
0.17491685 -0.050318547 0.91700006 4288766776
0.17651427 -0.050318547 0.91700006 4288701754
0.17811169 -0.050318547 0.91700006 4288899132
0.17970909 -0.050318547 0.91700006 4288506952
0.18170194 -0.050428294 0.91900003 4288572746
0.18330283 -0.050428294 0.91900003 4288573263
0.18490373 -0.050428294 0.91900003 4288573263
0.18650465 -0.050428294 0.91900003 4288309589
0.18810554 -0.050428294 0.91900003 4288046161
0.18970643 -0.050428294 0.91900003 4287652942
0.19234817 -0.050702658 0.92400002 4287521100
0.19395778 -0.050702658 0.92400002 4285617734
0.1955674 -0.050702658 0.92400002 4284762425
0.12060303 -0.048083559 0.90500003 4289292580
0.12217954 -0.048083559 0.90500003 4287713547
0.12375605 -0.048083559 0.90500003 4289160960
0.12533255 -0.048083559 0.90500003 4290279688
0.12690906 -0.048083559 0.90500003 4290477381
0.12848558 -0.048083559 0.90500003 4290609223
0.13006209 -0.048083559 0.90500003 4291002943
0.1316386 -0.048083559 0.90500003 4291200579
0.1335095 -0.048189823 0.90700006 4291200327
0.1350895 -0.048189823 0.90700006 4291397449
0.1366695 -0.048189823 0.90700006 4291397192
0.13824949 -0.048189823 0.90700006 4291265350
0.13982949 -0.048189823 0.90700006 4291265098
0.14140949 -0.048189823 0.90700006 4291199305
0.14298947 -0.048189823 0.90700006 4291134032
0.14425068 -0.048083559 0.90500003 4291726169
0.14582719 -0.048083559 0.90500003 4291134034
0.14772946 -0.048189823 0.90700006 4291002192
0.14930946 -0.048189823 0.90700006 4291002964
0.15122215 -0.048296083 0.90900004 4291660637
0.15280564 -0.048296083 0.90900004 4291332690
0.15438911 -0.048296083 0.90900004 4291266896
0.1559726 -0.048296083 0.90900004 4291331427
0.15755607 -0.048296083 0.90900004 4291463013
0.15966477 -0.048455477 0.91200006 4290740330
0.16125348 -0.048455477 0.91200006 4290279779
0.16284217 -0.048455477 0.91200006 4290280785
0.16443089 -0.048455477 0.91200006 4289886027
0.16638365 -0.048561737 0.91400003 4289291841
0.16797584 -0.048561737 0.91400003 4288370739
0.16956803 -0.048561737 0.91400003 4288634166
0.17116024 -0.048561737 0.91400003 4288962874
0.17275243 -0.048561737 0.91400003 4288701508
0.1743446 -0.048561737 0.91400003 4288832837
0.17651427 -0.048721135 0.91700006 4288571712
0.17811169 -0.048721135 0.91700006 4288440126
0.17970909 -0.048721135 0.91700006 4288046403
0.18130651 -0.048721135 0.91700006 4288046403
0.18290393 -0.048721135 0.91700006 4287520587
0.18490373 -0.048827395 0.91900003 4287454794
0.18650465 -0.048827395 0.91900003 4286533723
0.18810554 -0.048827395 0.91900003 4285875793
0.18970643 -0.048827395 0.91900003 4285285424
0.11745001 -0.046507049 0.90500003 4290749586
0.11902651 -0.046507049 0.90500003 4286999385
0.12060303 -0.046507049 0.90500003 4288892416
0.12217954 -0.046507049 0.90500003 4290010627
0.12375605 -0.046507049 0.90500003 4290539038
0.12533255 -0.046507049 0.90500003 4291591725
0.12690906 -0.046507049 0.90500003 4291002441
0.12848558 -0.046507049 0.90500003 4291002441
0.13006209 -0.046507049 0.90500003 4291068487
0.1316386 -0.046507049 0.90500003 4291200329
0.13321511 -0.046507049 0.90500003 4291266120
0.13479161 -0.046507049 0.90500003 4291463498
0.13636813 -0.046507049 0.90500003 4291463246
0.13794464 -0.046507049 0.90500003 4291463246
0.13952115 -0.046507049 0.90500003 4291200329
0.14109766 -0.046507049 0.90500003 4291200329
0.14267418 -0.046507049 0.90500003 4291068237
0.14425068 -0.046507049 0.90500003 4291134030
0.14582719 -0.046507049 0.90500003 4291068237
0.1474037 -0.046507049 0.90500003 4291068237
0.14898022 -0.046507049 0.90500003 4291002966
0.15122215 -0.046712603 0.90900004 4291397468
0.15246944 -0.04660983 0.90700006 4291201885
0.15404943 -0.04660983 0.90700006 4291070556
0.1559726 -0.046712603 0.90900004 4291331940
0.15755607 -0.046712603 0.90900004 4291397733
0.15913956 -0.046712603 0.90900004 4290281814
0.16072303 -0.046712603 0.90900004 4289755470
0.16284217 -0.046866775 0.91200006 4289952335
0.16443089 -0.046866775 0.91200006 4289557578
0.16638365 -0.046969552 0.91400003 4289161273
0.16797584 -0.046969552 0.91400003 4288569136
0.16956803 -0.046969552 0.91400003 4288765747
0.17116024 -0.046969552 0.91400003 4288897333
0.17275243 -0.046969552 0.91400003 4288635965
0.1743446 -0.046969552 0.91400003 4288833087
0.17651427 -0.047123719 0.91700006 4288506171
0.17811169 -0.047123719 0.91700006 4288506171
0.17970909 -0.047123719 0.91700006 4288308819
0.18130651 -0.047123719 0.91700006 4287979854
0.18290393 -0.047123719 0.91700006 4286929987
0.18490373 -0.047226496 0.91900003 4286666558
0.18650465 -0.047226496 0.91900003 4285419074
0.11587349 -0.04493054 0.90500003 4287975981
0.11745001 -0.04493054 0.90500003 4289160704
0.11902651 -0.04493054 0.90500003 4290673940
0.12060303 -0.04493054 0.90500003 4290673479
0.12217954 -0.04493054 0.90500003 4290805321
0.12375605 -0.04493054 0.90500003 4291066955
0.12533255 -0.04493054 0.90500003 4291330128
0.12690906 -0.04493054 0.90500003 4291397192
0.12848558 -0.04493054 0.90500003 4291725901
0.13006209 -0.04493054 0.90500003 4291529280
0.1316386 -0.04493054 0.90500003 4291397438
0.13321511 -0.04493054 0.90500003 4291266637
0.13479161 -0.04493054 0.90500003 4291661139
0.13636813 -0.04493054 0.90500003 4291265870
0.13794464 -0.04493054 0.90500003 4291200077
0.13952115 -0.04493054 0.90500003 4291199555
0.14109766 -0.04493054 0.90500003 4291199555
0.14267418 -0.04493054 0.90500003 4291134030
0.14425068 -0.04493054 0.90500003 4291134030
0.14582719 -0.04493054 0.90500003 4291332430
0.1474037 -0.04493054 0.90500003 4291661139
0.14898022 -0.04493054 0.90500003 4291201883
0.15088946 -0.045029838 0.90700006 4290675539
0.15246944 -0.045029838 0.90700006 4290675037
0.15404943 -0.045029838 0.90700006 4290477914
0.1559726 -0.045129128 0.90900004 4290411606
0.15755607 -0.045129128 0.90900004 4290214227
0.15913956 -0.045129128 0.90900004 4289688623
0.16072303 -0.045129128 0.90900004 4289293865
0.16284217 -0.045278072 0.91200006 4288832826
0.16443089 -0.045278072 0.91200006 4288635190
0.16638365 -0.045377363 0.91400003 4288700985
0.16797584 -0.045377363 0.91400003 4288700985
0.16956803 -0.045377363 0.91400003 4288701754
0.17116024 -0.045377363 0.91400003 4288833339
0.17275243 -0.045377363 0.91400003 4288571712
0.1743446 -0.045377363 0.91400003 4288637761
0.17651427 -0.045526307 0.91700006 4288177971
0.17811169 -0.045526307 0.91700006 4287520298
0.17970909 -0.045526307 0.91700006 4286467928
0.18130651 -0.045526307 0.91700006 4285809998
0.11234682 -0.043210316 0.90200007 4286144328
0.11429699 -0.043354031 0.90500003 4288892160
0.11587349 -0.043354031 0.90500003 4289747207
0.11745001 -0.043354031 0.90500003 4290078722
0.11902651 -0.043354031 0.90500003 4291526168
0.12060303 -0.043354031 0.90500003 4291198791
0.12217954 -0.043354031 0.90500003 4291132998
0.12375605 -0.043354031 0.90500003 4291329607
0.12533255 -0.043354031 0.90500003 4291395657
0.12690906 -0.043354031 0.90500003 4291790412
0.12848558 -0.043354031 0.90500003 4291987792
0.13006209 -0.043354031 0.90500003 4291594320
0.1316386 -0.043354031 0.90500003 4291462733
0.13277352 -0.043210316 0.90200007 4291265872
0.1343448 -0.043210316 0.90200007 4291200079
0.13636813 -0.043354031 0.90500003 4291199573
0.13794464 -0.043354031 0.90500003 4291133780
0.13952115 -0.043354031 0.90500003 4291134282
0.14109766 -0.043354031 0.90500003 4291200075
0.14267418 -0.043354031 0.90500003 4291265872
0.14425068 -0.043354031 0.90500003 4291528788
0.14582719 -0.043354031 0.90500003 4291464539
0.1474037 -0.043354031 0.90500003 4291464539
0.14898022 -0.043354031 0.90500003 4291202666
0.15088946 -0.043449841 0.90700006 4290610529
0.15246944 -0.043449841 0.90700006 4290478166
0.15404943 -0.043449841 0.90700006 4290214738
0.15562943 -0.043449841 0.90700006 4289689166
0.15755607 -0.043545648 0.90900004 4289689166
0.15913956 -0.043545648 0.90900004 4289163070
0.16072303 -0.043545648 0.90900004 4288768312
0.16284217 -0.043689366 0.91200006 4288438320
0.16443089 -0.043689366 0.91200006 4288043562
0.16601959 -0.043689366 0.91200006 4288109878
0.16760829 -0.043689366 0.91200006 4288636222
0.16956803 -0.043785173 0.91400003 4288440380
0.17116024 -0.043785173 0.91400003 4288637759
0.17275243 -0.043785173 0.91400003 4288638289
0.17491685 -0.043928888 0.91700006 4288506702
0.17651427 -0.043928888 0.91700006 4287720003
0.17811169 -0.043928888 0.91700006 4286535729
0.17970909 -0.043928888 0.91700006 4285091126
0.18130651 -0.043928888 0.91700006 4284564782
0.11077554 -0.04163903 0.90200007 4289159168
0.11234682 -0.04163903 0.90200007 4289817352
0.1139181 -0.04163903 0.90200007 4290542913
0.11548939 -0.04163903 0.90200007 4291200842
0.11706068 -0.04163903 0.90200007 4291397177
0.11863196 -0.04163903 0.90200007 4291528506
0.12020324 -0.04163903 0.90200007 4291593549
0.12217954 -0.041777518 0.90500003 4291856978
0.12334581 -0.04163903 0.90200007 4291923547
0.1249171 -0.04163903 0.90200007 4291989341
0.12648839 -0.04163903 0.90200007 4291791944
0.12805967 -0.04163903 0.90200007 4291463235
0.12963095 -0.04163903 0.90200007 4291462483
0.13120224 -0.04163903 0.90200007 4291396690
0.13277352 -0.04163903 0.90200007 4291330895
0.1343448 -0.04163903 0.90200007 4291396688
0.13591608 -0.04163903 0.90200007 4291265633
0.13748737 -0.04163903 0.90200007 4291199584
0.13905865 -0.04163903 0.90200007 4291265872
0.14062993 -0.04163903 0.90200007 4291397201
0.14220122 -0.04163903 0.90200007 4291332438
0.1437725 -0.04163903 0.90200007 4291464280
0.14582719 -0.041777518 0.90500003 4290872913
0.1474037 -0.041777518 0.90500003 4290609484
0.14898022 -0.041777518 0.90500003 4290215510
0.15088946 -0.041869845 0.90700006 4289557324
0.15246944 -0.041869845 0.90700006 4289227066
0.15404943 -0.041869845 0.90700006 4288832308
0.15562943 -0.041869845 0.90700006 4288765747
0.15720943 -0.041869845 0.90700006 4288502575
0.15913956 -0.041962173 0.90900004 4288307772
0.16072303 -0.041962173 0.90900004 4288373821
0.16284217 -0.042100661 0.91200006 4288176956
0.16443089 -0.042100661 0.91200006 4288111163
0.16601959 -0.042100661 0.91200006 4288243013
0.16760829 -0.042100661 0.91200006 4288374855
0.16956803 -0.042192984 0.91400003 4288112698
0.17116024 -0.042192984 0.91400003 4288112698
0.17331944 -0.042331476 0.91700006 4286732370
0.17491685 -0.042331476 0.91700006 4286008646
0.17651427 -0.042331476 0.91700006 4285549095
0.10739431 -0.039978903 0.90000004 4288960003
0.10896211 -0.039978903 0.90000004 4289749519
0.11052991 -0.039978903 0.90000004 4290276106
0.11209772 -0.039978903 0.90000004 4291196952
0.1139181 -0.040067747 0.90200007 4291658577
0.11548939 -0.040067747 0.90200007 4291855956
0.11706068 -0.040067747 0.90200007 4291529280
