# .PCD v0.7 - Point Cloud Data file format
VERSION 0.7
FIELDS x y z rgba
SIZE 4 4 4 4
TYPE F F F U
COUNT 1 1 1 1
WIDTH 1045
HEIGHT 1
VIEWPOINT 0 0 0 1 0 0 0
POINTS 1045
DATA ascii
0.16947484 -0.041777518 0.90500003 4289497988
0.17105135 -0.041777518 0.90500003 4287781989
0.17262787 -0.041777518 0.90500003 4286137164
0.17458937 -0.041869845 0.90700006 4287846656
0.17616935 -0.041869845 0.90700006 4288439040
0.17735739 -0.041777518 0.90500003 4289886208
0.1789339 -0.041777518 0.90500003 4293833519
0.12464011 -0.039978903 0.90000004 4286736469
0.12592745 -0.039890066 0.89800006 4288051058
0.12749177 -0.039890066 0.89800006 4290814364
0.1290561 -0.039890066 0.89800006 4290684059
0.13062039 -0.039890066 0.89800006 4281868053
0.13218471 -0.039890066 0.89800006 4283236352
0.13404691 -0.039978903 0.90000004 4281008128
0.13561472 -0.039978903 0.90000004 4278517760
0.13952115 -0.040201008 0.90500003 4280096030
0.14330478 -0.040378693 0.90900004 4279896320
0.14425068 -0.040201008 0.90500003 4279173120
0.14582719 -0.040201008 0.90500003 4278190080
0.1474037 -0.040201008 0.90500003 4278190080
0.14898022 -0.040201008 0.90500003 4284089856
0.15005764 -0.040067747 0.90200007 4291787360
0.15162893 -0.040067747 0.90200007 4292980622
0.15370974 -0.040201008 0.90500003 4293573015
0.15528625 -0.040201008 0.90500003 4292589995
0.15686275 -0.040201008 0.90500003 4291668893
0.15791407 -0.040067747 0.90200007 4290945423
0.15948536 -0.040067747 0.90200007 4290945423
0.16159229 -0.040201008 0.90500003 4291075485
0.1631688 -0.040201008 0.90500003 4291536036
0.1641992 -0.040067747 0.90200007 4292458923
0.16577049 -0.040067747 0.90200007 4292261544
0.16789833 -0.040201008 0.90500003 4290159484
0.16947484 -0.040201008 0.90500003 4286935627
0.17105135 -0.040201008 0.90500003 4286796544
0.17262787 -0.040201008 0.90500003 4287257088
0.17420436 -0.040201008 0.90500003 4289095168
0.17578088 -0.040201008 0.90500003 4289950466
0.17735739 -0.040201008 0.90500003 4290739244
0.1789339 -0.040201008 0.90500003 4293239635
0.12436314 -0.038325746 0.89800006 4287723110
0.12592745 -0.038325746 0.89800006 4289233524
0.12749177 -0.038325746 0.89800006 4291667608
0.12862493 -0.038197711 0.89500004 4290355532
0.13018404 -0.038197711 0.89500004 4279566336
0.13174312 -0.038197711 0.89500004 4278190080
0.13374904 -0.038325746 0.89800006 4278911491
0.14172131 -0.038795214 0.90900004 4279567890
0.14330478 -0.038795214 0.90900004 4279370752
0.14488825 -0.038795214 0.90900004 4279699712
0.14582719 -0.038624499 0.90500003 4279500815
0.1474037 -0.038624499 0.90500003 4278190080
0.14898022 -0.038624499 0.90500003 4281466880
0.15005764 -0.038496461 0.90200007 4283044100
0.15162893 -0.038496461 0.90200007 4288371968
0.15370974 -0.038624499 0.90500003 4292977460
0.15528625 -0.038624499 0.90500003 4292126880
0.15686275 -0.038624499 0.90500003 4292126880
0.15791407 -0.038496461 0.90200007 4292325779
0.15948536 -0.038496461 0.90200007 4292917659
0.16159229 -0.038624499 0.90500003 4292458673
0.1631688 -0.038624499 0.90500003 4291537571
0.1641992 -0.038496461 0.90200007 4289562527
0.16577049 -0.038496461 0.90200007 4286799221
0.16789833 -0.038624499 0.90500003 4287717376
0.16947484 -0.038624499 0.90500003 4288638472
0.17105135 -0.038624499 0.90500003 4289689877
0.17262787 -0.038624499 0.90500003 4290808101
0.17420436 -0.038624499 0.90500003 4291398485
0.17578088 -0.038624499 0.90500003 4291135569
0.17735739 -0.038624499 0.90500003 4290871889
0.17834076 -0.038496461 0.90200007 4289753664
0.12436314 -0.036761429 0.89800006 4288577890
0.12592745 -0.036761429 0.89800006 4290152851
0.12749177 -0.036761429 0.89800006 4290744989
0.12862493 -0.036638621 0.89500004 4288446040
0.13018404 -0.036638621 0.89500004 4278845440
0.13174312 -0.036638621 0.89500004 4278190080
0.14172131 -0.037211739 0.90900004 4279567890
0.14488825 -0.037211739 0.90900004 4279831046
0.14647174 -0.037211739 0.90900004 4280289800
0.14772946 -0.037129864 0.90700006 4279895042
0.14898022 -0.037047986 0.90500003 4278190080
0.15055673 -0.037047986 0.90500003 4278190080
0.15213323 -0.037047986 0.90500003 4282777600
0.15370974 -0.037047986 0.90500003 4288695623
0.15528625 -0.037047986 0.90500003 4291861114
0.15634277 -0.036925182 0.90200007 4293571732
0.15791407 -0.036925182 0.90200007 4292852931
0.15948536 -0.036925182 0.90200007 4292655296
0.16105664 -0.036925182 0.90200007 4292196267
0.1631688 -0.037047986 0.90500003 4290617234
0.16474532 -0.037047986 0.90500003 4287528027
0.16577049 -0.036925182 0.90200007 4285291066
0.16734177 -0.036925182 0.90200007 4287911168
0.16891305 -0.036925182 0.90200007 4290345492
0.17048433 -0.036925182 0.90200007 4291001138
0.17205562 -0.036925182 0.90200007 4291790653
0.1736269 -0.036925182 0.90200007 4291922784
0.17676947 -0.036925182 0.90200007 4291199809
0.12436314 -0.035197116 0.89800006 4288972927
0.12550676 -0.035079528 0.89500004 4289759877
0.12706585 -0.035079528 0.89500004 4287786087
0.12862493 -0.035079528 0.89500004 4286341120
0.13018404 -0.035079528 0.89500004 4280683008
0.13174312 -0.035079528 0.89500004 4279240722
0.14488825 -0.035628259 0.90900004 4280290845
0.14647174 -0.035628259 0.90900004 4280816667
0.14772946 -0.035549868 0.90700006 4281014302
0.14898022 -0.03547148 0.90500003 4280357149
0.15055673 -0.03547148 0.90500003 4278714373
0.15213323 -0.03547148 0.90500003 4280877056
0.15370974 -0.03547148 0.90500003 4281992960
0.15528625 -0.03547148 0.90500003 4288966144
0.15634277 -0.035353895 0.90200007 4294032188
0.15791407 -0.035353895 0.90200007 4292391596
0.15948536 -0.035353895 0.90200007 4288312431
0.16105664 -0.035353895 0.90200007 4287192600
0.1631688 -0.03547148 0.90500003 4286600463
0.1641992 -0.035353895 0.90200007 4287848225
0.16577049 -0.035353895 0.90200007 4288572205
0.16734177 -0.035353895 0.90200007 4289886249
0.16853853 -0.035275504 0.90000004 4291004731
0.17010631 -0.035275504 0.90000004 4291199532
0.17167412 -0.035275504 0.90000004 4291199532
0.12394767 -0.033520438 0.89500004 4289564533
0.12550676 -0.033520438 0.89500004 4289697697
0.12706585 -0.033520438 0.89500004 4285026394
0.12862493 -0.033520438 0.89500004 4283575552
0.13018404 -0.033520438 0.89500004 4281404672
0.13174312 -0.033520438 0.89500004 4280491551
0.14488825 -0.03404478 0.90900004 4280620058
0.14647174 -0.03404478 0.90900004 4280752927
0.14772946 -0.033969875 0.90700006 4280950306
0.14930946 -0.033969875 0.90700006 4281146402
0.15055673 -0.033894967 0.90500003 4280817437
0.15213323 -0.033894967 0.90500003 4279700480
0.15370974 -0.033894967 0.90500003 4279174144
0.15528625 -0.033894967 0.90500003 4284159744
0.15634277 -0.033782613 0.90200007 4291199577
0.15791407 -0.033782613 0.90200007 4290615949
0.15948536 -0.033782613 0.90200007 4286800212
0.16105664 -0.033782613 0.90200007 4285086976
0.16262792 -0.033782613 0.90200007 4287455507
0.16383511 -0.033707704 0.90000004 4288832810
0.16540292 -0.033707704 0.90000004 4290411842
0.16697071 -0.033707704 0.90000004 4290412862
0.16816399 -0.033632796 0.89800006 4290873413
0.16972831 -0.033632796 0.89800006 4290937671
0.17129263 -0.033632796 0.89800006 4290477120
0.17285694 -0.033632796 0.89800006 4290081078
0.17695673 -0.033520438 0.89500004 4294492852
0.17851582 -0.033520438 0.89500004 4294958285
0.18007492 -0.033520438 0.89500004 4294960599
0.18163399 -0.033520438 0.89500004 4294961144
0.12394767 -0.031961352 0.89500004 4289630085
0.1252263 -0.031889927 0.89300007 4289631373
0.1267819 -0.031889927 0.89300007 4284499519
0.12833752 -0.031889927 0.89300007 4281208072
0.13018404 -0.031961352 0.89500004 4281142279
0.14647174 -0.0324613 0.90900004 4280884261
0.14772946 -0.032389883 0.90700006 4280950054
0.14930946 -0.032389883 0.90700006 4281212195
0.15055673 -0.032318458 0.90500003 4281475366
0.15213323 -0.032318458 0.90500003 4281016099
0.15404943 -0.032389883 0.90700006 4280423962
0.15528625 -0.032318458 0.90500003 4282515458
0.15634277 -0.032211326 0.90200007 4282056704
0.15791407 -0.032211326 0.90200007 4283498496
0.15948536 -0.032211326 0.90200007 4288299836
0.16105664 -0.032211326 0.90200007 4287321606
0.16226731 -0.032139905 0.90000004 4289492775
0.16383511 -0.032139905 0.90000004 4290148935
0.16540292 -0.032139905 0.90000004 4290675280
0.16659968 -0.03206848 0.89800006 4290477622
0.16816399 -0.03206848 0.89800006 4290477622
0.16972831 -0.03206848 0.89800006 4290739022
0.17072037 -0.031961352 0.89500004 4289817920
0.17227946 -0.031961352 0.89500004 4290016319
0.17383856 -0.031961352 0.89500004 4294959275
0.17539765 -0.031961352 0.89500004 4294967295
0.17656131 -0.031889927 0.89300007 4294967295
0.1781169 -0.031889927 0.89300007 4294967295
0.17967252 -0.031889927 0.89300007 4294967295
0.18122813 -0.031889927 0.89300007 4294962943
0.18278372 -0.031889927 0.89300007 4294962943
0.18433934 -0.031889927 0.89300007 4293250295
0.1854786 -0.031818505 0.89100003 4292394986
0.1252263 -0.030334322 0.89300007 4289369482
0.1267819 -0.030334322 0.89300007 4283250732
0.12833752 -0.030334322 0.89300007 4280356864
0.12989312 -0.030334322 0.89300007 4280422656
0.14930946 -0.030809887 0.90700006 4281998880
0.15088946 -0.030809887 0.90700006 4282130467
0.15246944 -0.030809887 0.90700006 4281739045
0.15404943 -0.030809887 0.90700006 4281672996
0.15528625 -0.030741949 0.90500003 4281801238
0.15634277 -0.030640041 0.90200007 4279304192
0.15791407 -0.030640041 0.90200007 4282908672
0.15948536 -0.030640041 0.90200007 4286591780
0.16069952 -0.030572103 0.90000004 4288698907
0.16226731 -0.030572103 0.90000004 4290343989
0.16347104 -0.030504167 0.89800006 4290083913
0.16503535 -0.030504167 0.89800006 4290675793
0.16659968 -0.030504167 0.89800006 4290478416
0.16760218 -0.03040226 0.89500004 4290281037
0.16916129 -0.03040226 0.89500004 4290476868
0.17072037 -0.03040226 0.89500004 4288963628
0.17189449 -0.030334322 0.89300007 4289820232
0.17345008 -0.030334322 0.89300007 4294963394
0.1750057 -0.030334322 0.89300007 4294967295
0.17656131 -0.030334322 0.89300007 4294967295
0.17771798 -0.030266382 0.89100003 4294967295
0.17927012 -0.030266382 0.89100003 4294703605
0.18082224 -0.030266382 0.89100003 4292663245
0.18237436 -0.030266382 0.89100003 4293913056
0.18330722 -0.030164476 0.88800007 4292332273
0.18485409 -0.030164476 0.88800007 4292003307
0.18640099 -0.030164476 0.88800007 4293511613
0.15686275 -0.029165437 0.90500003 4281541659
0.15791407 -0.029068759 0.90200007 4283244544
0.15913172 -0.029004304 0.90000004 4285020945
0.16069952 -0.029004304 0.90000004 4286992896
0.16190673 -0.028939849 0.89800006 4287321856
0.16347104 -0.028939849 0.89800006 4288568320
0.16448401 -0.028843168 0.89500004 4289621254
0.1660431 -0.028843168 0.89500004 4289817170
0.16722767 -0.028778717 0.89300007 4290277721
0.16878328 -0.028778717 0.89300007 4290015548
0.17033888 -0.028778717 0.89300007 4288765482
0.17189449 -0.028778717 0.89300007 4290016071
0.17306162 -0.028714262 0.89100003 4294964167
0.17461374 -0.028714262 0.89100003 4294967295
0.17616586 -0.028714262 0.89100003 4294833399
0.17771798 -0.028714262 0.89100003 4293582060
0.17927012 -0.028714262 0.89100003 4289437101
0.18082224 -0.028714262 0.89100003 4292327283
0.18237436 -0.028714262 0.89100003 4294963885
0.18330722 -0.028617579 0.88800007 4293449454
0.18485409 -0.028617579 0.88800007 4291541457
0.18640099 -0.028617579 0.88800007 4292068044
0.18752457 -0.028553125 0.88600004 4293778406
0.15791407 -0.027497472 0.90200007 4283180547
0.15913172 -0.027436504 0.90000004 4284759836
0.16069952 -0.027436504 0.90000004 4284954368
0.16190673 -0.027375534 0.89800006 4285283328
0.16347104 -0.027375534 0.89800006 4286988288
0.16448401 -0.027284078 0.89500004 4288369931
0.1660431 -0.027284078 0.89500004 4289619748
0.16722767 -0.02722311 0.89300007 4290080299
0.16878328 -0.02722311 0.89300007 4290342985
0.16995738 -0.027162138 0.89100003 4289356090
0.1715095 -0.027162138 0.89100003 4290015819
0.17306162 -0.027162138 0.89100003 4294963145
0.17461374 -0.027162138 0.89100003 4294967295
0.17616586 -0.027162138 0.89100003 4294176248
0.17771798 -0.027162138 0.89100003 4291940299
0.17927012 -0.027162138 0.89100003 4291216833
0.18021342 -0.027070682 0.88800007 4294099105
0.18176031 -0.027070682 0.88800007 4294958782
0.18330722 -0.027070682 0.88800007 4293910230
0.18485409 -0.027070682 0.88800007 4291607475
0.18640099 -0.027070682 0.88800007 4290557129
0.18752457 -0.027009714 0.88600004 4292267747
0.18906799 -0.027009714 0.88600004 4293579984
0.15913172 -0.025868703 0.90000004 4285417509
0.16069952 -0.025868703 0.90000004 4285677617
0.16190673 -0.025811218 0.89800006 4285414445
0.16347104 -0.025811218 0.89800006 4286465318
0.16448401 -0.025724988 0.89500004 4286465318
0.1660431 -0.025724988 0.89500004 4288304128
0.16722767 -0.025667502 0.89300007 4289422592
0.16878328 -0.025667502 0.89300007 4289883727
0.16995738 -0.025610017 0.89100003 4289949520
0.1715095 -0.025610017 0.89100003 4290015046
0.17306162 -0.025610017 0.89100003 4294955175
0.17402583 -0.025523787 0.88800007 4294893055
0.17557272 -0.025523787 0.88800007 4292327130
0.17711963 -0.025523787 0.88800007 4292132284
0.17866652 -0.025523787 0.88800007 4294303709
0.18021342 -0.025523787 0.88800007 4291801817
0.18176031 -0.025523787 0.88800007 4289235891
0.18330722 -0.025523787 0.88800007 4292524939
0.18485409 -0.025523787 0.88800007 4294960822
0.18640099 -0.025523787 0.88800007 4293449458
0.18752457 -0.025466301 0.88600004 4291935963
0.18906799 -0.025466301 0.88600004 4292921786
0.19061141 -0.025466301 0.88600004 4293382337
0.15913172 -0.024300903 0.90000004 4285417234
0.16069952 -0.024300903 0.90000004 4286007600
0.16190673 -0.024246901 0.89800006 4285612842
0.16347104 -0.024246901 0.89800006 4285808158
0.16448401 -0.024165897 0.89500004 4285347607
0.1660431 -0.024165897 0.89500004 4286463488
0.16722767 -0.024111897 0.89300007 4287713536
0.16840525 -0.024057893 0.89100003 4289224488
0.16995738 -0.024057893 0.89100003 4289356074
0.17093204 -0.02397689 0.88800007 4290340906
0.17247893 -0.02397689 0.88800007 4294948472
0.17402583 -0.02397689 0.88800007 4294761958
0.17557272 -0.02397689 0.88800007 4293709269
0.17711963 -0.02397689 0.88800007 4293115597
0.17866652 -0.02397689 0.88800007 4292523716
0.18021342 -0.02397689 0.88800007 4291012270
0.18176031 -0.02397689 0.88800007 4290091168
0.18289435 -0.023922889 0.88600004 4293247407
0.18443775 -0.023922889 0.88600004 4294967021
0.18598117 -0.023922889 0.88600004 4294967295
0.18752457 -0.023922889 0.88600004 4294963451
0.18906799 -0.023922889 0.88600004 4292530138
0.19061141 -0.023922889 0.88600004 4292266965
0.16069952 -0.022733102 0.90000004 4285352456
0.16190673 -0.022682585 0.89800006 4285418249
0.16347104 -0.022682585 0.89800006 4286005803
0.16448401 -0.022606809 0.89500004 4285545252
0.1660431 -0.022606809 0.89500004 4286002441
0.16722767 -0.02255629 0.89300007 4286002441
0.16840525 -0.022505771 0.89100003 4287251968
0.16995738 -0.022505771 0.89100003 4287712512
0.17093204 -0.022429995 0.88800007 4288432155
0.17247893 -0.022429995 0.88800007 4292379736
0.17402583 -0.022429995 0.88800007 4293703079
0.17557272 -0.022429995 0.88800007 4294966510
0.17711963 -0.022429995 0.88800007 4294962668
0.17866652 -0.022429995 0.88800007 4291013289
0.17980751 -0.022379475 0.88600004 4291866829
0.18135093 -0.022379475 0.88600004 4294959614
0.18289435 -0.022379475 0.88600004 4294962671
0.18443775 -0.022379475 0.88600004 4294967295
0.18598117 -0.022379475 0.88600004 4294967295
0.18752457 -0.022379475 0.88600004 4294967295
0.18906799 -0.022379475 0.88600004 4294964733
0.19061141 -0.022379475 0.88600004 4292001479
0.19215482 -0.022379475 0.88600004 4292589491
0.16190673 -0.021118268 0.89800006 4285023521
0.16347104 -0.021118268 0.89800006 4286137389
0.16448401 -0.021047717 0.89500004 4286071596
0.1660431 -0.021047717 0.89500004 4285610266
0.16722767 -0.021000683 0.89300007 4284820750
0.16840525 -0.02095365 0.89100003 4286528256
0.16938514 -0.020883098 0.88800007 4286923008
0.17093204 -0.020883098 0.88800007 4287710720
0.17247893 -0.020883098 0.88800007 4288631808
0.17363387 -0.020836065 0.88600004 4292579654
0.17517728 -0.020836065 0.88600004 4294964393
0.17672069 -0.020836065 0.88600004 4294967295
0.17826411 -0.020836065 0.88600004 4294701304
0.17980751 -0.020836065 0.88600004 4293581556
0.18135093 -0.020836065 0.88600004 4294042107
0.18289435 -0.020836065 0.88600004 4294367965
0.18443775 -0.020836065 0.88600004 4294967295
0.18598117 -0.020836065 0.88600004 4294967295
0.18710127 -0.020789031 0.88400006 4294966527
0.18864121 -0.020789031 0.88400006 4294962943
0.19061141 -0.020836065 0.88600004 4292525261
0.19172105 -0.020789031 0.88400006 4292457140
0.193261 -0.020789031 0.88400006 4293707206
0.16448401 -0.019488627 0.89500004 4286664249
0.1660431 -0.019488627 0.89500004 4286138154
0.16722767 -0.019445077 0.89300007 4285282846
0.16840525 -0.019401528 0.89100003 4286266409
0.16938514 -0.019336203 0.88800007 4286200615
0.17093204 -0.019336203 0.88800007 4286792960
0.17247893 -0.019336203 0.88800007 4285674752
0.17363387 -0.019292653 0.88600004 4288630528
0.17517728 -0.019292653 0.88600004 4294952293
0.17672069 -0.019292653 0.88600004 4294964479
0.17826411 -0.019292653 0.88600004 4294967295
0.17980751 -0.019292653 0.88600004 4294967295
0.18135093 -0.019292653 0.88600004 4293584606
0.18289435 -0.019292653 0.88600004 4293973711
0.18443775 -0.019292653 0.88600004 4294960606
0.18556136 -0.019249104 0.88400006 4293049070
0.18710127 -0.019249104 0.88400006 4291996126
0.18864121 -0.019249104 0.88400006 4292978866
0.19061141 -0.019292653 0.88600004 4293505210
0.19172105 -0.019249104 0.88400006 4294564315
0.193261 -0.019249104 0.88400006 4294961643
0.19413982 -0.019183777 0.88100004 4294370264
0.16448401 -0.017929537 0.89500004 4286336060
0.1660431 -0.017929537 0.89500004 4286335797
0.16722767 -0.017889472 0.89300007 4285875246
0.16840525 -0.017849404 0.89100003 4286004004
0.16938514 -0.017789306 0.88800007 4286332969
0.17093204 -0.017789306 0.88800007 4285743106
0.17209046 -0.017749239 0.88600004 4284953344
0.17363387 -0.017749239 0.88600004 4286326784
0.17517728 -0.017749239 0.88600004 4292379722
0.17672069 -0.017749239 0.88600004 4294952607
0.17826411 -0.017749239 0.88600004 4294965970
0.17980751 -0.017749239 0.88600004 4294967295
0.18094157 -0.017709173 0.88400006 4294967295
0.18248148 -0.017709173 0.88400006 4293648364
0.18402143 -0.017709173 0.88400006 4293385449
0.18556136 -0.017709173 0.88400006 4291932090
0.18710127 -0.017709173 0.88400006 4291668919
0.18864121 -0.017709173 0.88400006 4293044913
0.19018114 -0.017709173 0.88400006 4294163395
0.19172105 -0.017709173 0.88400006 4294961395
0.193261 -0.017709173 0.88400006 4294961138
0.19480093 -0.017709173 0.88400006 4293977306
0.16722767 -0.016333865 0.89300007 4286204209
0.16840525 -0.016297283 0.89100003 4286334254
0.16938514 -0.016242409 0.88800007 4286334254
0.17093204 -0.016242409 0.88800007 4286071596
0.17209046 -0.016205829 0.88600004 4285018908
0.17363387 -0.016205829 0.88600004 4285472768
0.17517728 -0.016205829 0.88600004 4284157184
0.17672069 -0.016205829 0.88600004 4290344192
0.17826411 -0.016205829 0.88600004 4294954310
0.17940164 -0.016169246 0.88400006 4294966755
0.18094157 -0.016169246 0.88400006 4294967286
0.18248148 -0.016169246 0.88400006 4294967295
0.18402143 -0.016169246 0.88400006 4294308597
0.18556136 -0.016169246 0.88400006 4293776861
0.18646631 -0.016114373 0.88100004 4292789966
0.18800102 -0.016114373 0.88100004 4293510864
0.18953572 -0.016114373 0.88100004 4294629088
0.19107041 -0.016114373 0.88100004 4294040533
0.19260512 -0.016114373 0.88100004 4290816676
0.19413982 -0.016114373 0.88100004 4290687186
0.19567452 -0.016114373 0.88100004 4291805410
0.19676153 -0.016077792 0.87900007 4292461003
0.16840525 -0.014745161 0.89100003 4286334768
0.16938514 -0.014695514 0.88800007 4286334768
0.17093204 -0.014695514 0.88800007 4286400048
0.17247893 -0.014695514 0.88800007 4286070826
0.17363387 -0.014662417 0.88600004 4285411840
0.17517728 -0.014662417 0.88600004 4283569664
0.17632179 -0.014629318 0.88400006 4284748800
0.17786171 -0.014629318 0.88400006 4290998859
0.17940164 -0.014629318 0.88400006 4294951809
0.1803275 -0.014579671 0.88100004 4294965944
0.18186221 -0.014579671 0.88100004 4294967295
0.18339691 -0.014579671 0.88100004 4294967295
0.18493162 -0.014579671 0.88100004 4294965503
0.18646631 -0.014579671 0.88100004 4291873239
0.18800102 -0.014579671 0.88100004 4292920523
0.18953572 -0.014579671 0.88100004 4294630884
0.19107041 -0.014579671 0.88100004 4294303437
0.19260512 -0.014579671 0.88100004 4289763976
0.19369911 -0.014546574 0.87900007 4290487222
0.19523032 -0.014546574 0.87900007 4294435059
0.19676153 -0.014546574 0.87900007 4294109419
0.19829275 -0.014546574 0.87900007 4292333008
0.16840525 -0.013193038 0.89100003 4285678637
0.16938514 -0.013148618 0.88800007 4286073395
0.17093204 -0.013148618 0.88800007 4286269752
0.17247893 -0.013148618 0.88800007 4286138166
0.17363387 -0.013119003 0.88600004 4286137639
0.17517728 -0.013119003 0.88600004 4285216537
0.17632179 -0.01308939 0.88400006 4285674240
0.17786171 -0.01308939 0.88400006 4284292608
0.17940164 -0.01308939 0.88400006 4289619712
0.1803275 -0.013044969 0.88100004 4294422328
0.18186221 -0.013044969 0.88100004 4294962871
0.18339691 -0.013044969 0.88100004 4294967255
0.18493162 -0.013044969 0.88100004 4294967295
0.18646631 -0.013044969 0.88100004 4294045682
0.18757422 -0.013015354 0.87900007 4294830830
0.18910545 -0.013015354 0.87900007 4294963701
0.19063666 -0.013015354 0.87900007 4291936967
0.19216788 -0.013015354 0.87900007 4288318352
0.19369911 -0.013015354 0.87900007 4291212760
0.1947861 -0.01298574 0.87700003 4294967295
0.19631384 -0.01298574 0.87700003 4294967295
0.19784157 -0.01298574 0.87700003 4294967295
0.19891465 -0.012956127 0.87500006 4294967295
0.17093204 -0.011601721 0.88800007 4286335284
0.17247893 -0.011601721 0.88800007 4286203698
0.17363387 -0.011575592 0.88600004 4286138404
0.17517728 -0.011575592 0.88600004 4285809440
0.17672069 -0.011575592 0.88600004 4285610240
0.17786171 -0.011549462 0.88400006 4284294400
0.17940164 -0.011549462 0.88400006 4284617472
0.1803275 -0.011510266 0.88100004 4288960048
0.18186221 -0.011510266 0.88100004 4293106257
0.18298057 -0.011484137 0.87900007 4294964137
0.1845118 -0.011484137 0.87900007 4294967295
0.18604301 -0.011484137 0.87900007 4294967295
0.18757422 -0.011484137 0.87900007 4294967295
0.18910545 -0.011484137 0.87900007 4294437871
0.19020289 -0.011458007 0.87700003 4289965735
0.19173065 -0.011458007 0.87700003 4289307548
0.19325837 -0.011458007 0.87700003 4293121507
0.1943419 -0.011431877 0.87500006 4294967295
0.19586615 -0.011431877 0.87500006 4294967295
0.19739041 -0.011431877 0.87500006 4294967295
0.19891465 -0.011431877 0.87500006 4294967295
0.2004389 -0.011431877 0.87500006 4294967295
0.17247893 -0.010054825 0.88800007 4285744986
0.17402583 -0.010054825 0.88800007 4286072861
0.17517728 -0.010032179 0.88600004 4286072861
0.17672069 -0.010032179 0.88600004 4286007336
0.17786171 -0.010009533 0.88400006 4285217564
0.17940164 -0.010009533 0.88400006 4285279488
0.1803275 -0.0099755647 0.88100004 4284161024
0.18186221 -0.0099755647 0.88100004 4286316544
0.18298057 -0.0099529186 0.87900007 4290461483
0.1845118 -0.0099529186 0.87900007 4292908883
0.18604301 -0.0099529186 0.87900007 4294961572
0.18757422 -0.0099529186 0.87900007 4294966271
0.18910545 -0.0099529186 0.87900007 4294963449
0.19020289 -0.0099302717 0.87700003 4293449425
0.19173065 -0.0099302717 0.87700003 4293252302
0.19325837 -0.0099302717 0.87700003 4294963194
0.1943419 -0.0099076265 0.87500006 4294967295
0.19586615 -0.0099076265 0.87500006 4294967295
0.19739041 -0.0099076265 0.87500006 4294967295
0.19823265 -0.0098736566 0.87200004 4294967295
0.19975168 -0.0098736566 0.87200004 4294966268
0.20127071 -0.0098736566 0.87200004 4294960547
0.17402583 -0.0085079288 0.88800007 4285941513
0.17517728 -0.0084887668 0.88600004 4286402064
0.17672069 -0.0084887668 0.88600004 4286270254
0.17786171 -0.0084696049 0.88400006 4285875496
0.17940164 -0.0084696049 0.88400006 4285545728
0.1803275 -0.0084408615 0.88100004 4284822016
0.18144935 -0.0084217004 0.87900007 4285145344
0.18298057 -0.0084217004 0.87900007 4283500288
0.1845118 -0.0084217004 0.87900007 4288357376
0.18604301 -0.0084217004 0.87900007 4294938200
0.18714744 -0.0084025376 0.87700003 4294956244
0.18867517 -0.0084025376 0.87700003 4294955987
0.19020289 -0.0084025376 0.87700003 4294563270
0.1912934 -0.0083833765 0.87500006 4294694599
0.19281764 -0.0083833765 0.87500006 4294963701
0.19367559 -0.0083546322 0.87200004 4294966014
0.1951946 -0.0083546322 0.87200004 4294967037
0.19739041 -0.0083833765 0.87500006 4294967295
0.19823265 -0.0083546322 0.87200004 4294967295
0.19975168 -0.0083546322 0.87200004 4294633957
0.20080908 -0.0083354712 0.87000006 4287999858
0.20232463 -0.0083354712 0.87000006 4281223179
0.17672069 -0.0069453549 0.88600004 4285809442
0.17826411 -0.0069453549 0.88600004 4286204199
0.17940164 -0.0069296765 0.88400006 4286138654
0.1803275 -0.0069061597 0.88100004 4285941275
0.18144935 -0.0068904823 0.87900007 4286335006
0.18298057 -0.0068904823 0.87900007 4285150476
0.1845118 -0.0068904823 0.87900007 4286256640
0.1856197 -0.0068748035 0.87700003 4287770116
0.18714744 -0.0068748035 0.87700003 4288102912
0.18867517 -0.0068748035 0.87700003 4288563456
0.18976915 -0.006859126 0.87500006 4289161234
0.1912934 -0.006859126 0.87500006 4291003438
0.19215655 -0.0068356087 0.87200004 4291333753
0.19367559 -0.0068356087 0.87200004 4292254855
0.1951946 -0.0068356087 0.87200004 4291006350
0.19739041 -0.006859126 0.87500006 4289756284
0.19823265 -0.0068356087 0.87200004 4287125581
0.19975168 -0.0068356087 0.87200004 4283111951
0.20080908 -0.0068199309 0.87000006 4287329792
0.20232463 -0.0068199309 0.87000006 4293185110
0.20290296 -0.0067885751 0.86600006 4293251551
0.20441154 -0.0067885751 0.86600006 4293317344
0.2059201 -0.0067885751 0.86600006 4292658339
0.20742866 -0.0067885751 0.86600006 4287920987
0.18144935 -0.0053592636 0.87900007 4286007066
0.18298057 -0.0053592636 0.87900007 4285612564
0.18409197 -0.0053470698 0.87700003 4286201856
0.1856197 -0.0053470698 0.87700003 4286004480
0.18714744 -0.0053470698 0.87700003 4286987264
0.18867517 -0.0053470698 0.87700003 4286658304
0.18976915 -0.0053348755 0.87500006 4288432896
0.19063753 -0.0053165844 0.87200004 4288630272
0.19215655 -0.0053165844 0.87200004 4289879865
0.19323137 -0.005304391 0.87000006 4290406209
0.19474691 -0.005304391 0.87000006 4289293404
0.19626246 -0.005304391 0.87000006 4283503620
0.197778 -0.005304391 0.87000006 4283695104
0.19929354 -0.005304391 0.87000006 4284219392
0.20080908 -0.005304391 0.87000006 4289297472
0.20232463 -0.005304391 0.87000006 4294960039
0.20337155 -0.0052921963 0.86800003 4294764269
0.20488361 -0.0052921963 0.86800003 4293316823
0.2059201 -0.0052800025 0.86600006 4292593103
0.20742866 -0.0052800025 0.86600006 4290553519
0.20797218 -0.0052556149 0.86200005 4288056702
0.18144935 -0.0038280457 0.87900007 4286007309
0.18298057 -0.0038280457 0.87900007 4286007309
0.18409197 -0.0038193355 0.87700003 4286269213
0.1856197 -0.0038193355 0.87700003 4286137371
0.18714744 -0.0038193355 0.87700003 4286859522
0.18824489 -0.0038106258 0.87500006 4287385866
0.18976915 -0.0038106258 0.87500006 4287843850
0.19063753 -0.0037975605 0.87200004 4288435987
0.19171584 -0.0037888505 0.87000006 4288896039
0.19323137 -0.0037888505 0.87000006 4289882934
0.19474691 -0.0037888505 0.87000006 4288502839
0.19581127 -0.0037801403 0.86800003 4282253312
0.19732332 -0.0037801403 0.86800003 4285792256
0.19883539 -0.0037801403 0.86800003 4293749861
0.20034744 -0.0037801403 0.86800003 4292382120
0.2018595 -0.0037801403 0.86800003 4294955757
0.20290296 -0.0037714306 0.86600006 4294958294
0.20441154 -0.0037714306 0.86600006 4293444285
0.2059201 -0.0037714306 0.86600006 4292329402
0.20742866 -0.0037714306 0.86600006 4292263609
0.2084547 -0.0037627204 0.86400002 4292001477
0.20947379 -0.0037540107 0.86200005 4291080375
0.18298057 -0.0022968273 0.87900007 4285941806
0.18409197 -0.0022916012 0.87700003 4286072359
0.1856197 -0.0022916012 0.87700003 4285940773
0.18714744 -0.0022916012 0.87700003 4286333696
0.18824489 -0.0022863753 0.87500006 4286991622
0.18976915 -0.0022863753 0.87500006 4287451913
0.19063753 -0.0022785363 0.87200004 4287780622
0.19171584 -0.0022733102 0.87000006 4288635429
0.19323137 -0.0022733102 0.87000006 4289030187
0.19429921 -0.0022680843 0.86800003 4287913518
0.19581127 -0.0022680843 0.86800003 4282781696
0.19732332 -0.0022680843 0.86800003 4289069056
0.19837724 -0.0022628582 0.86600006 4294925912
0.19988582 -0.0022628582 0.86600006 4293623418
0.20139439 -0.0022628582 0.86600006 4294949300
0.20290296 -0.0022628582 0.86600006 4294103999
0.20441154 -0.0022628582 0.86600006 4292985519
0.2059201 -0.0022628582 0.86600006 4292854196
0.20742866 -0.0022628582 0.86600006 4292854196
0.2084547 -0.0022576321 0.86400002 4293116619
0.20947379 -0.0022524062 0.86200005 4293379534
0.21097539 -0.0022524062 0.86200005 4290753981
0.18298057 -0.00076560909 0.87900007 4284754748
0.18409197 -0.00076386705 0.87700003 4285477156
0.1856197 -0.00076386705 0.87700003 4286200879
0.18714744 -0.00076386705 0.87700003 4286267914
0.18824489 -0.00076212513 0.87500006 4286333707
0.18976915 -0.00076212513 0.87500006 4286728731
0.19020028 -0.00075777009 0.87000006 4286926110
0.19171584 -0.00075777009 0.87000006 4288109337
0.19323137 -0.00075777009 0.87000006 4289162025
0.19429921 -0.00075602805 0.86800003 4288635942
0.19581127 -0.00075602805 0.86800003 4287320082
0.19732332 -0.00075602805 0.86800003 4288297517
0.19837724 -0.00075428607 0.86600006 4285994762
0.19988582 -0.00075428607 0.86600006 4289729792
0.20139439 -0.00075428607 0.86600006 4292427287
0.20290296 -0.00075428607 0.86600006 4291650884
0.20441154 -0.00075428607 0.86600006 4294545776
0.2059201 -0.00075428607 0.86600006 4293046436
0.20742866 -0.00075428607 0.86600006 4294428088
0.2084547 -0.00075254409 0.86400002 4293577420
0.20995979 -0.00075254409 0.86400002 4293511627
0.21097539 -0.00075080211 0.86200005 4292527560
0.2117375 -0.00074818905 0.85900003 4291738300
0.1845118 0.00076560909 0.87900007 4285275904
0.1856197 0.00076386705 0.87700003 4286328833
0.18714744 0.00076386705 0.87700003 4286005510
0.18824489 0.00076212513 0.87500006 4286005510
0.1891185 0.00075951207 0.87200004 4285808128
0.19020028 0.00075777009 0.87000006 4285939969
0.19171584 0.00075777009 0.87000006 4287450378
0.19323137 0.00075777009 0.87000006 4288503066
0.19429921 0.00075602805 0.86800003 4288832810
0.19581127 0.00075602805 0.86800003 4288569638
0.19732332 0.00075602805 0.86800003 4287256134
0.19837724 0.00075428607 0.86600006 4284690206
0.19988582 0.00075428607 0.86600006 4287823872
0.20139439 0.00075428607 0.86600006 4289333765
0.20290296 0.00075428607 0.86600006 4292230400
0.20441154 0.00075428607 0.86600006 4294796053
0.2059201 0.00075428607 0.86600006 4292907631
0.20742866 0.00075428607 0.86600006 4294617992
0.20893726 0.00075428607 0.86600006 4293313719
0.20995979 0.00075254409 0.86400002 4293445048
0.21146488 0.00075254409 0.86400002 4293052361
0.212477 0.00075080211 0.86200005 4293381070
0.21397859 0.00075080211 0.86200005 4292527571
0.21548019 0.00075080211 0.86200005 4289961901
0.18714744 0.0022916012 0.87700003 4285410560
0.18867517 0.0022916012 0.87700003 4286463244
0.1891185 0.0022785363 0.87200004 4286200836
0.19020028 0.0022733102 0.87000006 4285937920
0.19171584 0.0022733102 0.87000006 4286663176
0.19323137 0.0022733102 0.87000006 4287057678
0.19429921 0.0022680843 0.86800003 4288109327
0.19581127 0.0022680843 0.86800003 4289359138
0.19732332 0.0022680843 0.86800003 4288570962
0.19837724 0.0022628582 0.86600006 4288044618
0.19988582 0.0022628582 0.86600006 4288365106
0.20139439 0.0022628582 0.86600006 4284944128
0.20290296 0.0022628582 0.86600006 4288544768
0.20441154 0.0022628582 0.86600006 4291173398
0.2059201 0.0022628582 0.86600006 4290525440
0.20694962 0.0022576321 0.86400002 4293025566
0.2084547 0.0022576321 0.86400002 4292515683
0.20995979 0.0022576321 0.86400002 4294686851
0.21146488 0.0022576321 0.86400002 4293773501
0.212477 0.0022524062 0.86200005 4293839295
0.21397859 0.0022524062 0.86200005 4293315027
0.21548019 0.0022524062 0.86200005 4293380820
0.2169818 0.0022524062 0.86200005 4291737807
0.19063753 0.0037975605 0.87200004 4286396674
0.19171584 0.0037888505 0.87000006 4286004992
0.19323137 0.0037888505 0.87000006 4286334209
0.19429921 0.0037801403 0.86800003 4286860304
0.19581127 0.0037801403 0.86800003 4287978784
0.19686867 0.0037714306 0.86600006 4289094969
0.19837724 0.0037714306 0.86600006 4289752642
0.19988582 0.0037714306 0.86600006 4288244813
0.20139439 0.0037714306 0.86600006 4285020956
0.20290296 0.0037714306 0.86600006 4285925632
0.20441154 0.0037714306 0.86600006 4287833611
0.2059201 0.0037714306 0.86600006 4291177472
0.20694962 0.0037627204 0.86400002 4293940760
0.2084547 0.0037627204 0.86400002 4291980087
0.20995979 0.0037627204 0.86400002 4294216793
0.21097539 0.0037540107 0.86200005 4292719253
0.212477 0.0037540107 0.86200005 4293377184
0.21397859 0.0037540107 0.86200005 4293444548
0.21548019 0.0037540107 0.86200005 4293707977
0.2169818 0.0037540107 0.86200005 4293184211
0.2184834 0.0037540107 0.86200005 4292328902
0.19215655 0.0053165844 0.87200004 4286069504
0.19323137 0.005304391 0.87000006 4286135296
0.19429921 0.0052921963 0.86800003 4286397213
0.19581127 0.0052921963 0.86800003 4286331420
0.19686867 0.0052800025 0.86600006 4287516160
0.19837724 0.0052800025 0.86600006 4289160710
0.19988582 0.0052800025 0.86600006 4288704306
0.20092927 0.0052678087 0.86400002 4289230650
0.20243435 0.0052678087 0.86400002 4288962627
0.20393945 0.0052678087 0.86400002 4286067734
0.20544453 0.0052678087 0.86400002 4288486912
0.20694962 0.0052678087 0.86400002 4287894528
0.20797218 0.0052556149 0.86200005 4287562240
0.20947379 0.0052556149 0.86200005 4289075465
0.21097539 0.0052556149 0.86200005 4289093138
0.212477 0.0052556149 0.86200005 4293303890
0.21323387 0.0052373232 0.85900003 4293375913
0.21473026 0.0052373232 0.85900003 4294889153
0.21622664 0.0052373232 0.85900003 4294233535
0.21772303 0.0052373232 0.85900003 4294299584
0.22071578 0.0052373232 0.85900003 4292264626
0.19215655 0.0068356087 0.87200004 4286131456
0.19323137 0.0068199309 0.87000006 4286526208
0.19429921 0.0068042525 0.86800003 4286265600
0.19581127 0.0068042525 0.86800003 4286068224
0.19732332 0.0068042525 0.86800003 4286267904
0.19837724 0.0067885751 0.86600006 4287320576
0.19942418 0.0067728963 0.86400002 4288242481
0.20092927 0.0067728963 0.86400002 4289624134
0.20243435 0.0067728963 0.86400002 4289427293
0.20393945 0.0067728963 0.86400002 4287979847
0.20544453 0.0067728963 0.86400002 4285677617
0.20647058 0.0067572189 0.86200005 4283440655
0.20797218 0.0067572189 0.86200005 4285005824
0.20947379 0.0067572189 0.86200005 4285333504
0.21097539 0.0067572189 0.86200005 4287962368
0.2117375 0.0067337016 0.85900003 4291778345
0.21323387 0.0067337016 0.85900003 4292253028
0.21473026 0.0067337016 0.85900003 4294884748
0.21622664 0.0067337016 0.85900003 4294494908
0.21772303 0.0067337016 0.85900003 4294494908
0.2192194 0.0067337016 0.85900003 4294300625
0.22071578 0.0067337016 0.85900003 4294234832
0.2216948 0.0067180237 0.85700005 4292264917
0.22318767 0.0067180237 0.85700005 4287396491
0.22415623 0.0067023458 0.85500002 4284036928
0.19474691 0.0083354712 0.87000006 4285805312
0.19581127 0.0083163092 0.86800003 4286134528
0.19732332 0.0083163092 0.86800003 4286398976
0.19837724 0.0082971472 0.86600006 4286727936
0.19942418 0.0082779853 0.86400002 4286926621
0.20092927 0.0082779853 0.86400002 4287519014
0.20243435 0.0082779853 0.86400002 4288834341
0.20393945 0.0082779853 0.86400002 4290018871
0.20496897 0.0082588224 0.86200005 4288507236
0.20647058 0.0082588224 0.86200005 4287322705
0.20797218 0.0082588224 0.86200005 4286201899
0.20947379 0.0082588224 0.86200005 4283175424
0.21097539 0.0082588224 0.86200005 4285399040
0.2117375 0.0082300799 0.85900003 4286122240
0.21323387 0.0082300799 0.85900003 4288230656
0.21473026 0.0082300799 0.85900003 4292112425
0.21622664 0.0082300799 0.85900003 4292714876
0.21772303 0.0082300799 0.85900003 4294425238
0.2192194 0.0082300799 0.85900003 4294166195
0.22020189 0.0082109179 0.85700005 4294626746
0.2216948 0.0082109179 0.85700005 4293644762
0.22318767 0.0082109179 0.85700005 4293578969
0.22415623 0.008191756 0.85500002 4291936206
0.22511782 0.008172594 0.85300004 4287857040
0.22660373 0.008172594 0.85300004 4288897306
0.19581127 0.0098283654 0.86800003 4286066176
0.19732332 0.0098283654 0.86800003 4286068736
0.19837724 0.0098057194 0.86600006 4286726400
0.19942418 0.0097830733 0.86400002 4286203655
0.20092927 0.0097830733 0.86400002 4286729999
0.20196575 0.0097604273 0.86200005 4287388194
0.20346737 0.0097604273 0.86200005 4288704054
0.20496897 0.0097604273 0.86200005 4289228626
0.205752 0.0097264582 0.85900003 4288965455
0.20724837 0.0097264582 0.85900003 4287588179
0.20874475 0.0097264582 0.85900003 4284956458
0.21024114 0.0097264582 0.85900003 4284816128
0.2117375 0.0097264582 0.85900003 4284881920
0.21273741 0.0097038122 0.85700005 4286709760
0.21423031 0.0097038122 0.85700005 4289800989
0.21572322 0.0097038122 0.85700005 4290537518
0.21670918 0.0096811652 0.85500002 4293103445
0.21819858 0.0096811652 0.85500002 4293111951
0.22020189 0.0097038122 0.85700005 4294361762
0.22117741 0.0096811652 0.85500002 4293840841
0.22266681 0.0096811652 0.85500002 4294038221
0.22415623 0.0096811652 0.85500002 4293383652
0.22511782 0.0096585201 0.85300004 4291541448
0.22660373 0.0096585201 0.85300004 4287926677
0.22862446 0.0096811652 0.85500002 4283781974
0.19732332 0.011340421 0.86800003 4285540096
0.19837724 0.011314292 0.86600006 4286066432
0.19942418 0.01128816 0.86400002 4286003712
0.20092927 0.01128816 0.86400002 4286398469
0.20196575 0.011262031 0.86200005 4286464768
0.20346737 0.011262031 0.86200005 4286398976
0.20496897 0.011262031 0.86200005 4287384832
0.205752 0.011222836 0.85900003 4289555990
0.20724837 0.011222836 0.85900003 4288770655
0.20874475 0.011222836 0.85900003 4289099364
0.21024114 0.011222836 0.85900003 4288176717
0.21124454 0.011196706 0.85700005 4285347618
0.21273741 0.011196706 0.85700005 4286586624
0.21423031 0.011196706 0.85700005 4284876032
0.21521977 0.011170576 0.85500002 4285988864
0.21670918 0.011170576 0.85500002 4288485141
0.21819858 0.011170576 0.85500002 4289355054
0.219688 0.011170576 0.85500002 4293302891
0.22117741 0.011170576 0.85500002 4292785046
0.22214596 0.011144446 0.85300004 4293771941
0.22363189 0.011144446 0.85300004 4293249481
0.22511782 0.011144446 0.85300004 4293447117
0.22660373 0.011144446 0.85300004 4292198608
0.22808966 0.011144446 0.85300004 4290488247
0.2295756 0.011144446 0.85300004 4289165232
0.23106152 0.011144446 0.85300004 4285546617
0.20092927 0.012793249 0.86400002 4286526976
0.20196575 0.012763636 0.86200005 4286201344
0.20346737 0.012763636 0.86200005 4285740800
0.20496897 0.012763636 0.86200005 4286594048
0.205752 0.012719214 0.85900003 4288502033
0.20724837 0.012719214 0.85900003 4289162057
0.20874475 0.012719214 0.85900003 4290083159
0.21024114 0.012719214 0.85900003 4289231204
0.21075153 0.012659986 0.85500002 4287389001
0.21224093 0.012659986 0.85500002 4286071344
0.21373035 0.012659986 0.85500002 4282781696
0.21521977 0.012659986 0.85500002 4285792256
0.21620226 0.012630372 0.85300004 4286382080
0.21768819 0.012630372 0.85300004 4288092672
0.2191741 0.012630372 0.85300004 4291119132
0.22066005 0.012630372 0.85300004 4291400272
0.22214596 0.012630372 0.85300004 4292913512
0.22363189 0.012630372 0.85300004 4293246381
0.22458997 0.012600758 0.85100001 4294035640
0.22607242 0.012600758 0.85100001 4293249752
0.22808966 0.012630372 0.85300004 4292591821
0.2295756 0.012630372 0.85300004 4291147203
0.23051976 0.012600758 0.85100001 4287857553
0.2320022 0.012600758 0.85100001 4286469725
0.20092927 0.014298338 0.86400002 4286263808
0.20196575 0.014265239 0.86200005 4285936640
0.20346737 0.014265239 0.86200005 4286134272
0.20425561 0.014215593 0.85900003 4285936914
0.205752 0.014215593 0.85900003 4285410570
0.20676585 0.014182495 0.85700005 4286594816
0.20825873 0.014182495 0.85700005 4288108040
0.20926212 0.014149397 0.85500002 4288373567
0.21075153 0.014149397 0.85500002 4290347358
0.21224093 0.014149397 0.85500002 4289296998
0.21323042 0.014116298 0.85300004 4287586636
0.21471633 0.014116298 0.85300004 4286660907
0.21620226 0.014116298 0.85300004 4283765760
0.21768819 0.014116298 0.85300004 4286645504
0.2191741 0.014116298 0.85300004 4288027138
0.22066005 0.014116298 0.85300004 4290400000
0.2216251 0.0140832 0.85100001 4292899860
0.22310753 0.0140832 0.85100001 4292712826
0.22458997 0.0140832 0.85100001 4294555030
0.22607242 0.0140832 0.85100001 4293312967
0.22808966 0.014116298 0.85300004 4293115587
0.2295756 0.014116298 0.85300004 4292724675
0.23051976 0.0140832 0.85100001 4293382605
0.2320022 0.0140832 0.85100001 4291670229
0.23348463 0.0140832 0.85100001 4287591063
0.23441488 0.014050103 0.84900004 4289683492
0.20196575 0.015766844 0.86200005 4285870340
0.20346737 0.015766844 0.86200005 4286067719
0.20425561 0.015711971 0.85900003 4285740303
0.205752 0.015711971 0.85900003 4285279752
0.20676585 0.01567539 0.85700005 4285346048
0.2077727 0.015638806 0.85500002 4286201344
0.20926212 0.015638806 0.85500002 4287976204
0.21075153 0.015638806 0.85500002 4290278959
0.21174447 0.015602225 0.85300004 4290412905
0.21323042 0.015602225 0.85300004 4290281063
0.21421289 0.015565642 0.85100001 4288312674
0.21569534 0.015565642 0.85100001 4285351732
0.21717776 0.015565642 0.85100001 4286846725
0.21866021 0.015565642 0.85100001 4287833620
0.22014266 0.015565642 0.85100001 4291375616
0.2216251 0.015565642 0.85100001 4294204698
0.22310753 0.015565642 0.85100001 4292376389
0.22458997 0.015565642 0.85100001 4293955422
0.22607242 0.015565642 0.85100001 4292586913
0.22755486 0.015565642 0.85100001 4293047464
0.22903731 0.015565642 0.85100001 4293116346
0.23051976 0.015565642 0.85100001 4293840326
0.2320022 0.015565642 0.85100001 4292593114
0.23348463 0.015565642 0.85100001 4290224566
0.23441488 0.015529061 0.84900004 4287856518
0.20346737 0.017268447 0.86200005 4285803783
0.20425561 0.017208349 0.85900003 4285672448
0.205752 0.017208349 0.85900003 4285935874
0.20676585 0.017168282 0.85700005 4285476365
0.2077727 0.017128216 0.85500002 4285081608
0.20926212 0.017128216 0.85500002 4286528512
0.21025856 0.017088151 0.85300004 4287515392
0.21174447 0.017088151 0.85300004 4288897554
0.21323042 0.017088151 0.85300004 4290805551
0.21421289 0.017048083 0.85100001 4290151021
0.21569534 0.017048083 0.85100001 4290414450
0.21717776 0.017048083 0.85100001 4289687127
0.21866021 0.017048083 0.85100001 4285542168
0.22014266 0.017048083 0.85100001 4288617472
0.2216251 0.017048083 0.85100001 4288222720
0.22310753 0.017048083 0.85100001 4289667328
0.22406216 0.017008018 0.84900004 4292956959
0.22554111 0.017008018 0.84900004 4291721556
0.22755486 0.017048083 0.85100001 4293563760
0.22903731 0.017048083 0.85100001 4292652443
0.22997798 0.017008018 0.84900004 4293376165
0.23145694 0.017008018 0.84900004 4292788923
0.23293589 0.017008018 0.84900004 4293117632
0.23386267 0.016967952 0.84700006 4292197314
0.23533814 0.016967952 0.84700006 4287789182
0.205752 0.018704727 0.85900003 4285737728
0.20676585 0.018661177 0.85700005 4285607424
0.2077727 0.018617626 0.85500002 4285475840
0.20877263 0.018574078 0.85300004 4285542144
0.21025856 0.018574078 0.85300004 4286529280
0.21174447 0.018574078 0.85300004 4287188736
0.21323042 0.018574078 0.85300004 4288833816
0.21421289 0.018530525 0.85100001 4290542926
0.21569534 0.018530525 0.85100001 4291727200
0.21717776 0.018530525 0.85100001 4290546814
0.21866021 0.018530525 0.85100001 4287783508
0.22014266 0.018530525 0.85100001 4286069027
0.22110425 0.018486977 0.84900004 4284621581
0.2225832 0.018486977 0.84900004 4289268992
0.22406216 0.018486977 0.84900004 4291966230
0.22554111 0.018486977 0.84900004 4292303616
0.22702007 0.018486977 0.84900004 4294869276
0.22849903 0.018486977 0.84900004 4292319616
0.22997798 0.018486977 0.84900004 4293832856
0.23145694 0.018486977 0.84900004 4292788429
0.23293589 0.018486977 0.84900004 4292722635
0.23386267 0.018443428 0.84700006 4292457919
0.23533814 0.018443428 0.84700006 4287786616
0.23681362 0.018443428 0.84700006 4286402344
0.205752 0.020201106 0.85900003 4285671941
0.20676585 0.020154072 0.85700005 4285672448
0.2077727 0.020107036 0.85500002 4286067203
0.20877263 0.020060005 0.85300004 4286003200
0.21025856 0.020060005 0.85300004 4285740032
0.21174447 0.020060005 0.85300004 4286397696
0.21323042 0.020060005 0.85300004 4286595072
0.21421289 0.020012969 0.85100001 4288435712
0.21569534 0.020012969 0.85100001 4290606863
0.21717776 0.020012969 0.85100001 4290282316
0.21866021 0.020012969 0.85100001 4290414159
0.21962529 0.019965934 0.84900004 4289492816
0.22110425 0.019965934 0.84900004 4287387697
0.2225832 0.019965934 0.84900004 4288954112
0.22353435 0.019918902 0.84700006 4285796096
0.22500981 0.019918902 0.84700006 4288806912
0.2264853 0.019918902 0.84700006 4292553254
0.22796077 0.019918902 0.84700006 4291057438
0.22943625 0.019918902 0.84700006 4293491780
0.23091172 0.019918902 0.84700006 4290740905
0.23238719 0.019918902 0.84700006 4289293459
0.23331045 0.019871866 0.84500003 4288177738
0.23478244 0.019871866 0.84500003 4287651394
0.23625441 0.019871866 0.84500003 4289625406
0.23772641 0.019871866 0.84500003 4290480715
0.23919839 0.019871866 0.84500003 4291003697
0.20676585 0.021646965 0.85700005 4285736448
0.2077727 0.021596447 0.85500002 4286328320
0.20877263 0.02154593 0.85300004 4285870848
0.21025856 0.02154593 0.85300004 4286068480
0.21174447 0.02154593 0.85300004 4285871616
0.21273044 0.021495411 0.85100001 4285805824
0.21421289 0.021495411 0.85100001 4286596352
0.21569534 0.021495411 0.85100001 4287912194
0.21666737 0.021444893 0.84900004 4289293093
0.21814634 0.021444893 0.84900004 4290674746
0.21910793 0.021394376 0.84700006 4290610027
0.22058339 0.021394376 0.84700006 4289294167
0.22205886 0.021394376 0.84700006 4288502066
0.2230065 0.021343857 0.84500003 4284291072
0.2244785 0.021343857 0.84500003 4287561728
0.2264853 0.021394376 0.84700006 4290584090
0.22796077 0.021394376 0.84700006 4291576320
0.22889447 0.021343857 0.84500003 4292694790
0.23036647 0.021343857 0.84500003 4290537307
0.23238719 0.021394376 0.84700006 4288695103
0.23331045 0.021343857 0.84500003 4286926614
0.23422675 0.02129334 0.84300005 4289295162
0.23569526 0.02129334 0.84300005 4291002966
0.23772641 0.021343857 0.84500003 4291660639
0.23919839 0.021343857 0.84500003 4291004490
0.2077727 0.023085857 0.85500002 4285736469
0.20877263 0.023031855 0.85300004 4285805568
0.21025856 0.023031855 0.85300004 4285871360
0.21174447 0.023031855 0.85300004 4285937164
0.21273044 0.022977853 0.85100001 4285805578
0.21421289 0.022977853 0.85100001 4286398217
0.21569534 0.022977853 0.85100001 4286595595
0.21666737 0.022923851 0.84900004 4287516160
0.21814634 0.022923851 0.84900004 4288832001
0.21910793 0.02286985 0.84700006 4289424463
0.22058339 0.02286985 0.84700006 4290345565
0.22205886 0.02286985 0.84700006 4289885273
0.2230065 0.022815848 0.84500003 4289622358
0.2244785 0.022815848 0.84500003 4288959322
0.2264853 0.02286985 0.84700006 4286130223
0.22742248 0.022815848 0.84500003 4287895808
0.22889447 0.022815848 0.84500003 4287106560
0.23036647 0.022815848 0.84500003 4287379712
0.23183845 0.022815848 0.84500003 4290471709
0.23275822 0.022761846 0.84300005 4290085705
0.23422675 0.022761846 0.84300005 4290348877
0.23569526 0.022761846 0.84300005 4290806597
0.23772641 0.022815848 0.84500003 4290938184
0.23919839 0.022815848 0.84500003 4290807370
0.20926212 0.024575267 0.85500002 4285474816
0.21025856 0.024517782 0.85300004 4285804032
0.21174447 0.024517782 0.85300004 4285936640
0.21273044 0.024460295 0.85100001 4285936640
0.21421289 0.024460295 0.85100001 4285870848
0.21569534 0.024460295 0.85100001 4286331392
0.21666737 0.02440281 0.84900004 4286860288
0.21763244 0.024345325 0.84700006 4287584000
0.21859054 0.024287837 0.84500003 4288502314
0.22006252 0.024287837 0.84500003 4289620539
