# .PCD v0.7 - Point Cloud Data file format
VERSION 0.7
FIELDS x y z rgba
SIZE 4 4 4 4
TYPE F F F U
COUNT 1 1 1 1
WIDTH 1044
HEIGHT 1
VIEWPOINT 0 0 0 1 0 0 0
POINTS 1044
DATA ascii
-0.29288164 -0.17631917 0.84700006 4290160047
-0.29140615 -0.17631917 0.84700006 4289897389
-0.29061529 -0.17673551 0.84900004 4290094511
-0.28981742 -0.17715184 0.85100001 4290028970
-0.288335 -0.17715184 0.85100001 4289897641
-0.28685254 -0.17715184 0.85100001 4289897389
-0.28537011 -0.17715184 0.85100001 4290292147
-0.28388768 -0.17715184 0.85100001 4290292147
-0.28240523 -0.17715184 0.85100001 4290028718
-0.28092277 -0.17715184 0.85100001 4289896616
-0.27944034 -0.17715184 0.85100001 4290489010
-0.27730465 -0.17673551 0.84900004 4289898163
-0.27582568 -0.17673551 0.84900004 4288977061
-0.27693188 -0.17840086 0.85700005 4288976802
-0.27543899 -0.17840086 0.85700005 4287726735
-0.2745854 -0.1788172 0.85900003 4288382353
-0.27308899 -0.1788172 0.85900003 4290553265
-0.27159265 -0.1788172 0.85900003 4290226363
-0.27009624 -0.1788172 0.85900003 4286739590
-0.26953796 -0.17944169 0.86200005 4284569185
-0.26803634 -0.17944169 0.86200005 4282332479
-0.26653475 -0.17944169 0.86200005 4282004539
-0.24016869 -0.1788172 0.85900003 4292391097
-0.2386723 -0.1788172 0.85900003 4293379025
-0.23717594 -0.1788172 0.85900003 4294826471
-0.23567957 -0.1788172 0.85900003 4294566616
-0.23418318 -0.1788172 0.85900003 4294829531
-0.2326868 -0.1788172 0.85900003 4294962672
-0.23119041 -0.1788172 0.85900003 4294962415
-0.23049623 -0.17944169 0.86200005 4294962934
-0.22899462 -0.17944169 0.86200005 4294831348
-0.22749302 -0.17944169 0.86200005 4294437617
-0.22599143 -0.17944169 0.86200005 4293977066
-0.22448982 -0.17944169 0.86200005 4293713646
-0.22298822 -0.17944169 0.86200005 4294042611
-0.22148661 -0.17944169 0.86200005 4291285217
-0.21998501 -0.17944169 0.86200005 4285758606
-0.2184834 -0.17944169 0.86200005 4282940036
-0.21748523 -0.17985803 0.86400002 4283071879
-0.21598014 -0.17985803 0.86400002 4283005330
-0.21397859 -0.17944169 0.86200005 4282676365
-0.212477 -0.17944169 0.86200005 4282151308
-0.21097539 -0.17944169 0.86200005 4281756551
-0.20995979 -0.17985803 0.86400002 4282279813
-0.2084547 -0.17985803 0.86400002 4282214019
-0.20694962 -0.17985803 0.86400002 4282672520
-0.20544453 -0.17985803 0.86400002 4282211969
-0.20393945 -0.17985803 0.86400002 4282146176
-0.20243435 -0.17985803 0.86400002 4282014589
-0.20092927 -0.17985803 0.86400002 4280964466
-0.19942418 -0.17985803 0.86400002 4279648862
-0.19837724 -0.18027438 0.86600006 4280895050
-0.19686867 -0.18027438 0.86600006 4282605667
-0.19536011 -0.18027438 0.86600006 4286738555
-0.19385153 -0.18027438 0.86600006 4287659657
-0.19234295 -0.18027438 0.86600006 4287596431
-0.19083437 -0.18027438 0.86600006 4287793809
-0.18932581 -0.18027438 0.86600006 4287794329
-0.18825099 -0.18069071 0.86800003 4287596694
-0.18673894 -0.18069071 0.86800003 4287398797
-0.18522687 -0.18069071 0.86800003 4287398797
-0.18371482 -0.18069071 0.86800003 4286874002
-0.18178295 -0.18027438 0.86600006 4286742672
-0.18027438 -0.18027438 0.86600006 4284053645
-0.17917866 -0.18069071 0.86800003 4281685097
-0.1776666 -0.18069071 0.86800003 4280109159
-0.17615454 -0.18069071 0.86800003 4280438124
-0.17464249 -0.18069071 0.86800003 4281356134
-0.17352936 -0.18110704 0.87000006 4281882479
-0.17201382 -0.18110704 0.87000006 4282734701
-0.17049827 -0.18110704 0.87000006 4283195252
-0.16898273 -0.18110704 0.87000006 4283392636
-0.16785216 -0.18152338 0.87200004 4283063414
-0.16633314 -0.18152338 0.87200004 4282735203
-0.16481413 -0.18152338 0.87200004 4282537824
-0.16329511 -0.18152338 0.87200004 4282732123
-0.16177607 -0.18152338 0.87200004 4282008656
-0.16025704 -0.18152338 0.87200004 4279313215
-0.15873802 -0.18152338 0.87200004 4278193449
-0.15721901 -0.18152338 0.87200004 4279370752
-0.15569998 -0.18152338 0.87200004 4279962882
-0.15418094 -0.18152338 0.87200004 4279765253
-0.15353729 -0.18256423 0.87700003 4279699460
-0.1516629 -0.18214791 0.87500006 4279698956
-0.15013865 -0.18214791 0.87500006 4279238661
-0.14861439 -0.18214791 0.87500006 4279238912
-0.35666931 -0.17216013 0.83400005 4283850590
-0.35521647 -0.17216013 0.83400005 4284969071
-0.35231084 -0.17216013 0.83400005 4283657561
-0.350858 -0.17216013 0.83400005 4283592309
-0.34940517 -0.17216013 0.83400005 4283592309
-0.34795234 -0.17216013 0.83400005 4283330143
-0.34566858 -0.17174728 0.83200002 4283264350
-0.34421924 -0.17174728 0.83200002 4283527019
-0.34194595 -0.17133443 0.83000004 4283592812
-0.34050006 -0.17133443 0.83000004 4283527536
-0.3390542 -0.17133443 0.83000004 4283461743
-0.33760834 -0.17133443 0.83000004 4283527790
-0.3369725 -0.17174728 0.83200002 4283724912
-0.33552316 -0.17174728 0.83200002 4283593835
-0.33327076 -0.17133443 0.83000004 4283593835
-0.33182493 -0.17133443 0.83000004 4283527790
-0.33117512 -0.17174728 0.83200002 4283790705
-0.32972577 -0.17174728 0.83200002 4283134581
-0.32827643 -0.17174728 0.83200002 4283529082
-0.32682708 -0.17174728 0.83200002 4283726195
-0.32537773 -0.17174728 0.83200002 4283858038
-0.32470712 -0.17216013 0.83400005 4284185213
-0.32325429 -0.17216013 0.83400005 4284316799
-0.32180145 -0.17216013 0.83400005 4284709249
-0.32111683 -0.17257299 0.83600003 4285564302
-0.32042527 -0.17298585 0.83800006 4286283396
-0.31972671 -0.17339869 0.84000003 4287007375
-0.31826344 -0.17339869 0.84000003 4287662991
-0.31680015 -0.17339869 0.84000003 4288847008
-0.31646308 -0.17401798 0.84300005 4288977043
-0.31387359 -0.17339869 0.84000003 4288977043
-0.31241032 -0.17339869 0.84000003 4288515990
-0.31205755 -0.17401798 0.84300005 4287726217
-0.31058905 -0.17401798 0.84300005 4287726487
-0.30912054 -0.17401798 0.84300005 4289568691
-0.30765203 -0.17401798 0.84300005 4289306787
-0.30618355 -0.17401798 0.84300005 4289503909
-0.30543795 -0.17443083 0.84500003 4289438368
-0.30396596 -0.17443083 0.84500003 4289240990
-0.30177802 -0.17401798 0.84300005 4289174947
-0.30030951 -0.17401798 0.84300005 4289043360
-0.298841 -0.17401798 0.84300005 4288845202
-0.29737249 -0.17401798 0.84300005 4288779409
-0.29590401 -0.17401798 0.84300005 4288580248
-0.2944355 -0.17401798 0.84300005 4289040799
-0.29366201 -0.17443083 0.84500003 4289107357
-0.29219002 -0.17443083 0.84500003 4290489010
-0.29140615 -0.1748437 0.84700006 4290292408
-0.29061529 -0.17525655 0.84900004 4290226615
-0.28981742 -0.17566939 0.85100001 4289831857
-0.288335 -0.17566939 0.85100001 4289766064
-0.28685254 -0.17566939 0.85100001 4289963447
-0.28537011 -0.17566939 0.85100001 4290752707
-0.2832205 -0.17525655 0.84900004 4290555055
-0.28174153 -0.17525655 0.84900004 4290160297
-0.28092277 -0.17566939 0.85100001 4290290611
-0.27944034 -0.17566939 0.85100001 4290685369
-0.27730465 -0.17525655 0.84900004 4290685869
-0.27582568 -0.17525655 0.84900004 4290817711
-0.27693188 -0.17690796 0.85700005 4290357688
-0.27543899 -0.17690796 0.85700005 4290160308
-0.2745854 -0.17732081 0.85900003 4290225840
-0.27308899 -0.17732081 0.85900003 4290686391
-0.27159265 -0.17732081 0.85900003 4289899451
-0.27009624 -0.17732081 0.85900003 4287136145
-0.26859987 -0.17732081 0.85900003 4283257969
-0.26710352 -0.17732081 0.85900003 4279639354
-0.26560712 -0.17732081 0.85900003 4280555578
-0.26411074 -0.17732081 0.85900003 4280950335
-0.25452191 -0.17794009 0.86200005 4291604883
-0.25302032 -0.17794009 0.86200005 4292591778
-0.2515187 -0.17794009 0.86200005 4293644728
-0.25001711 -0.17794009 0.86200005 4294763465
-0.2485155 -0.17794009 0.86200005 4294699247
-0.24615422 -0.17732081 0.85900003 4294963704
-0.24465783 -0.17732081 0.85900003 4294962936
-0.24401069 -0.17794009 0.86200005 4294962936
-0.24166507 -0.17732081 0.85900003 4294370547
-0.24016869 -0.17732081 0.85900003 4294699512
-0.2386723 -0.17732081 0.85900003 4294435318
-0.23717594 -0.17732081 0.85900003 4294238196
-0.23567957 -0.17732081 0.85900003 4293777111
-0.23418318 -0.17732081 0.85900003 4293711318
-0.2326868 -0.17732081 0.85900003 4293251282
-0.23119041 -0.17732081 0.85900003 4292593353
-0.23049623 -0.17794009 0.86200005 4292133847
-0.22952595 -0.17835294 0.86400002 4291673296
-0.22802085 -0.17835294 0.86400002 4291410108
-0.22599143 -0.17794009 0.86200005 4291344315
-0.22448982 -0.17794009 0.86200005 4290685635
-0.22298822 -0.17794009 0.86200005 4290817221
-0.22200049 -0.17835294 0.86400002 4289966759
-0.22049542 -0.17835294 0.86400002 4285361249
-0.21899033 -0.17835294 0.86400002 4280505723
-0.21748523 -0.17835294 0.86400002 4280769152
-0.21598014 -0.17835294 0.86400002 4281163126
-0.21447507 -0.17835294 0.86400002 4281163126
-0.21296997 -0.17835294 0.86400002 4281423983
-0.21146488 -0.17835294 0.86400002 4281358190
-0.20995979 -0.17835294 0.86400002 4281292915
-0.2084547 -0.17835294 0.86400002 4281358965
-0.20694962 -0.17835294 0.86400002 4280898171
-0.20544453 -0.17835294 0.86400002 4280766585
-0.20441154 -0.1787658 0.86600006 4281028726
-0.20290296 -0.1787658 0.86600006 4281094519
-0.20139439 -0.1787658 0.86600006 4281029230
-0.19988582 -0.1787658 0.86600006 4280766058
-0.19837724 -0.1787658 0.86600006 4281093224
-0.19686867 -0.1787658 0.86600006 4281093224
-0.19536011 -0.1787658 0.86600006 4281744726
-0.19385153 -0.1787658 0.86600006 4281481810
-0.19234295 -0.1787658 0.86600006 4281810267
-0.19083437 -0.1787658 0.86600006 4281942109
-0.19020028 -0.17959152 0.87000006 4282007901
-0.18825099 -0.17917866 0.86800003 4282271072
-0.18673894 -0.17917866 0.86800003 4282795867
-0.18522687 -0.17917866 0.86800003 4283124832
-0.18371482 -0.17917866 0.86800003 4282995050
-0.18178295 -0.1787658 0.86600006 4283257965
-0.18027438 -0.1787658 0.86600006 4282735987
-0.1787658 -0.1787658 0.86600006 4282933109
-0.1776666 -0.17917866 0.86800003 4282868086
-0.17615454 -0.17917866 0.86800003 4283065464
-0.17504489 -0.17959152 0.87000006 4283195504
-0.17352936 -0.17959152 0.87000006 4282406244
-0.17240925 -0.18000437 0.87200004 4282405222
-0.17089023 -0.18000437 0.87200004 4282207844
-0.16937119 -0.18000437 0.87200004 4279445094
-0.16842964 -0.18062365 0.87500006 4278195027
-0.1669054 -0.18062365 0.87500006 4278192384
-0.16481413 -0.18000437 0.87200004 4278192384
-0.16329511 -0.18000437 0.87200004 4278191618
-0.16233265 -0.18062365 0.87500006 4278190336
-0.16025704 -0.18000437 0.87200004 4278780928
-0.15873802 -0.18000437 0.87200004 4279372805
-0.15721901 -0.18000437 0.87200004 4280160011
-0.15569998 -0.18000437 0.87200004 4280160011
-0.35812214 -0.1707073 0.83400005 4284374124
-0.35666931 -0.1707073 0.83400005 4283394151
-0.35521647 -0.1707073 0.83400005 4283723115
-0.35376367 -0.1707073 0.83400005 4283134308
-0.35231084 -0.1707073 0.83400005 4282871393
-0.350858 -0.1707073 0.83400005 4283263848
-0.34940517 -0.1707073 0.83400005 4283198055
-0.34711793 -0.17029794 0.83200002 4283262816
-0.34566858 -0.17029794 0.83200002 4283262816
-0.34421924 -0.17029794 0.83200002 4283262816
-0.34194595 -0.16988856 0.83000004 4283525989
-0.34050006 -0.16988856 0.83000004 4283395947
-0.3390542 -0.16988856 0.83000004 4283264361
-0.33760834 -0.16988856 0.83000004 4283134060
-0.33616248 -0.16988856 0.83000004 4283199853
-0.33471662 -0.16988856 0.83000004 4283265644
-0.33327076 -0.16988856 0.83000004 4283265644
-0.33182493 -0.16988856 0.83000004 4283265644
-0.33037907 -0.16988856 0.83000004 4283134058
-0.32893318 -0.16988856 0.83000004 4283133554
-0.32827643 -0.17029794 0.83200002 4283265397
-0.32682708 -0.17029794 0.83200002 4283265647
-0.32537773 -0.17029794 0.83200002 4283594611
-0.32392842 -0.17029794 0.83200002 4283463802
-0.32247907 -0.17029794 0.83200002 4283529596
-0.32180145 -0.1707073 0.83400005 4284447106
-0.32034862 -0.1707073 0.83400005 4285302415
-0.31966051 -0.17111668 0.83600003 4286545537
-0.31820419 -0.17111668 0.83600003 4287598481
-0.31826344 -0.17193542 0.84000003 4287663504
-0.31793159 -0.17254947 0.84300005 4288321435
-0.31646308 -0.17254947 0.84300005 4288387734
-0.31387359 -0.17193542 0.84000003 4288453527
-0.31241032 -0.17193542 0.84000003 4288713883
-0.31205755 -0.17254947 0.84300005 4287726987
-0.31058905 -0.17254947 0.84300005 4287791245
-0.30912054 -0.17254947 0.84300005 4289633449
-0.30765203 -0.17254947 0.84300005 4289306787
-0.30618355 -0.17254947 0.84300005 4289438116
-0.30471504 -0.17254947 0.84300005 4289569702
-0.30324653 -0.17254947 0.84300005 4289306787
-0.30070409 -0.17193542 0.84000003 4289108388
-0.2992408 -0.17193542 0.84000003 4289108388
-0.2977775 -0.17193542 0.84000003 4289238941
-0.29631424 -0.17193542 0.84000003 4289107355
-0.29485095 -0.17193542 0.84000003 4288580500
-0.29338768 -0.17193542 0.84000003 4289238173
-0.29366201 -0.17295885 0.84500003 4289107355
-0.29219002 -0.17295885 0.84500003 4290226092
-0.29140615 -0.17336822 0.84700006 4290292660
-0.29061529 -0.1737776 0.84900004 4290029488
-0.28981742 -0.17418694 0.85100001 4289437351
-0.288335 -0.17418694 0.85100001 4289568937
-0.28685254 -0.17418694 0.85100001 4289897652
-0.28537011 -0.17418694 0.85100001 4290752961
-0.2832205 -0.1737776 0.84900004 4290686389
-0.28174153 -0.1737776 0.84900004 4290357167
-0.28092277 -0.17418694 0.85100001 4290356143
-0.27944034 -0.17418694 0.85100001 4290553265
-0.27795789 -0.17418694 0.85100001 4290618799
-0.27647546 -0.17418694 0.85100001 4290947764
-0.27693188 -0.17541507 0.85700005 4290815924
-0.27543899 -0.17541507 0.85700005 4290815924
-0.2745854 -0.17582443 0.85900003 4290619572
-0.27308899 -0.17582443 0.85900003 4290751414
-0.27159265 -0.17582443 0.85900003 4289768379
-0.27009624 -0.17582443 0.85900003 4286873486
-0.26859987 -0.17582443 0.85900003 4283981395
-0.26710352 -0.17582443 0.85900003 4279836436
-0.26560712 -0.17582443 0.85900003 4282849338
-0.26411074 -0.17582443 0.85900003 4286073195
-0.26261437 -0.17582443 0.85900003 4287455840
-0.25662887 -0.17582443 0.85900003 4291930292
-0.25513247 -0.17582443 0.85900003 4293772496
-0.25452191 -0.17643848 0.86200005 4294103766
-0.25302032 -0.17643848 0.86200005 4294959332
-0.2515187 -0.17643848 0.86200005 4294962149
-0.25001711 -0.17643848 0.86200005 4294961892
-0.2485155 -0.17643848 0.86200005 4294896371
-0.24615422 -0.17582443 0.85900003 4294699249
-0.24465783 -0.17582443 0.85900003 4294437106
-0.24401069 -0.17643848 0.86200005 4294042348
-0.24166507 -0.17582443 0.85900003 4293582312
-0.24016869 -0.17582443 0.85900003 4293384934
-0.2386723 -0.17582443 0.85900003 4293384936
-0.23717594 -0.17582443 0.85900003 4293121507
-0.23567957 -0.17582443 0.85900003 4292134601
-0.23418318 -0.17582443 0.85900003 4292134601
-0.2326868 -0.17582443 0.85900003 4291345348
-0.23199783 -0.17643848 0.86200005 4291213762
-0.23049623 -0.17643848 0.86200005 4291017162
-0.22952595 -0.17684786 0.86400002 4290556611
-0.22802085 -0.17684786 0.86400002 4290489010
-0.22599143 -0.17643848 0.86200005 4290554803
-0.22448982 -0.17643848 0.86200005 4289569201
-0.22402298 -0.17725722 0.86600006 4289766836
-0.22200049 -0.17684786 0.86400002 4288323242
-0.22049542 -0.17684786 0.86400002 4284375919
-0.21899033 -0.17684786 0.86400002 4282341210
-0.21748523 -0.17684786 0.86400002 4281486158
-0.21598014 -0.17684786 0.86400002 4281618535
-0.21447507 -0.17684786 0.86400002 4281881706
-0.21346296 -0.17725722 0.86600006 4281881706
-0.21146488 -0.17684786 0.86400002 4281881706
-0.20995979 -0.17684786 0.86400002 4281159782
-0.2084547 -0.17684786 0.86400002 4281093989
-0.20694962 -0.17684786 0.86400002 4281551976
-0.20544453 -0.17684786 0.86400002 4281880941
-0.20441154 -0.17725722 0.86600006 4281618285
-0.20290296 -0.17725722 0.86600006 4281947249
-0.20139439 -0.17725722 0.86600006 4281882227
-0.19988582 -0.17725722 0.86600006 4281816433
-0.19837724 -0.17725722 0.86600006 4281554029
-0.19732332 -0.1776666 0.86800003 4281290600
-0.19581127 -0.1776666 0.86800003 4280895845
-0.19429921 -0.1776666 0.86800003 4280830051
-0.19278716 -0.1776666 0.86800003 4280633438
-0.1912751 -0.1776666 0.86800003 4280765025
-0.19020028 -0.17807597 0.87000006 4281092445
-0.18868476 -0.17807597 0.87000006 4281158238
-0.18716921 -0.17807597 0.87000006 4281880160
-0.18522687 -0.1776666 0.86800003 4282274917
-0.18371482 -0.1776666 0.86800003 4282931303
-0.18220276 -0.1776666 0.86800003 4283194219
-0.18027438 -0.17725722 0.86600006 4283129709
-0.1787658 -0.17725722 0.86600006 4283129709
-0.1776666 -0.1776666 0.86800003 4283260268
-0.17656045 -0.17807597 0.87000006 4282865510
-0.17504489 -0.17807597 0.87000006 4282405472
-0.17352936 -0.17807597 0.87000006 4282010714
-0.17240925 -0.17848535 0.87200004 4280762958
-0.17089023 -0.17848535 0.87200004 4279578940
-0.1699539 -0.1790994 0.87500006 4279570981
-0.16842964 -0.1790994 0.87500006 4278781465
-0.1669054 -0.1790994 0.87500006 4278910976
-0.16538115 -0.1790994 0.87500006 4279173376
-0.16385689 -0.1790994 0.87500006 4279173120
-0.16233265 -0.1790994 0.87500006 4279238912
-0.35871267 -0.16884859 0.83200002 4282534230
-0.35726333 -0.16884859 0.83200002 4284376434
-0.35581398 -0.16884859 0.83200002 4283131467
-0.35521647 -0.16925448 0.83400005 4282736709
-0.35376367 -0.16925448 0.83400005 4281424222
-0.35231084 -0.16925448 0.83400005 4281226843
-0.350858 -0.16925448 0.83400005 4281226831
-0.34856728 -0.16884859 0.83200002 4281423954
-0.34711793 -0.16884859 0.83200002 4281489236
-0.34566858 -0.16884859 0.83200002 4281160271
-0.34421924 -0.16884859 0.83200002 4281095245
-0.34194595 -0.16844271 0.83000004 4281489747
-0.34050006 -0.16844271 0.83000004 4282212180
-0.3390542 -0.16844271 0.83000004 4282343509
-0.33760834 -0.16844271 0.83000004 4282935396
-0.33616248 -0.16844271 0.83000004 4283330154
-0.33471662 -0.16844271 0.83000004 4283461996
-0.33327076 -0.16844271 0.83000004 4283461996
-0.33182493 -0.16844271 0.83000004 4283330154
-0.33037907 -0.16844271 0.83000004 4283264361
-0.32893318 -0.16844271 0.83000004 4283133558
-0.32827643 -0.16884859 0.83200002 4283133558
-0.32682708 -0.16884859 0.83200002 4283133558
-0.32537773 -0.16884859 0.83200002 4283462524
-0.32392842 -0.16884859 0.83200002 4283397746
-0.32247907 -0.16884859 0.83200002 4283331953
-0.32180145 -0.16925448 0.83400005 4283725696
-0.32034862 -0.16925448 0.83400005 4284383626
-0.31889579 -0.16925448 0.83400005 4285889910
-0.31820419 -0.16966036 0.83600003 4287468941
-0.31826344 -0.17047213 0.84000003 4287926160
-0.31680015 -0.17047213 0.84000003 4287662989
-0.31533685 -0.17047213 0.84000003 4287794588
-0.31387359 -0.17047213 0.84000003 4288715690
-0.31241032 -0.17047213 0.84000003 4288583580
-0.31205755 -0.17108096 0.84300005 4288385944
-0.31058905 -0.17108096 0.84300005 4288581792
-0.30802047 -0.17047213 0.84000003 4289766066
-0.30655721 -0.17047213 0.84000003 4289437855
-0.30618355 -0.17108096 0.84300005 4289437855
-0.30471504 -0.17108096 0.84300005 4289633960
-0.30324653 -0.17108096 0.84300005 4289765802
-0.30070409 -0.17047213 0.84000003 4289568171
-0.2992408 -0.17047213 0.84000003 4289897137
-0.2977775 -0.17047213 0.84000003 4290160047
-0.29631424 -0.17047213 0.84000003 4290422963
-0.29485095 -0.17047213 0.84000003 4290356654
-0.29366201 -0.17148685 0.84500003 4290225318
-0.29219002 -0.17148685 0.84500003 4290225318
-0.29209423 -0.17229863 0.84900004 4290225838
-0.29129988 -0.1727045 0.85100001 4290094252
-0.28981742 -0.1727045 0.85100001 4290028457
-0.288335 -0.1727045 0.85100001 4290160043
-0.28685254 -0.1727045 0.85100001 4290226104
-0.28469944 -0.17229863 0.84900004 4290949570
-0.2832205 -0.17229863 0.84900004 4290883764
-0.28174153 -0.17229863 0.84900004 4290883764
-0.28092277 -0.1727045 0.85100001 4290817207
-0.27944034 -0.1727045 0.85100001 4290751414
-0.27795789 -0.1727045 0.85100001 4290817207
-0.27712521 -0.1731104 0.85300004 4291277758
-0.27693188 -0.17392218 0.85700005 4291014070
-0.27543899 -0.17392218 0.85700005 4291014070
-0.27394608 -0.17392218 0.85700005 4290487993
-0.27308899 -0.17432804 0.85900003 4290487993
-0.27159265 -0.17432804 0.85900003 4289963958
-0.27009624 -0.17432804 0.85900003 4288779941
-0.26859987 -0.17432804 0.85900003 4285427839
-0.26710352 -0.17432804 0.85900003 4284901495
-0.26560712 -0.17432804 0.85900003 4290553490
-0.26411074 -0.17432804 0.85900003 4294963163
-0.26261437 -0.17432804 0.85900003 4294963443
-0.26111799 -0.17432804 0.85900003 4294963443
-0.25962159 -0.17432804 0.85900003 4294831609
-0.25812525 -0.17432804 0.85900003 4294700023
-0.25662887 -0.17432804 0.85900003 4294172916
-0.25513247 -0.17432804 0.85900003 4294304502
-0.25452191 -0.17493689 0.86200005 4294171619
-0.25302032 -0.17493689 0.86200005 4294105826
-0.2515187 -0.17493689 0.86200005 4293580752
-0.24914695 -0.17432804 0.85900003 4292790979
-0.24765058 -0.17432804 0.85900003 4292198608
-0.24615422 -0.17432804 0.85900003 4291869900
-0.24465783 -0.17432804 0.85900003 4291409606
-0.24401069 -0.17493689 0.86200005 4291080897
-0.24166507 -0.17432804 0.85900003 4290817209
-0.24016869 -0.17432804 0.85900003 4290488245
-0.2386723 -0.17432804 0.85900003 4290225068
-0.23717594 -0.17432804 0.85900003 4289896103
-0.23567957 -0.17432804 0.85900003 4289764002
-0.23418318 -0.17432804 0.85900003 4289566622
-0.2326868 -0.17432804 0.85900003 4289040799
-0.23199783 -0.17493689 0.86200005 4288843163
-0.23049623 -0.17493689 0.86200005 4288515236
-0.22952595 -0.17534277 0.86400002 4288186014
-0.22802085 -0.17534277 0.86400002 4288316567
-0.22651576 -0.17534277 0.86400002 4288316567
-0.22501066 -0.17534277 0.86400002 4288053903
-0.22350559 -0.17534277 0.86400002 4288119697
-0.22200049 -0.17534277 0.86400002 4287793805
-0.22049542 -0.17534277 0.86400002 4285557099
-0.21899033 -0.17534277 0.86400002 4283653475
-0.21748523 -0.17534277 0.86400002 4282140236
-0.21598014 -0.17534277 0.86400002 4281814635
-0.21447507 -0.17534277 0.86400002 4282209393
-0.21296997 -0.17534277 0.86400002 4282471015
-0.21146488 -0.17534277 0.86400002 4282405222
-0.20995979 -0.17534277 0.86400002 4282274667
-0.20893726 -0.17574866 0.86600006 4282537840
-0.20742866 -0.17574866 0.86600006 4282799211
-0.2059201 -0.17574866 0.86600006 4282931053
-0.20441154 -0.17574866 0.86600006 4282800746
-0.20290296 -0.17574866 0.86600006 4282932589
-0.20139439 -0.17574866 0.86600006 4282998139
-0.19988582 -0.17574866 0.86600006 4282932346
-0.19837724 -0.17574866 0.86600006 4283129211
-0.19732332 -0.17615454 0.86800003 4283721348
-0.19581127 -0.17615454 0.86800003 4283392890
-0.19429921 -0.17615454 0.86800003 4283326840
-0.19278716 -0.17615454 0.86800003 4283325557
-0.1912751 -0.17615454 0.86800003 4283325557
-0.19020028 -0.17656045 0.87000006 4283260268
-0.18868476 -0.17656045 0.87000006 4282931303
-0.18716921 -0.17656045 0.87000006 4283258717
-0.18565367 -0.17656045 0.87000006 4282864215
-0.18371482 -0.17615454 0.86800003 4281548630
-0.18220276 -0.17615454 0.86800003 4280693321
-0.18027438 -0.17574866 0.86600006 4278326586
-0.1787658 -0.17574866 0.86600006 4278193972
-0.1776666 -0.17615454 0.86800003 4278521362
-0.17615454 -0.17615454 0.86800003 4278389519
-0.17504489 -0.17656045 0.87000006 4278192133
-0.17352936 -0.17656045 0.87000006 4278191875
-0.17240925 -0.17696631 0.87200004 4278914821
-0.17089023 -0.17696631 0.87200004 4278980614
-0.1699539 -0.17757516 0.87500006 4279702275
-0.16842964 -0.17757516 0.87500006 4279833604
-0.1669054 -0.17757516 0.87500006 4280160011
-0.16538115 -0.17757516 0.87500006 4279765253
-0.16385689 -0.17757516 0.87500006 4279831046
-0.35871267 -0.16739924 0.83200002 4281683535
-0.35726333 -0.16739924 0.83200002 4282933602
-0.35581398 -0.16739924 0.83200002 4282606419
-0.35521647 -0.16780165 0.83400005 4282145868
-0.35376367 -0.16780165 0.83400005 4280964436
-0.35231084 -0.16780165 0.83400005 4280767314
-0.350858 -0.16780165 0.83400005 4280766544
-0.34856728 -0.16739924 0.83200002 4280437579
-0.34711793 -0.16739924 0.83200002 4280372299
-0.34566858 -0.16739924 0.83200002 4280175177
-0.34421924 -0.16739924 0.83200002 4279848261
-0.34194595 -0.16699685 0.83000004 4280045383
-0.34050006 -0.16699685 0.83000004 4280701000
-0.3390542 -0.16699685 0.83000004 4280898380
-0.33760834 -0.16699685 0.83000004 4281619791
-0.33616248 -0.16699685 0.83000004 4282475099
-0.33471662 -0.16699685 0.83000004 4283000660
-0.33246773 -0.16659446 0.82800007 4283461211
-0.33102533 -0.16659446 0.82800007 4283265647
-0.33037907 -0.16699685 0.83000004 4283134060
-0.32893318 -0.16699685 0.83000004 4283002475
-0.32748732 -0.16699685 0.83000004 4283002475
-0.32682708 -0.16739924 0.83200002 4283002225
-0.32537773 -0.16739924 0.83200002 4283331190
-0.32392842 -0.16739924 0.83200002 4283200887
-0.32247907 -0.16739924 0.83200002 4283266680
-0.32102972 -0.16739924 0.83200002 4283200633
-0.32034862 -0.16780165 0.83400005 4283134840
-0.31889579 -0.16780165 0.83400005 4284576879
-0.31744295 -0.16780165 0.83400005 4286616463
-0.31599012 -0.16780165 0.83400005 4287926677
-0.31529158 -0.16820405 0.83600003 4287729297
-0.3145861 -0.16860646 0.83800006 4287597448
-0.31387359 -0.16900885 0.84000003 4288650136
-0.31241032 -0.16900885 0.84000003 4288846497
-0.31205755 -0.16961247 0.84300005 4288714911
-0.31058905 -0.16961247 0.84300005 4288911009
-0.30802047 -0.16900885 0.84000003 4289568939
-0.30655721 -0.16900885 0.84000003 4289634466
-0.30618355 -0.16961247 0.84300005 4289634466
-0.30471504 -0.16961247 0.84300005 4289764517
-0.30324653 -0.16961247 0.84300005 4289896103
-0.30177802 -0.16961247 0.84300005 4289764517
-0.30030951 -0.16961247 0.84300005 4290290861
-0.2977775 -0.16900885 0.84000003 4290422703
-0.29631424 -0.16900885 0.84000003 4290488497
-0.29435712 -0.17041726 0.84700006 4290553258
-0.2935732 -0.17081967 0.84900004 4290553258
-0.29278234 -0.17122208 0.85100001 4290553519
-0.29129988 -0.17122208 0.85100001 4290487726
-0.28981742 -0.17122208 0.85100001 4290487726
-0.288335 -0.17122208 0.85100001 4290553519
-0.28685254 -0.17122208 0.85100001 4290488497
-0.28469944 -0.17081967 0.84900004 4291080377
-0.2832205 -0.17081967 0.84900004 4290883514
-0.28174153 -0.17081967 0.84900004 4290817720
-0.28092277 -0.17122208 0.85100001 4291014068
-0.27944034 -0.17122208 0.85100001 4290948275
-0.27795789 -0.17122208 0.85100001 4290816944
-0.27647546 -0.17122208 0.85100001 4291277495
-0.27628559 -0.17202687 0.85500002 4290817207
-0.27543899 -0.17242928 0.85700005 4290817207
-0.27394608 -0.17242928 0.85700005 4290619311
-0.27245319 -0.17242928 0.85700005 4290685104
-0.27159265 -0.17283167 0.85900003 4290292145
-0.27009624 -0.17283167 0.85900003 4288976541
-0.26859987 -0.17283167 0.85900003 4287659398
-0.26710352 -0.17283167 0.85900003 4287659398
-0.26560712 -0.17283167 0.85900003 4292193470
-0.26411074 -0.17283167 0.85900003 4294961146
-0.26261437 -0.17283167 0.85900003 4294963961
-0.26111799 -0.17283167 0.85900003 4294437617
-0.25962159 -0.17283167 0.85900003 4294240754
-0.25812525 -0.17283167 0.85900003 4293780203
-0.25662887 -0.17283167 0.85900003 4293318888
-0.25513247 -0.17283167 0.85900003 4292792544
-0.25452191 -0.17343529 0.86200005 4292528856
-0.25302032 -0.17343529 0.86200005 4292134099
-0.2515187 -0.17343529 0.86200005 4291608258
-0.24914695 -0.17283167 0.85900003 4291147707
-0.24765058 -0.17283167 0.85900003 4290622141
-0.24615422 -0.17283167 0.85900003 4290490554
-0.24465783 -0.17283167 0.85900003 4290357940
-0.24401069 -0.17343529 0.86200005 4290094511
-0.24166507 -0.17283167 0.85900003 4289371558
-0.24016869 -0.17283167 0.85900003 4288911007
-0.2386723 -0.17283167 0.85900003 4288975517
-0.23717594 -0.17283167 0.85900003 4288580759
-0.23567957 -0.17283167 0.85900003 4288646804
-0.23418318 -0.17283167 0.85900003 4288449424
-0.2326868 -0.17283167 0.85900003 4288448659
-0.23199783 -0.17343529 0.86200005 4288185488
-0.23049623 -0.17343529 0.86200005 4287923349
-0.22952595 -0.17383768 0.86400002 4287594384
-0.22802085 -0.17383768 0.86400002 4287593352
-0.22651576 -0.17383768 0.86400002 4287856268
-0.22501066 -0.17383768 0.86400002 4287988108
-0.22350559 -0.17383768 0.86400002 4288053901
-0.22200049 -0.17383768 0.86400002 4287595147
-0.22049542 -0.17383768 0.86400002 4286081908
-0.21899033 -0.17383768 0.86400002 4284112483
-0.21748523 -0.17383768 0.86400002 4282664781
-0.21598014 -0.17383768 0.86400002 4282403675
-0.21447507 -0.17383768 0.86400002 4282535262
-0.21296997 -0.17383768 0.86400002 4282731610
-0.21146488 -0.17383768 0.86400002 4282928988
-0.20995979 -0.17383768 0.86400002 4282995050
-0.20893726 -0.1742401 0.86600006 4283916152
-0.20742866 -0.1742401 0.86600006 4283851151
-0.2059201 -0.1742401 0.86600006 4283456393
-0.20441154 -0.1742401 0.86600006 4282538603
-0.20290296 -0.1742401 0.86600006 4282275688
-0.20139439 -0.1742401 0.86600006 4282799717
-0.19988582 -0.1742401 0.86600006 4282799717
-0.19883539 -0.17464249 0.86800003 4283126629
-0.19732332 -0.17464249 0.86800003 4283126629
-0.19581127 -0.17464249 0.86800003 4282863713
-0.19429921 -0.17464249 0.86800003 4282731871
-0.19323137 -0.17504489 0.87000006 4282797916
-0.19171584 -0.17504489 0.87000006 4282797916
-0.19020028 -0.17504489 0.87000006 4282798420
-0.18868476 -0.17504489 0.87000006 4282403662
-0.18716921 -0.17504489 0.87000006 4280961095
-0.18522687 -0.17464249 0.86800003 4279645235
-0.18371482 -0.17464249 0.86800003 4279376419
-0.18220276 -0.17464249 0.86800003 4278191888
-0.18027438 -0.1742401 0.86600006 4279173130
-0.1787658 -0.1742401 0.86600006 4279369741
-0.1776666 -0.17464249 0.86800003 4279109383
-0.17615454 -0.17464249 0.86800003 4278977797
-0.17504489 -0.17504489 0.87000006 4280026372
-0.17352936 -0.17504489 0.87000006 4280224007
-0.17201382 -0.17504489 0.87000006 4280290048
-0.17049827 -0.17504489 0.87000006 4280487427
-0.35871267 -0.1659499 0.83200002 4281220617
-0.35726333 -0.1659499 0.83200002 4282470428
-0.35581398 -0.1659499 0.83200002 4281224253
-0.35521647 -0.16634883 0.83400005 4280895289
-0.35376367 -0.16634883 0.83400005 4280305491
-0.35231084 -0.16634883 0.83400005 4280042319
-0.350858 -0.16634883 0.83400005 4279713870
-0.34856728 -0.1659499 0.83200002 4279582283
-0.34711793 -0.1659499 0.83200002 4279516236
-0.34566858 -0.1659499 0.83200002 4279582285
-0.34421924 -0.1659499 0.83200002 4279058504
-0.34194595 -0.16555099 0.83000004 4278926918
-0.34050006 -0.16555099 0.83000004 4279255088
-0.33823723 -0.16515207 0.82800007 4279255088
-0.33679485 -0.16515207 0.82800007 4279713842
-0.33535245 -0.16515207 0.82800007 4280174393
-0.33391011 -0.16515207 0.82800007 4281094689
-0.33246773 -0.16515207 0.82800007 4282476342
-0.33102533 -0.16515207 0.82800007 4283395436
-0.32958296 -0.16515207 0.82800007 4283592559
-0.32814059 -0.16515207 0.82800007 4283002981
-0.32748732 -0.16555099 0.83000004 4282936932
-0.32682708 -0.1659499 0.83200002 4282936945
-0.32537773 -0.1659499 0.83200002 4282871152
-0.32392842 -0.1659499 0.83200002 4283265647
-0.32247907 -0.1659499 0.83200002 4283463026
-0.32102972 -0.1659499 0.83200002 4283266426
-0.31958038 -0.1659499 0.83200002 4283134840
-0.31813103 -0.1659499 0.83200002 4283658104
-0.31744295 -0.16634883 0.83400005 4285105550
-0.31599012 -0.16634883 0.83400005 4286875285
-0.31529158 -0.16674773 0.83600003 4288256938
-0.3145861 -0.16714665 0.83800006 4288255112
-0.31312627 -0.16714665 0.83800006 4288781456
-0.31241032 -0.16754557 0.84000003 4289044131
-0.31205755 -0.16814396 0.84300005 4288846495
-0.31058905 -0.16814396 0.84300005 4288714409
-0.30912054 -0.16814396 0.84300005 4289372339
-0.30765203 -0.16814396 0.84300005 4289569189
-0.30763638 -0.1689418 0.84700006 4289898154
-0.3061609 -0.1689418 0.84700006 4290094250
-0.30468544 -0.1689418 0.84700006 4290160043
-0.30249399 -0.16854288 0.84500003 4290159275
-0.30102199 -0.16854288 0.84500003 4290225068
-0.298841 -0.16814396 0.84300005 4290290863
-0.29737249 -0.16814396 0.84300005 4290948794
-0.296606 -0.16854288 0.84500003 4290751151
-0.29513401 -0.16854288 0.84500003 4290948273
-0.29574722 -0.16973962 0.85100001 4290817459
-0.29426476 -0.16973962 0.85100001 4290883252
-0.29278234 -0.16973962 0.85100001 4290948277
-0.29129988 -0.16973962 0.85100001 4290948277
-0.28981742 -0.16973962 0.85100001 4290817207
-0.28901264 -0.17013854 0.85300004 4291211965
-0.28752673 -0.17013854 0.85300004 4290950072
-0.28537011 -0.16973962 0.85100001 4291213501
-0.28388768 -0.16973962 0.85100001 4291344837
-0.28306893 -0.17013854 0.85300004 4291279044
-0.28158301 -0.17013854 0.85300004 4291409595
-0.27944034 -0.16973962 0.85100001 4291541180
-0.27795789 -0.16973962 0.85100001 4291410101
-0.27647546 -0.16973962 0.85100001 4291804602
-0.27628559 -0.17053746 0.85500002 4291672768
-0.27479616 -0.17053746 0.85500002 4291540926
-0.27394608 -0.17093638 0.85700005 4291541180
-0.27245319 -0.17093638 0.85700005 4292264903
-0.2709603 -0.17093638 0.85700005 4292265671
-0.27009624 -0.17133531 0.85900003 4292463050
-0.26859987 -0.17133531 0.85900003 4291675085
-0.26710352 -0.17133531 0.85900003 4291148485
-0.26560712 -0.17133531 0.85900003 4291539397
-0.26349583 -0.17093638 0.85700005 4292921050
-0.26200292 -0.17093638 0.85700005 4292132815
-0.26111799 -0.17133531 0.85900003 4291343299
-0.25962159 -0.17133531 0.85900003 4290817970
-0.25812525 -0.17133531 0.85900003 4290620848
-0.25662887 -0.17133531 0.85900003 4290356668
-0.25513247 -0.17133531 0.85900003 4289698994
-0.25363609 -0.17133531 0.85900003 4289370013
-0.25302032 -0.17193368 0.86200005 4289106842
-0.2515187 -0.17193368 0.86200005 4288778394
-0.25001711 -0.17193368 0.86200005 4288580759
-0.24765058 -0.17133531 0.85900003 4288514452
-0.24615422 -0.17133531 0.85900003 4288448659
-0.24465783 -0.17133531 0.85900003 4288185742
-0.24401069 -0.17193368 0.86200005 4287988106
-0.24166507 -0.17133531 0.85900003 4288053899
-0.24016869 -0.17133531 0.85900003 4288119949
-0.2386723 -0.17133531 0.85900003 4287988619
-0.23717594 -0.17133531 0.85900003 4287791497
-0.23567957 -0.17133531 0.85900003 4287529345
-0.23418318 -0.17133531 0.85900003 4287463296
-0.2326868 -0.17133531 0.85900003 4287068542
-0.23199783 -0.17193368 0.86200005 4286607991
-0.23049623 -0.17193368 0.86200005 4286016631
-0.22952595 -0.17233258 0.86400002 4285556336
-0.22802085 -0.17233258 0.86400002 4285227114
-0.22651576 -0.17233258 0.86400002 4284963943
-0.22501066 -0.17233258 0.86400002 4284437850
-0.22350559 -0.17233258 0.86400002 4284043093
-0.22200049 -0.17233258 0.86400002 4283516749
-0.21998501 -0.17193368 0.86200005 4282529853
-0.2184834 -0.17193368 0.86200005 4282793530
-0.2169818 -0.17193368 0.86200005 4283188288
-0.21548019 -0.17193368 0.86200005 4282926926
-0.21397859 -0.17193368 0.86200005 4282795340
-0.212477 -0.17193368 0.86200005 4282336586
-0.21097539 -0.17193368 0.86200005 4283784032
-0.20947379 -0.17193368 0.86200005 4286610537
-0.20893726 -0.17273152 0.86600006 4288913292
-0.20742866 -0.17273152 0.86600006 4288648089
-0.2059201 -0.17273152 0.86600006 4285621355
-0.20441154 -0.17273152 0.86600006 4282927962
-0.20290296 -0.17273152 0.86600006 4278190091
-0.20139439 -0.17273152 0.86600006 4278190336
-0.20034744 -0.17313042 0.86800003 4278587909
-0.19883539 -0.17313042 0.86800003 4278587405
-0.19732332 -0.17313042 0.86800003 4278587405
-0.19626246 -0.17352936 0.87000006 4278716424
-0.19474691 -0.17352936 0.87000006 4278716424
-0.19323137 -0.17352936 0.87000006 4278717441
-0.19171584 -0.17352936 0.87000006 4278190592
-0.19020028 -0.17352936 0.87000006 4278651392
-0.18868476 -0.17352936 0.87000006 4279440645
-0.18673894 -0.17313042 0.86800003 4278980352
-0.18522687 -0.17313042 0.86800003 4278190848
-0.18371482 -0.17313042 0.86800003 4278714627
-0.18220276 -0.17313042 0.86800003 4279240972
-0.18027438 -0.17273152 0.86600006 4279635480
-0.1787658 -0.17273152 0.86600006 4279832602
-0.1776666 -0.17313042 0.86800003 4279701523
-0.17615454 -0.17313042 0.86800003 4279701523
-0.17504489 -0.17352936 0.87000006 4280094732
-0.17352936 -0.17352936 0.87000006 4280226317
-0.17201382 -0.17352936 0.87000006 4280422150
-0.35957497 -0.164896 0.83400005 4279638278
-0.35726333 -0.16450055 0.83200002 4281085724
-0.35581398 -0.16450055 0.83200002 4281681209
-0.35521647 -0.164896 0.83400005 4281549622
-0.35376367 -0.164896 0.83400005 4280566087
-0.35231084 -0.164896 0.83400005 4280171329
-0.350858 -0.164896 0.83400005 4280170825
-0.34856728 -0.16450055 0.83200002 4279841860
-0.34711793 -0.16450055 0.83200002 4279383878
-0.34566858 -0.16450055 0.83200002 4279383878
-0.34421924 -0.16450055 0.83200002 4279712327
-0.34194595 -0.16410512 0.83000004 4278922554
-0.34050006 -0.16410512 0.83000004 4279642920
-0.33823723 -0.1637097 0.82800007 4279576871
-0.33679485 -0.1637097 0.82800007 4278528800
-0.33535245 -0.1637097 0.82800007 4278594593
-0.33391011 -0.1637097 0.82800007 4280432670
-0.33166462 -0.16331427 0.82600003 4281419566
-0.33022574 -0.16331427 0.82600003 4282013513
-0.32878685 -0.16331427 0.82600003 4282342735
-0.32734796 -0.16331427 0.82600003 4282935148
-0.32590908 -0.16331427 0.82600003 4283066735
-0.32525584 -0.1637097 0.82800007 4282870889
-0.3245956 -0.16410512 0.83000004 4282870889
-0.32314974 -0.16410512 0.83000004 4282870639
-0.32170388 -0.16410512 0.83000004 4283002225
-0.32025805 -0.16410512 0.83000004 4283199351
-0.31958038 -0.16450055 0.83200002 4283133558
-0.31813103 -0.16450055 0.83200002 4283133554
-0.31744295 -0.164896 0.83400005 4283857534
-0.31674787 -0.16529143 0.83600003 4286218886
-0.31529158 -0.16529143 0.83600003 4288061090
-0.3145861 -0.16568686 0.83800006 4288386711
-0.31312627 -0.16568686 0.83800006 4288649884
-0.31241032 -0.16608229 0.84000003 4289174949
-0.31205755 -0.16667545 0.84300005 4288977313
-0.31058905 -0.16667545 0.84300005 4288713379
-0.30985394 -0.16707088 0.84500003 4289568687
-0.30838194 -0.16707088 0.84500003 4289569450
-0.30763638 -0.16746633 0.84700006 4289898415
-0.3061609 -0.16746633 0.84700006 4290094763
-0.30540487 -0.16786174 0.84900004 4290094763
-0.30320996 -0.16746633 0.84700006 4290094252
-0.30173448 -0.16746633 0.84700006 4290094252
-0.30025899 -0.16746633 0.84700006 4290028459
-0.29801005 -0.16786174 0.84900004 4290488495
-0.29653111 -0.16786174 0.84900004 4290817459
-0.29574722 -0.16825718 0.85100001 4290817205
-0.29426476 -0.16825718 0.85100001 4290817205
-0.29278234 -0.16825718 0.85100001 4290751666
-0.29129988 -0.16825718 0.85100001 4290817459
-0.29049855 -0.16865262 0.85300004 4290751414
-0.28901264 -0.16865262 0.85300004 4291211965
-0.28752673 -0.16865262 0.85300004 4290950072
-0.28604081 -0.16865262 0.85300004 4291147707
-0.28455484 -0.16865262 0.85300004 4291345089
-0.28306893 -0.16865262 0.85300004 4291476418
-0.28158301 -0.16865262 0.85300004 4291606460
-0.2800971 -0.16865262 0.85300004 4291540667
-0.27861118 -0.16865262 0.85300004 4291540667
-0.27712521 -0.16865262 0.85300004 4291869375
-0.27628559 -0.16904806 0.85500002 4291804354
-0.27479616 -0.16904806 0.85500002 4291606719
-0.27330676 -0.16904806 0.85500002 4291869116
-0.27245319 -0.16944349 0.85700005 4292461253
-0.2709603 -0.16944349 0.85700005 4292396494
-0.26946738 -0.16944349 0.85700005 4292659409
-0.26859987 -0.16983892 0.85900003 4292265937
-0.26710352 -0.16983892 0.85900003 4291279042
-0.26560712 -0.16983892 0.85900003 4290883514
-0.26349583 -0.16944349 0.85700005 4290883514
-0.26200292 -0.16944349 0.85700005 4290883000
-0.26111799 -0.16983892 0.85900003 4290290863
-0.25962159 -0.16983892 0.85900003 4289567908
-0.25812525 -0.16983892 0.85900003 4289304736
-0.25662887 -0.16983892 0.85900003 4289369511
-0.25513247 -0.16983892 0.85900003 4289040547
-0.25363609 -0.16983892 0.85900003 4288646552
-0.25302032 -0.17043208 0.86200005 4288449172
-0.2515187 -0.17043208 0.86200005 4288448661
-0.24914695 -0.16983892 0.85900003 4288316819
-0.24765058 -0.16983892 0.85900003 4288250765
-0.24615422 -0.16983892 0.85900003 4288118922
-0.24465783 -0.16983892 0.85900003 4287856007
-0.24401069 -0.17043208 0.86200005 4287790214
-0.24166507 -0.16983892 0.85900003 4287659144
-0.24016869 -0.16983892 0.85900003 4287527557
-0.2386723 -0.16983892 0.85900003 4287200643
-0.23717594 -0.16983892 0.85900003 4286740092
-0.23567957 -0.16983892 0.85900003 4286606957
-0.23418318 -0.16983892 0.85900003 4286475371
-0.2326868 -0.16983892 0.85900003 4286146669
-0.23119041 -0.16983892 0.85900003 4285949291
-0.23049623 -0.17043208 0.86200005 4285293930
-0.22899462 -0.17043208 0.86200005 4285096294
-0.22749302 -0.17043208 0.86200005 4283521373
-0.22599143 -0.17043208 0.86200005 4281876805
-0.22448982 -0.17043208 0.86200005 4282265910
-0.22402298 -0.17122294 0.86600006 4281213478
-0.22200049 -0.17082751 0.86400002 4281932324
-0.21998501 -0.17043208 0.86200005 4282392875
-0.2184834 -0.17043208 0.86200005 4282133297
-0.2169818 -0.17043208 0.86200005 4282988606
-0.21548019 -0.17043208 0.86200005 4283450188
-0.21397859 -0.17043208 0.86200005 4282923844
-0.212477 -0.17043208 0.86200005 4282397752
-0.21097539 -0.17043208 0.86200005 4286476918
-0.20947379 -0.17043208 0.86200005 4287135893
-0.20893726 -0.17122294 0.86600006 4288912304
-0.20742866 -0.17122294 0.86600006 4289106603
-0.2059201 -0.17122294 0.86600006 4286606469
-0.20441154 -0.17122294 0.86600006 4283057242
-0.20290296 -0.17122294 0.86600006 4278190095
-0.20139439 -0.17122294 0.86600006 4278255616
-0.20034744 -0.17161837 0.86800003 4279504141
-0.19883539 -0.17161837 0.86800003 4279636233
-0.19732332 -0.17161837 0.86800003 4279636233
-0.19626246 -0.17201382 0.87000006 4280224007
-0.19474691 -0.17201382 0.87000006 4280289800
-0.19323137 -0.17201382 0.87000006 4280289800
-0.19171584 -0.17201382 0.87000006 4279763456
-0.19020028 -0.17201382 0.87000006 4279699712
-0.18868476 -0.17201382 0.87000006 4280094465
-0.18673894 -0.17161837 0.86800003 4280094465
-0.18522687 -0.17161837 0.86800003 4279831296
-0.18371482 -0.17161837 0.86800003 4280093961
-0.18220276 -0.17161837 0.86800003 4280423183
-0.18069071 -0.17161837 0.86800003 4280423448
-0.17917866 -0.17161837 0.86800003 4280357399
-0.1776666 -0.17161837 0.86800003 4280096784
-0.17615454 -0.17161837 0.86800003 4279833356
-0.35957497 -0.16344316 0.83400005 4278255619
-0.35812214 -0.16344316 0.83400005 4280424739
-0.35666931 -0.16344316 0.83400005 4281218611
-0.35521647 -0.16344316 0.83400005 4282007871
-0.35376367 -0.16344316 0.83400005 4281155898
-0.35231084 -0.16344316 0.83400005 4280629554
-0.350858 -0.16344316 0.83400005 4279973448
-0.34940517 -0.16344316 0.83400005 4279644483
-0.34795234 -0.16344316 0.83400005 4278923334
-0.34566858 -0.1630512 0.83200002 4278989383
-0.34421924 -0.1630512 0.83200002 4278529091
-0.34276989 -0.1630512 0.83200002 4278200127
-0.34050006 -0.16265927 0.83000004 4278331437
-0.33823723 -0.16226733 0.82800007 4278463024
-0.33679485 -0.16226733 0.82800007 4278265640
-0.33535245 -0.16226733 0.82800007 4278199590
-0.33391011 -0.16226733 0.82800007 4278791727
-0.33166462 -0.16187537 0.82600003 4279120436
-0.33022574 -0.16187537 0.82600003 4280499467
-0.32878685 -0.16187537 0.82600003 4282539307
-0.32734796 -0.16187537 0.82600003 4282671479
-0.32590908 -0.16187537 0.82600003 4283132030
-0.32525584 -0.16226733 0.82800007 4282739302
-0.3245956 -0.16265927 0.83000004 4282739302
-0.32314974 -0.16265927 0.83000004 4282608498
-0.32170388 -0.16265927 0.83000004 4282740084
-0.32025805 -0.16265927 0.83000004 4283001975
-0.31881216 -0.16265927 0.83000004 4283001975
-0.31813103 -0.1630512 0.83200002 4283002225
-0.31668168 -0.1630512 0.83200002 4283725948
-0.31674787 -0.16383511 0.83600003 4285300864
-0.31529158 -0.16383511 0.83600003 4287406497
-0.31533685 -0.16461901 0.84000003 4288517798
-0.31387359 -0.16461901 0.84000003 4288649384
-0.31241032 -0.16461901 0.84000003 4289043108
-0.31205755 -0.16520695 0.84300005 4289503659
-0.31058905 -0.16520695 0.84300005 4289568421
-0.30912054 -0.16520695 0.84300005 4289568421
-0.30838194 -0.16559888 0.84500003 4289502894
-0.30763638 -0.16599084 0.84700006 4290029238
-0.3061609 -0.16599084 0.84700006 4290226605
-0.30540487 -0.16638279 0.84900004 4290292399
-0.3039259 -0.16638279 0.84900004 4290225590
-0.30244696 -0.16638279 0.84900004 4290686141
-0.30238599 -0.16716669 0.85300004 4290751666
-0.30160555 -0.16755864 0.85500002 4290751666
-0.29941413 -0.16716669 0.85300004 4290620598
-0.29792818 -0.16716669 0.85300004 4291278271
-0.29713732 -0.16755864 0.85500002 4291344319
-0.29495636 -0.16716669 0.85300004 4291278269
-0.29278234 -0.16677473 0.85100001 4291212213
-0.29129988 -0.16677473 0.85100001 4291212213
-0.29049855 -0.16716669 0.85300004 4291212217
-0.28901264 -0.16716669 0.85300004 4291672768
-0.28752673 -0.16716669 0.85300004 4291344055
-0.28604081 -0.16716669 0.85300004 4291344055
-0.28455484 -0.16716669 0.85300004 4291606458
-0.28306893 -0.16716669 0.85300004 4291869629
-0.28224322 -0.16755864 0.85500002 4291672757
-0.2800971 -0.16716669 0.85300004 4291080364
-0.27861118 -0.16716669 0.85300004 4291079864
-0.27777499 -0.16755864 0.85500002 4291145657
-0.27628559 -0.16755864 0.85500002 4291080112
-0.27479616 -0.16755864 0.85500002 4290817196
-0.27330676 -0.16755864 0.85500002 4290684074
-0.27245319 -0.1679506 0.85700005 4291012783
-0.2709603 -0.1679506 0.85700005 4289699003
-0.26946738 -0.1679506 0.85700005 4288646315
-0.26859987 -0.16834255 0.85900003 4287595147
-0.26648161 -0.1679506 0.85700005 4286608252
-0.26498872 -0.1679506 0.85700005 4287132046
-0.26349583 -0.1679506 0.85700005 4288645541
-0.26200292 -0.1679506 0.85700005 4288645770
-0.26111799 -0.16834255 0.85900003 4288382855
-0.25962159 -0.16834255 0.85900003 4287989392
-0.25812525 -0.16834255 0.85900003 4287725963
-0.25662887 -0.16834255 0.85900003 4287593862
-0.25513247 -0.16834255 0.85900003 4287396739
-0.25452191 -0.16893047 0.86200005 4286804359
-0.25302032 -0.16893047 0.86200005 4286541444
-0.25064334 -0.16834255 0.85900003 4286409594
-0.24914695 -0.16834255 0.85900003 4286014836
-0.24765058 -0.16834255 0.85900003 4285817194
-0.24615422 -0.16834255 0.85900003 4285751400
-0.24465783 -0.16834255 0.85900003 4284895853
-0.24316145 -0.16834255 0.85900003 4284764011
-0.24166507 -0.16834255 0.85900003 4284171862
-0.23960951 -0.1679506 0.85700005 4283053638
-0.23811664 -0.1679506 0.85700005 4282857790
-0.23717594 -0.16834255 0.85900003 4282923583
-0.23567957 -0.16834255 0.85900003 4283250226
-0.23418318 -0.16834255 0.85900003 4283250226
-0.2326868 -0.16834255 0.85900003 4282660397
-0.23119041 -0.16834255 0.85900003 4282726190
-0.23049623 -0.16893047 0.86200005 4282331959
-0.22899462 -0.16893047 0.86200005 4281937201
-0.22749302 -0.16893047 0.86200005 4281872952
-0.22599143 -0.16893047 0.86200005 4281609781
-0.21748523 -0.16932242 0.86400002 4282922561
-0.21598014 -0.16932242 0.86400002 4282791754
-0.21447507 -0.16932242 0.86400002 4282068287
-0.21296997 -0.16932242 0.86400002 4282725940
-0.21146488 -0.16932242 0.86400002 4287792001
-0.20995979 -0.16932242 0.86400002 4289107605
-0.20941977 -0.17010631 0.86800003 4289107605
-0.20790772 -0.17010631 0.86800003 4288580498
-0.20639566 -0.17010631 0.86800003 4286540914
-0.20488361 -0.17010631 0.86800003 4283845226
-0.20290296 -0.16971436 0.86600006 4279437094
-0.20139439 -0.16971436 0.86600006 4279043592
-0.20034744 -0.17010631 0.86800003 4280162074
-0.19883539 -0.17010631 0.86800003 4280555796
-0.19732332 -0.17010631 0.86800003 4280555796
-0.19581127 -0.17010631 0.86800003 4280882966
-0.18371482 -0.17010631 0.86800003 4280882460
-0.35957497 -0.16199034 0.83400005 4278190080
-0.35812214 -0.16199034 0.83400005 4279308561
-0.35666931 -0.16199034 0.83400005 4280231716
-0.35521647 -0.16199034 0.83400005 4280955183
-0.35376367 -0.16199034 0.83400005 4280761904
-0.35231084 -0.16199034 0.83400005 4280696110
-0.350858 -0.16199034 0.83400005 4279383878
-0.34940517 -0.16199034 0.83400005 4279252035
-0.34795234 -0.16199034 0.83400005 4278924088
-0.34649953 -0.16199034 0.83400005 4278595123
-0.34421924 -0.16160187 0.83200002 4278725682
-0.34276989 -0.16160187 0.83200002 4278199082
-0.34132054 -0.16160187 0.83200002 4278198825
-0.3390542 -0.16121341 0.83000004 4278198312
-0.33760834 -0.16121341 0.83000004 4278656553
-0.33616248 -0.16121341 0.83000004 4278393637
-0.33391011 -0.16082494 0.82800007 4278786594
-0.33246773 -0.16082494 0.82800007 4278983973
-0.33182493 -0.16121341 0.83000004 4279379721
-0.32958296 -0.16082494 0.82800007 4281221925
-0.32734796 -0.16043648 0.82600003 4281882708
-0.32590908 -0.16043648 0.82600003 4282869603
-0.32604146 -0.16121341 0.83000004 4282673003
-0.3245956 -0.16121341 0.83000004 4282475881
-0.32314974 -0.16121341 0.83000004 4282410349
-0.32092869 -0.16082494 0.82800007 4282673778
-0.31948632 -0.16082494 0.82800007 4282870387
-0.31881216 -0.16121341 0.83000004 4282870387
