# .PCD v0.7 - Point Cloud Data file format
VERSION 0.7
FIELDS x y z rgba
SIZE 4 4 4 4
TYPE F F F U
COUNT 1 1 1 1
WIDTH 1066
HEIGHT 1
VIEWPOINT 0 0 0 1 0 0 0
POINTS 1066
DATA ascii
0.16443089 -0.21844684 0.91200006 4291739063
0.16601959 -0.21844684 0.91200006 4291673520
0.16705695 -0.21772824 0.90900004 4292068278
0.16864042 -0.21772824 0.90900004 4292199614
0.17022391 -0.21772824 0.90900004 4292594116
0.17180738 -0.21772824 0.90900004 4292659382
0.17339087 -0.21772824 0.90900004 4292922810
0.17497434 -0.21772824 0.90900004 4292988878
0.17655782 -0.21772824 0.90900004 4292396742
0.1781413 -0.21772824 0.90900004 4292593084
0.17932934 -0.2172492 0.90700006 4292658878
0.18090934 -0.2172492 0.90700006 4292462018
0.18208693 -0.21677016 0.90500003 4292396225
0.18305461 -0.21605158 0.90200007 4292331202
0.18380715 -0.21509348 0.89800006 4292199360
0.18475218 -0.2143749 0.89500004 4292001477
0.18631127 -0.2143749 0.89500004 4292001477
0.18787037 -0.2143749 0.89500004 4292001981
0.18900616 -0.21389584 0.89300007 4292133567
0.19056176 -0.21389584 0.89300007 4292199873
0.19211736 -0.21389584 0.89300007 4291936958
0.19323921 -0.2134168 0.89100003 4291870652
0.19479133 -0.2134168 0.89100003 4291738809
0.19634345 -0.2134168 0.89100003 4291672766
0.19789557 -0.2134168 0.89100003 4291804352
0.19944771 -0.2134168 0.89100003 4291081410
0.20099983 -0.2134168 0.89100003 4289897137
0.20300661 -0.21389584 0.89300007 4289699478
0.20456222 -0.21389584 0.89300007 4290357408
0.2072719 -0.21509348 0.89800006 4290293191
0.20883621 -0.21509348 0.89800006 4288713903
0.21040052 -0.21509348 0.89800006 4284377954
0.21196485 -0.21509348 0.89800006 4279837981
0.11224927 -0.21733367 0.91400003 4281289292
0.11359236 -0.21685812 0.91200006 4282013015
0.11480217 -0.21614477 0.90900004 4281489236
0.11638564 -0.21614477 0.90900004 4281423443
0.11770956 -0.21566921 0.90700006 4281292638
0.11902651 -0.21519363 0.90500003 4281358431
0.12060303 -0.21519363 0.90500003 4281489236
0.12217954 -0.21519363 0.90500003 4281620822
0.12375605 -0.21519363 0.90500003 4281424728
0.1249171 -0.2144803 0.90200007 4281358935
0.12648839 -0.2144803 0.90200007 4281424222
0.12805967 -0.2144803 0.90200007 4281621600
0.12963095 -0.2144803 0.90200007 4281882976
0.13091131 -0.21400473 0.90000004 4281817183
0.13247912 -0.21400473 0.90000004 4281555279
0.13374904 -0.21352917 0.89800006 4281818450
0.13531335 -0.21352917 0.89800006 4282211428
0.13687767 -0.21352917 0.89800006 4282869101
0.13844198 -0.21352917 0.89800006 4283198557
0.13953857 -0.21281581 0.89500004 4283395936
0.14109766 -0.21281581 0.89500004 4283987546
0.14265674 -0.21281581 0.89500004 4284250461
0.14421585 -0.21281581 0.89500004 4284185202
0.14577493 -0.21281581 0.89500004 4283922030
0.14733402 -0.21281581 0.89500004 4284708466
0.14939219 -0.21352917 0.89800006 4287077014
0.15095651 -0.21352917 0.89800006 4287467382
0.15286051 -0.21400473 0.90000004 4286348900
0.15913956 -0.21614477 0.90900004 4289238150
0.16072303 -0.21614477 0.90900004 4289106564
0.16284217 -0.21685812 0.91200006 4289501849
0.16443089 -0.21685812 0.91200006 4289765021
0.16601959 -0.21685812 0.91200006 4290028166
0.16760829 -0.21685812 0.91200006 4290554510
0.16919699 -0.21685812 0.91200006 4291080618
0.17078571 -0.21685812 0.91200006 4291212204
0.1723744 -0.21685812 0.91200006 4291804045
0.17396311 -0.21685812 0.91200006 4292527769
0.17497434 -0.21614477 0.90900004 4292790981
0.17655782 -0.21614477 0.90900004 4292593859
0.17774935 -0.21566921 0.90700006 4292593084
0.17932934 -0.21566921 0.90700006 4292658878
0.18090934 -0.21566921 0.90700006 4292593859
0.18208693 -0.21519363 0.90500003 4292593859
0.18305461 -0.2144803 0.90200007 4292527812
0.18421653 -0.21400473 0.90000004 4292527812
0.18537147 -0.21352917 0.89800006 4292659400
0.18693578 -0.21352917 0.89800006 4292593607
0.18787037 -0.21281581 0.89500004 4292462016
0.18942946 -0.21281581 0.89500004 4292527810
0.19056176 -0.21234025 0.89300007 4292396996
0.19211736 -0.21234025 0.89300007 4292265153
0.19367297 -0.21234025 0.89300007 4292199610
0.19522858 -0.21234025 0.89300007 4292133817
0.19678418 -0.21234025 0.89300007 4292067774
0.19789557 -0.21186468 0.89100003 4291870652
0.19944771 -0.21186468 0.89100003 4291080908
0.201451 -0.21234025 0.89300007 4290291393
0.20300661 -0.21234025 0.89300007 4289897370
0.20502035 -0.21281581 0.89500004 4290489508
0.2072719 -0.21352917 0.89800006 4290490055
0.20813854 -0.21281581 0.89500004 4289766332
0.20969762 -0.21281581 0.89500004 4287663520
0.21125671 -0.21281581 0.89500004 4287794850
0.21352917 -0.21352917 0.89800006 4288123029
0.11224927 -0.2157415 0.91400003 4281747778
0.11384146 -0.2157415 0.91400003 4282471502
0.11518105 -0.21526943 0.91200006 4281555279
0.11638564 -0.21456128 0.90900004 4281357899
0.11770956 -0.21408921 0.90700006 4281293140
0.11928957 -0.21408921 0.90700006 4281358933
0.12060303 -0.21361712 0.90500003 4281424726
0.12217954 -0.21361712 0.90500003 4281621848
0.12375605 -0.21361712 0.90500003 4281621337
0.12533255 -0.21361712 0.90500003 4281489751
0.12648839 -0.21290901 0.90200007 4281424726
0.12805967 -0.21290901 0.90200007 4281490519
0.12963095 -0.21290901 0.90200007 4281817939
0.13120224 -0.21290901 0.90200007 4281883732
0.13247912 -0.21243691 0.90000004 4282145866
0.13404691 -0.21243691 0.90000004 4282409295
0.13531335 -0.21196485 0.89800006 4282344033
0.13687767 -0.21196485 0.89800006 4283001707
0.13844198 -0.21196485 0.89800006 4283395690
0.14000629 -0.21196485 0.89800006 4283658606
0.14157061 -0.21196485 0.89800006 4284053363
0.14313494 -0.21196485 0.89800006 4284119157
0.14421585 -0.21125671 0.89500004 4284185202
0.14577493 -0.21125671 0.89500004 4283658858
0.14782788 -0.21196485 0.89800006 4285624691
0.14939219 -0.21196485 0.89800006 4288321948
0.15129273 -0.21243691 0.90000004 4288058501
0.15913956 -0.21456128 0.90900004 4288449402
0.16072303 -0.21456128 0.90900004 4289501833
0.16284217 -0.21526943 0.91200006 4289370793
0.16443089 -0.21526943 0.91200006 4288252311
0.16638365 -0.2157415 0.91400003 4288186714
0.16760829 -0.21526943 0.91200006 4290752384
0.16919699 -0.21526943 0.91200006 4290686401
0.17078571 -0.21526943 0.91200006 4289765299
0.1723744 -0.21526943 0.91200006 4290356304
0.17396311 -0.21526943 0.91200006 4292198508
0.17497434 -0.21456128 0.90900004 4292067524
0.17655782 -0.21456128 0.90900004 4291606973
0.17774935 -0.21408921 0.90700006 4291408283
0.17932934 -0.21408921 0.90700006 4292395179
0.18051042 -0.21361712 0.90500003 4292265669
0.18208693 -0.21361712 0.90500003 4291936704
0.18305461 -0.21290901 0.90200007 4292525229
0.18421653 -0.21243691 0.90000004 4293314745
0.18537147 -0.21196485 0.89800006 4292922318
0.18693578 -0.21196485 0.89800006 4292527560
0.18850011 -0.21196485 0.89800006 4292593084
0.19006443 -0.21196485 0.89800006 4292790720
0.19162872 -0.21196485 0.89800006 4292790468
0.19319305 -0.21196485 0.89800006 4292592832
0.19475737 -0.21196485 0.89800006 4292200127
0.19566581 -0.21125671 0.89500004 4292265920
0.19722492 -0.21125671 0.89500004 4292200394
0.19789557 -0.21031256 0.89100003 4291739843
0.19944771 -0.21031256 0.89100003 4291213247
0.201451 -0.21078464 0.89300007 4290292145
0.20300661 -0.21078464 0.89300007 4290291104
0.20502035 -0.21125671 0.89500004 4290948777
0.2072719 -0.21196485 0.89800006 4291081156
0.20813854 -0.21125671 0.89500004 4289699503
0.20969762 -0.21125671 0.89500004 4289238664
0.21125671 -0.21125671 0.89500004 4289107077
0.21352917 -0.21196485 0.89800006 4288121493
0.11224927 -0.21414931 0.91400003 4282206533
0.11384146 -0.21414931 0.91400003 4283390807
0.11518105 -0.21368071 0.91200006 4282342985
0.11638564 -0.21297781 0.90900004 4282079812
0.11796913 -0.21297781 0.90900004 4281621335
0.1195526 -0.21297781 0.90900004 4281687384
0.12086956 -0.21250921 0.90700006 4281883482
0.12244955 -0.21250921 0.90700006 4282080605
0.12375605 -0.21204062 0.90500003 4281949789
0.12533255 -0.21204062 0.90500003 4281949789
0.12690906 -0.21204062 0.90500003 4282672981
0.12848558 -0.21204062 0.90500003 4282870359
0.13006209 -0.21204062 0.90500003 4283263318
0.13120224 -0.21133773 0.90200007 4283460698
0.13277352 -0.21133773 0.90200007 4283461202
0.1343448 -0.21133773 0.90200007 4283921753
0.13561472 -0.21086912 0.90000004 4283790707
0.1371825 -0.21086912 0.90000004 4283856500
0.13875031 -0.21086912 0.90000004 4283658856
0.14000629 -0.21040052 0.89800006 4282935389
0.14157061 -0.21040052 0.89800006 4282343028
0.14313494 -0.21040052 0.89800006 4281816683
0.14469925 -0.21040052 0.89800006 4281684832
0.14626357 -0.21040052 0.89800006 4282671727
0.14782788 -0.21040052 0.89800006 4285361267
0.15720943 -0.21250921 0.90700006 4288385165
0.15966477 -0.21368071 0.91200006 4288579968
0.16125348 -0.21368071 0.91200006 4290290330
0.16319929 -0.21414931 0.91400003 4289569201
0.16479148 -0.21414931 0.91400003 4284963691
0.16760829 -0.21368071 0.91200006 4291081631
0.16919699 -0.21368071 0.91200006 4290162355
0.17022391 -0.21297781 0.90900004 4284964708
0.17180738 -0.21297781 0.90900004 4286409061
0.17339087 -0.21297781 0.90900004 4291080364
0.17458937 -0.21250921 0.90700006 4291408302
0.17616935 -0.21250921 0.90700006 4290092185
0.17774935 -0.21250921 0.90700006 4290683289
0.17932934 -0.21250921 0.90700006 4292064942
0.18051042 -0.21204062 0.90500003 4291868334
0.18208693 -0.21204062 0.90500003 4290552475
0.18305461 -0.21133773 0.90200007 4291408274
0.18421653 -0.21086912 0.90000004 4292723878
0.18578431 -0.21086912 0.90000004 4292461505
0.18735212 -0.21086912 0.90000004 4291671733
0.18891992 -0.21086912 0.90000004 4292395682
0.19048773 -0.21086912 0.90000004 4292856233
0.19162872 -0.21040052 0.89800006 4292461753
0.19319305 -0.21040052 0.89800006 4292330167
0.19475737 -0.21040052 0.89800006 4292331714
0.19632168 -0.21040052 0.89800006 4292726471
0.19722492 -0.20969762 0.89500004 4292528593
0.19789557 -0.20876044 0.89100003 4292331214
0.19944771 -0.20876044 0.89100003 4292331462
0.201451 -0.20922902 0.89300007 4292726219
0.20300661 -0.20922902 0.89300007 4292331716
0.20502035 -0.20969762 0.89500004 4292068544
0.2072719 -0.21040052 0.89800006 4291608256
0.20883621 -0.21040052 0.89800006 4289831846
0.20969762 -0.20969762 0.89500004 4291211157
0.21125671 -0.20969762 0.89500004 4292987568
0.21281581 -0.20969762 0.89500004 4292528327
0.2143749 -0.20969762 0.89500004 4291278260
0.11384146 -0.21255712 0.91400003 4283456073
0.11518105 -0.21209201 0.91200006 4282409558
0.11676976 -0.21209201 0.91200006 4282343509
0.11835847 -0.21209201 0.91200006 4282539607
0.1195526 -0.21139432 0.90900004 4282473814
0.12113608 -0.21139432 0.90900004 4282473562
0.12271956 -0.21139432 0.90900004 4282473562
0.12402955 -0.21092923 0.90700006 4282343007
0.12560955 -0.21092923 0.90700006 4282606436
0.12718953 -0.21092923 0.90700006 4282935648
0.12848558 -0.21046411 0.90500003 4282935648
0.13006209 -0.21046411 0.90500003 4283264098
0.1316386 -0.21046411 0.90500003 4283593062
0.13277352 -0.20976645 0.90200007 4283855717
0.1343448 -0.20976645 0.90200007 4283724388
0.13591608 -0.20976645 0.90200007 4283593585
0.1371825 -0.20930132 0.90000004 4283133034
0.13875031 -0.20930132 0.90000004 4282803299
0.14062993 -0.20976645 0.90200007 4282408541
0.16001491 -0.21255712 0.91400003 4288120450
0.1616071 -0.21255712 0.91400003 4290751914
0.16319929 -0.21255712 0.91400003 4290029752
0.16479148 -0.21255712 0.91400003 4285358449
0.16638365 -0.21255712 0.91400003 4288512876
0.16705695 -0.21139432 0.90900004 4291670940
0.16864042 -0.21139432 0.90900004 4289834144
0.16984938 -0.21092923 0.90700006 4283846981
0.17142937 -0.21092923 0.90700006 4284241152
0.17300937 -0.21092923 0.90700006 4291675748
0.17458937 -0.21092923 0.90700006 4291214000
0.17616935 -0.21092923 0.90700006 4288450695
0.17774935 -0.21092923 0.90700006 4289893497
0.17932934 -0.21092923 0.90700006 4292459425
0.18090934 -0.21092923 0.90700006 4291737514
0.18208693 -0.21046411 0.90500003 4290158482
0.18305461 -0.20976645 0.90200007 4290159502
0.18421653 -0.20930132 0.90000004 4292001706
0.18537147 -0.20883621 0.89800006 4291476153
0.18693578 -0.20883621 0.89800006 4290226342
0.18891992 -0.20930132 0.90000004 4290816374
0.19048773 -0.20930132 0.90000004 4292460942
0.19205552 -0.20930132 0.90000004 4291870652
0.19362332 -0.20930132 0.90000004 4291673016
0.19519112 -0.20930132 0.90000004 4292067261
0.19632168 -0.20883621 0.89800006 4292593605
0.19722492 -0.20813854 0.89500004 4292397509
0.19878399 -0.20813854 0.89500004 4292331716
0.20034309 -0.20813854 0.89500004 4292790468
0.201451 -0.20767343 0.89300007 4292922054
0.20300661 -0.20767343 0.89300007 4292987581
0.20502035 -0.20813854 0.89500004 4293053374
0.2072719 -0.20883621 0.89800006 4291937737
0.20813854 -0.20813854 0.89500004 4290556084
0.20969762 -0.20813854 0.89500004 4291932592
0.21125671 -0.20813854 0.89500004 4294893278
0.21281581 -0.20813854 0.89500004 4294238961
0.2143749 -0.20813854 0.89500004 4293646568
0.11384146 -0.21096493 0.91400003 4283650854
0.11518105 -0.21050331 0.91200006 4283327063
0.11676976 -0.21050331 0.91200006 4283590234
0.11835847 -0.21050331 0.91200006 4283262814
0.11994717 -0.21050331 0.91200006 4283328607
0.12153587 -0.21050331 0.91200006 4283328609
0.12312458 -0.21050331 0.91200006 4283789160
0.12430304 -0.20981085 0.90900004 4283395686
0.12588651 -0.20981085 0.90900004 4283395686
0.12718953 -0.20934923 0.90700006 4283067741
0.12876952 -0.20934923 0.90700006 4282672983
0.13034953 -0.20934923 0.90700006 4282343259
0.1316386 -0.20888759 0.90500003 4281882708
0.13321511 -0.20888759 0.90500003 4280437338
0.13479161 -0.20888759 0.90500003 4280174423
0.13636813 -0.20888759 0.90500003 4278664766
0.14854383 -0.21050331 0.91200006 4286155914
0.15046178 -0.21096493 0.91400003 4287663504
0.15172125 -0.21050331 0.91200006 4287202953
0.15330996 -0.21050331 0.91200006 4287201925
0.15489866 -0.21050331 0.91200006 4289175458
0.15648738 -0.21050331 0.91200006 4289043858
0.15842272 -0.21096493 0.91400003 4287465083
0.16001491 -0.21096493 0.91400003 4288316567
0.1616071 -0.21096493 0.91400003 4291079873
0.16284217 -0.21050331 0.91200006 4289897891
0.16443089 -0.21050331 0.91200006 4285687139
0.16601959 -0.21050331 0.91200006 4288514425
0.16705695 -0.20981085 0.90900004 4291277731
0.16826938 -0.20934923 0.90700006 4289636713
0.16947484 -0.20888759 0.90500003 4285096996
0.17105135 -0.20888759 0.90500003 4286083691
0.17262787 -0.20888759 0.90500003 4291544510
0.17420436 -0.20888759 0.90500003 4291081867
0.17578088 -0.20888759 0.90500003 4286805322
0.17735739 -0.20888759 0.90500003 4289435777
0.1789339 -0.20888759 0.90500003 4290620051
0.18051042 -0.20888759 0.90500003 4288974222
0.18208693 -0.20888759 0.90500003 4287987327
0.18305461 -0.20819515 0.90200007 4289895059
0.18421653 -0.20773353 0.90000004 4292132020
0.18537147 -0.2072719 0.89800006 4290749334
0.18693578 -0.2072719 0.89800006 4285617480
0.18850011 -0.2072719 0.89800006 4287851632
0.19048773 -0.20773353 0.90000004 4292193970
0.19205552 -0.20773353 0.90000004 4291275430
0.19362332 -0.20773353 0.90000004 4289959570
0.19519112 -0.20773353 0.90000004 4290356395
0.19632168 -0.2072719 0.89800006 4291474619
0.19722492 -0.20657945 0.89500004 4291210657
0.19878399 -0.20657945 0.89500004 4291079071
0.20034309 -0.20657945 0.89500004 4291409063
0.20190218 -0.20657945 0.89500004 4291540905
0.20346127 -0.20657945 0.89500004 4292461716
0.20502035 -0.20657945 0.89500004 4293119390
0.20657945 -0.20657945 0.89500004 4292595401
0.20813854 -0.20657945 0.89500004 4292661195
0.20922902 -0.20611782 0.89300007 4293119697
0.21078464 -0.20611782 0.89300007 4294962414
0.21234025 -0.20611782 0.89300007 4294962675
0.21389584 -0.20611782 0.89300007 4294964217
0.21545146 -0.20611782 0.89300007 4294964725
0.21652104 -0.20565619 0.89100003 4294966267
0.11702583 -0.20937274 0.91400003 4283129420
0.11861802 -0.20937274 0.91400003 4283066464
0.12021021 -0.20937274 0.91400003 4283066464
0.12153587 -0.20891461 0.91200006 4282999645
0.12312458 -0.20891461 0.91200006 4282933852
0.12471328 -0.20891461 0.91200006 4282672483
0.12630199 -0.20891461 0.91200006 4282409054
0.12746999 -0.20822738 0.90900004 4282080855
0.12905347 -0.20822738 0.90900004 4281817939
0.13063695 -0.20822738 0.90900004 4280570446
0.13192952 -0.20776924 0.90700006 4280109895
0.1335095 -0.20776924 0.90700006 4279911750
0.14727741 -0.20937274 0.91400003 4282073418
0.14886959 -0.20937274 0.91400003 4287007637
0.15046178 -0.20937274 0.91400003 4287729299
0.15205397 -0.20937274 0.91400003 4286939784
0.15364616 -0.20937274 0.91400003 4287202177
0.15489866 -0.20891461 0.91200006 4289175710
0.15648738 -0.20891461 0.91200006 4289174165
0.15842272 -0.20937274 0.91400003 4287726719
0.16001491 -0.20937274 0.91400003 4288184719
0.16125348 -0.20891461 0.91200006 4290619061
0.16284217 -0.20891461 0.91200006 4289438618
0.16443089 -0.20891461 0.91200006 4287333243
0.16601959 -0.20891461 0.91200006 4289104554
0.16705695 -0.20822738 0.90900004 4290025656
0.16789833 -0.20731109 0.90500003 4288515917
0.16891305 -0.20662387 0.90200007 4285752611
0.17048433 -0.20662387 0.90200007 4286806660
0.17205562 -0.20662387 0.90200007 4290556861
0.1736269 -0.20662387 0.90200007 4290290320
0.17519818 -0.20662387 0.90200007 4289698183
0.17637752 -0.20616573 0.90000004 4289896616
0.17754988 -0.20570758 0.89800006 4287265153
0.17911421 -0.20570758 0.89800006 4286996504
0.18148333 -0.20662387 0.90200007 4288706866
0.18305461 -0.20662387 0.90200007 4290221221
0.18380715 -0.20570758 0.89800006 4290615978
0.18475218 -0.20502035 0.89500004 4290022742
0.18631127 -0.20502035 0.89500004 4286469919
0.18850011 -0.20570758 0.89800006 4288046161
0.19006443 -0.20570758 0.89800006 4291007102
0.19162872 -0.20570758 0.89800006 4290550896
0.19319305 -0.20570758 0.89800006 4290287981
0.19519112 -0.20616573 0.90000004 4290159291
0.19675893 -0.20616573 0.90000004 4290027705
0.19788601 -0.20570758 0.89800006 4290223993
0.19878399 -0.20502035 0.89500004 4290816131
0.20034309 -0.20502035 0.89500004 4290883252
0.20190218 -0.20502035 0.89500004 4290225066
0.20346127 -0.20502035 0.89500004 4290290572
0.20502035 -0.20502035 0.89500004 4291606176
0.20657945 -0.20502035 0.89500004 4291870400
0.20813854 -0.20502035 0.89500004 4292857295
0.20922902 -0.20456222 0.89300007 4292988878
0.21078464 -0.20456222 0.89300007 4293712601
0.21234025 -0.20456222 0.89300007 4293646304
0.21389584 -0.20456222 0.89300007 4293975269
0.21496892 -0.20410407 0.89100003 4294305002
0.21652104 -0.20410407 0.89100003 4294831346
0.21733892 -0.20341685 0.88800007 4294964214
0.21888581 -0.20341685 0.88800007 4294964728
0.22043271 -0.20341685 0.88800007 4294965754
0.22352651 -0.20341685 0.88800007 4294965494
0.22456647 -0.20295869 0.88600004 4294962923
0.22610989 -0.20295869 0.88600004 4294961903
0.22765331 -0.20295869 0.88600004 4294698474
0.11861802 -0.20778055 0.91400003 4281747526
0.12021021 -0.20778055 0.91400003 4281813320
0.1218024 -0.20778055 0.91400003 4281026868
0.12339458 -0.20778055 0.91400003 4280434987
0.12498677 -0.20778055 0.91400003 4279649082
0.12630199 -0.20732589 0.91200006 4279056689
0.12789069 -0.20732589 0.91200006 4278926636
0.12947939 -0.20732589 0.91200006 4278201885
0.1310681 -0.20732589 0.91200006 4278202154
0.14616339 -0.20846255 0.91700006 4280434497
0.14727741 -0.20778055 0.91400003 4282863459
0.14886959 -0.20778055 0.91400003 4286613660
0.15046178 -0.20778055 0.91400003 4287268737
0.15205397 -0.20778055 0.91400003 4286873979
0.15330996 -0.20732589 0.91200006 4287399051
0.15489866 -0.20732589 0.91200006 4288780704
0.15648738 -0.20732589 0.91200006 4288845450
0.15842272 -0.20778055 0.91400003 4288384899
0.16001491 -0.20778055 0.91400003 4288975001
0.16125348 -0.20732589 0.91200006 4290356654
0.16284217 -0.20732589 0.91200006 4289633417
0.16443089 -0.20732589 0.91200006 4289765260
0.16601959 -0.20732589 0.91200006 4290290639
0.16705695 -0.20664389 0.90900004 4288711606
0.16789833 -0.20573457 0.90500003 4286148423
0.16891305 -0.20505258 0.90200007 4286477645
0.17048433 -0.20505258 0.90200007 4287922874
0.17167412 -0.20459792 0.90000004 4290554594
0.17324191 -0.20459792 0.90000004 4290750608
0.17442125 -0.20414327 0.89800006 4291868832
0.17598557 -0.20414327 0.89800006 4291148987
0.18108092 -0.20459792 0.90000004 4288975405
0.18305461 -0.20505258 0.90200007 4290158258
0.18380715 -0.20414327 0.89800006 4288447896
0.18475218 -0.20346127 0.89500004 4286075975
0.18631127 -0.20346127 0.89500004 4286602319
0.18787037 -0.20346127 0.89500004 4288052107
0.19006443 -0.20414327 0.89800006 4288315022
0.19098854 -0.20346127 0.89500004 4288510997
0.19254763 -0.20346127 0.89500004 4291340097
0.19410673 -0.20346127 0.89500004 4290619072
0.19632168 -0.20414327 0.89800006 4287329422
0.19722492 -0.20346127 0.89500004 4288449150
0.19878399 -0.20346127 0.89500004 4290620062
0.20034309 -0.20346127 0.89500004 4290817711
0.20190218 -0.20346127 0.89500004 4289436058
0.20346127 -0.20346127 0.89500004 4289237898
0.20570758 -0.20414327 0.89800006 4288974470
0.20657945 -0.20346127 0.89500004 4289434771
0.20813854 -0.20346127 0.89500004 4289829529
0.20922902 -0.20300661 0.89300007 4290485142
0.21078464 -0.20300661 0.89300007 4290682778
0.21234025 -0.20300661 0.89300007 4290683039
0.21389584 -0.20300661 0.89300007 4290814881
0.21496892 -0.20255195 0.89100003 4291210155
0.21652104 -0.20255195 0.89100003 4291670706
0.21733892 -0.20186996 0.88800007 4292001206
0.21888581 -0.20186996 0.88800007 4292395708
0.22043271 -0.20186996 0.88800007 4292790727
0.2219796 -0.20186996 0.88800007 4293383120
0.22352651 -0.20186996 0.88800007 4294236879
0.22456647 -0.20141529 0.88600004 4294302928
0.22610989 -0.20141529 0.88600004 4294632924
0.22713941 -0.20096064 0.88400006 4294962917
0.22867933 -0.20096064 0.88400006 4294962920
0.23074012 -0.20141529 0.88600004 4294963949
0.23404208 -0.20027862 0.88100004 4294964733
0.23504201 -0.19982398 0.87900007 4294898940
0.23657322 -0.19982398 0.87900007 4294568944
0.23810443 -0.19982398 0.87900007 4294042600
0.23963565 -0.19982398 0.87900007 4293580763
0.24116686 -0.19982398 0.87900007 4292857297
0.24159367 -0.19891465 0.87500006 4292463554
0.24616642 -0.19891465 0.87500006 4289830812
0.1218024 -0.20618837 0.91400003 4282074672
0.12339458 -0.20618837 0.91400003 4281942830
0.12498677 -0.20618837 0.91400003 4281155646
0.12657896 -0.20618837 0.91400003 4280958011
0.12817115 -0.20618837 0.91400003 4280369206
0.142142 -0.20799309 0.92200005 4280566339
0.14374812 -0.20799309 0.92200005 4280566339
0.14535424 -0.20799309 0.92200005 4279714624
0.14696036 -0.20799309 0.92200005 4280504139
0.14808308 -0.20731631 0.91900003 4283390309
0.14968398 -0.20731631 0.91900003 4285758858
0.15046178 -0.20618837 0.91400003 4286347131
0.15172125 -0.2057372 0.91200006 4287925906
0.15330996 -0.2057372 0.91200006 4288123792
0.15489866 -0.2057372 0.91200006 4288584343
0.15648738 -0.2057372 0.91200006 4288582794
0.15842272 -0.20618837 0.91400003 4288714636
0.16001491 -0.20618837 0.91400003 4289633701
0.1616071 -0.20618837 0.91400003 4289436065
0.16319929 -0.20618837 0.91400003 4288973440
0.16479148 -0.20618837 0.91400003 4291407781
0.16601959 -0.2057372 0.91200006 4291213530
0.16705695 -0.20506042 0.90900004 4285949834
0.16789833 -0.20415807 0.90500003 4285288704
0.16947484 -0.20415807 0.90500003 4289038888
0.17048433 -0.2034813 0.90200007 4290027190
0.17167412 -0.20303012 0.90000004 4290290361
0.17324191 -0.20303012 0.90000004 4290159002
0.17442125 -0.20257895 0.89800006 4291869364
0.17598557 -0.20257895 0.89800006 4291476418
0.18108092 -0.20303012 0.90000004 4290819129
0.18264872 -0.20303012 0.90000004 4290819547
0.18421653 -0.20303012 0.90000004 4286345879
0.18475218 -0.20190218 0.89500004 4284434176
0.18631127 -0.20190218 0.89500004 4288381737
0.18787037 -0.20190218 0.89500004 4289568691
0.18900616 -0.201451 0.89300007 4287265936
0.19056176 -0.201451 0.89300007 4286867968
0.19211736 -0.201451 0.89300007 4291802696
0.19367297 -0.201451 0.89300007 4292064973
0.19566581 -0.20190218 0.89500004 4287854221
0.19722492 -0.20190218 0.89500004 4288777066
0.19878399 -0.20190218 0.89500004 4291079821
0.20034309 -0.20190218 0.89500004 4290883252
0.20190218 -0.20190218 0.89500004 4289764515
0.20346127 -0.20190218 0.89500004 4289698965
0.20570758 -0.20257895 0.89800006 4289172620
0.2072719 -0.20257895 0.89800006 4289172620
0.20813854 -0.20190218 0.89500004 4289040778
0.20969762 -0.20190218 0.89500004 4289236878
0.21078464 -0.201451 0.89300007 4289368464
0.21234025 -0.201451 0.89300007 4289565580
0.21389584 -0.201451 0.89300007 4289762959
0.21496892 -0.20099983 0.89100003 4290420121
0.21579202 -0.20032306 0.88800007 4290551708
0.21733892 -0.20032306 0.88800007 4290749854
0.21888581 -0.20032306 0.88800007 4291013026
0.22043271 -0.20032306 0.88800007 4291342509
0.22147965 -0.19987188 0.88600004 4291803060
0.22302306 -0.19987188 0.88600004 4292001981
0.22456647 -0.19987188 0.88600004 4292528325
0.22610989 -0.19987188 0.88600004 4292856776
0.22713941 -0.19942069 0.88400006 4293843671
0.22867933 -0.19942069 0.88400006 4293778397
0.23021926 -0.19942069 0.88400006 4294238948
0.23250739 -0.19874394 0.88100004 4294831346
0.23351079 -0.19829275 0.87900007 4294897904
0.23504201 -0.19829275 0.87900007 4294964468
0.23657322 -0.19829275 0.87900007 4294964216
0.23810443 -0.19829275 0.87900007 4294964216
0.23963565 -0.19829275 0.87900007 4294963952
0.24116686 -0.19829275 0.87900007 4294963180
0.24214585 -0.19784157 0.87700003 4294370797
0.24311791 -0.19739041 0.87500006 4293910246
0.24464217 -0.19739041 0.87500006 4292267734
0.24616642 -0.19739041 0.87500006 4292201940
0.24769066 -0.19739041 0.87500006 4291412438
0.24921492 -0.19739041 0.87500006 4291346645
0.26143068 -0.19626246 0.87000006 4284634228
0.26294622 -0.19626246 0.87000006 4278255634
0.26446179 -0.19626246 0.87000006 4278190106
0.26946738 -0.1933298 0.85700005 4278190080
0.27159265 -0.19378096 0.85900003 4278190080
0.27308899 -0.19378096 0.85900003 4278190080
0.2745854 -0.19378096 0.85900003 4278190080
0.14084071 -0.20683464 0.92400002 4280763711
0.14245032 -0.20683464 0.92400002 4280436295
0.14405994 -0.20683464 0.92400002 4280107331
0.14566953 -0.20683464 0.92400002 4279977543
0.14696036 -0.20638695 0.92200005 4281951333
0.14856648 -0.20638695 0.92200005 4283785317
0.14968398 -0.20571542 0.91900003 4285627521
0.15046178 -0.20459618 0.91400003 4286938500
0.15172125 -0.20414849 0.91200006 4288517533
0.15330996 -0.20414849 0.91200006 4288910744
0.15489866 -0.20414849 0.91200006 4289239708
0.15648738 -0.20414849 0.91200006 4288977293
0.15842272 -0.20459618 0.91400003 4289240208
0.16001491 -0.20459618 0.91400003 4289568167
0.1616071 -0.20459618 0.91400003 4289173409
0.16319929 -0.20459618 0.91400003 4289500303
0.16479148 -0.20459618 0.91400003 4291408300
0.16601959 -0.20414849 0.91200006 4290883514
0.16705695 -0.20347694 0.90900004 4285817453
0.16789833 -0.20258155 0.90500003 4284832050
0.16947484 -0.20258155 0.90500003 4289437560
0.17105135 -0.20258155 0.90500003 4290817459
0.17205562 -0.20191002 0.90200007 4290356908
0.17324191 -0.20146231 0.90000004 4290683561
0.17480972 -0.20146231 0.90000004 4292065214
0.17598557 -0.20101462 0.89800006 4290818995
0.17754988 -0.20101462 0.89800006 4286410607
0.17911421 -0.20101462 0.89800006 4287001674
0.18108092 -0.20146231 0.90000004 4292067735
0.18264872 -0.20146231 0.90000004 4291607754
0.18421653 -0.20146231 0.90000004 4286475900
0.18578431 -0.20146231 0.90000004 4284962368
0.18589494 -0.1998954 0.89300007 4290225809
0.18745054 -0.1998954 0.89300007 4289964992
0.18900616 -0.1998954 0.89300007 4287333272
0.19013497 -0.19944771 0.89100003 4288118913
0.19168709 -0.19944771 0.89100003 4290948012
0.19323921 -0.19944771 0.89100003 4290881715
0.19566581 -0.20034309 0.89500004 4287592065
0.19722492 -0.20034309 0.89500004 4288844167
0.19878399 -0.20034309 0.89500004 4290818213
0.20034309 -0.20034309 0.89500004 4290751651
0.20190218 -0.20034309 0.89500004 4290027927
0.20346127 -0.20034309 0.89500004 4290159012
0.20502035 -0.20034309 0.89500004 4289237910
0.2072719 -0.20101462 0.89800006 4287527307
0.20813854 -0.20034309 0.89500004 4285487468
0.20969762 -0.20034309 0.89500004 4286143869
0.21031256 -0.19944771 0.89100003 4287722901
0.21186468 -0.19944771 0.89100003 4288118904
0.2134168 -0.19944771 0.89100003 4288710784
0.21496892 -0.19944771 0.89100003 4289040256
0.21579202 -0.19877617 0.88800007 4289237378
0.21733892 -0.19877617 0.88800007 4289433991
0.21839282 -0.19832847 0.88600004 4289499784
0.21993624 -0.19832847 0.88600004 4289369230
0.22147965 -0.19832847 0.88600004 4289435023
0.22302306 -0.19832847 0.88600004 4289632154
0.22456647 -0.19832847 0.88600004 4289829277
0.22610989 -0.19832847 0.88600004 4290354328
0.22713941 -0.19788077 0.88400006 4290683293
0.22867933 -0.19788077 0.88400006 4290880922
0.22943796 -0.19720922 0.88100004 4291341473
0.23097266 -0.19720922 0.88100004 4291605176
0.23250739 -0.19720922 0.88100004 4291802556
0.23351079 -0.19676153 0.87900007 4291868862
0.23504201 -0.19676153 0.87900007 4292789964
0.23657322 -0.19676153 0.87900007 4293317073
0.23810443 -0.19676153 0.87900007 4293514709
0.23963565 -0.19676153 0.87900007 4294828740
0.24116686 -0.19676153 0.87900007 4294961611
0.2426981 -0.19676153 0.87900007 4294830828
0.24367359 -0.19631384 0.87700003 4294962927
0.24520132 -0.19631384 0.87700003 4294898158
0.24616642 -0.19586615 0.87500006 4294965493
0.24769066 -0.19586615 0.87500006 4294636031
0.24921492 -0.19586615 0.87500006 4293977847
0.25073916 -0.19586615 0.87500006 4291020512
0.25226343 -0.19586615 0.87500006 4287730862
0.25291753 -0.1951946 0.87200004 4287011762
0.25443655 -0.1951946 0.87200004 4287472313
0.25595558 -0.1951946 0.87200004 4287078061
0.25747457 -0.1951946 0.87200004 4287209647
0.25839961 -0.19474691 0.87000006 4287931317
0.25991514 -0.19474691 0.87000006 4288063159
0.26143068 -0.19474691 0.87000006 4287405745
0.26294622 -0.19474691 0.87000006 4287076523
0.26446179 -0.19474691 0.87000006 4286815404
0.26597732 -0.19474691 0.87000006 4286683562
0.26797453 -0.19183689 0.85700005 4287664276
0.26946738 -0.19183689 0.85700005 4288647304
0.27159265 -0.19228458 0.85900003 4289107855
0.27308899 -0.19228458 0.85900003 4288909712
0.2745854 -0.19228458 0.85900003 4288778126
0.27608177 -0.19228458 0.85900003 4288252563
0.1339424 -0.20700188 0.93200004 4280895802
0.13556594 -0.20700188 0.93200004 4280764215
0.13718949 -0.20700188 0.93200004 4280632132
0.13836621 -0.20633556 0.92900002 4280763461
0.13968316 -0.20589136 0.92700005 4280632634
0.141298 -0.20589136 0.92700005 4280895550
0.14291282 -0.20589136 0.92700005 4280961093
0.14452766 -0.20589136 0.92700005 4280632384
0.14566953 -0.20522504 0.92400002 4280436293
0.14727914 -0.20522504 0.92400002 4282081375
0.14856648 -0.20478083 0.92200005 4284048219
0.14968398 -0.20411451 0.91900003 4285758837
0.15046178 -0.20300399 0.91400003 4287333254
0.15205397 -0.20300399 0.91400003 4288517784
0.15330996 -0.20255978 0.91200006 4288714114
0.15489866 -0.20255978 0.91200006 4288516992
0.15683053 -0.20300399 0.91400003 4288450695
0.15842272 -0.20300399 0.91400003 4289174417
0.16001491 -0.20300399 0.91400003 4289109403
0.1616071 -0.20300399 0.91400003 4288780439
0.16319929 -0.20300399 0.91400003 4289566609
0.16479148 -0.20300399 0.91400003 4291014055
0.16601959 -0.20255978 0.91200006 4290488497
0.16705695 -0.20189346 0.90900004 4286211951
0.16789833 -0.20100504 0.90500003 4285160252
0.16947484 -0.20100504 0.90500003 4289831555
0.17105135 -0.20100504 0.90500003 4290817446
0.17205562 -0.20033875 0.90200007 4290685860
0.1736269 -0.20033875 0.90200007 4291209387
0.17480972 -0.19989453 0.90000004 4291406766
0.17637752 -0.19989453 0.90000004 4290880924
0.17794532 -0.19989453 0.90000004 4287130723
0.17951311 -0.19989453 0.90000004 4287658103
0.18108092 -0.19989453 0.90000004 4292263357
0.18264872 -0.19989453 0.90000004 4292067274
0.18703072 -0.19789557 0.89100003 4290293180
0.18858284 -0.19789557 0.89100003 4287464081
0.19013497 -0.19789557 0.89100003 4288512908
0.19168709 -0.19789557 0.89100003 4290881456
0.19323921 -0.19789557 0.89100003 4290553769
0.19479133 -0.19789557 0.89100003 4289172116
0.19722492 -0.19878399 0.89500004 4289107357
0.19833979 -0.19833979 0.89300007 4289896616
0.1998954 -0.19833979 0.89300007 4289765021
0.20190218 -0.19878399 0.89500004 4289962400
0.20300661 -0.19833979 0.89300007 4290290861
0.20456222 -0.19833979 0.89300007 4289106844
0.20611782 -0.19833979 0.89300007 4287134568
0.20813854 -0.19878399 0.89500004 4283910712
0.20969762 -0.19878399 0.89500004 4284632654
0.21031256 -0.19789557 0.89100003 4285882464
0.21186468 -0.19789557 0.89100003 4286539869
0.2134168 -0.19789557 0.89100003 4287460971
0.21496892 -0.19789557 0.89100003 4287462001
0.21579202 -0.19722927 0.88800007 4288119930
0.2168494 -0.19678505 0.88600004 4288842620
0.21839282 -0.19678505 0.88600004 4288908413
0.21993624 -0.19678505 0.88600004 4288974472
0.22147965 -0.19678505 0.88600004 4289040265
0.22302306 -0.19678505 0.88600004 4289040265
0.22456647 -0.19678505 0.88600004 4289172107
0.22610989 -0.19678505 0.88600004 4289237900
0.22713941 -0.19634084 0.88400006 4289435023
0.22867933 -0.19634084 0.88400006 4289829519
0.22943796 -0.19567452 0.88100004 4289895313
0.23097266 -0.19567452 0.88100004 4290551458
0.23250739 -0.19567452 0.88100004 4290880422
0.23351079 -0.19523032 0.87900007 4291275682
0.23504201 -0.19523032 0.87900007 4291867819
0.23657322 -0.19523032 0.87900007 4291606973
0.23810443 -0.19523032 0.87900007 4292264903
0.23963565 -0.19523032 0.87900007 4292593857
0.24116686 -0.19523032 0.87900007 4292988615
0.2426981 -0.19523032 0.87900007 4293381583
0.24367359 -0.1947861 0.87700003 4294302685
0.24520132 -0.1947861 0.87700003 4294041825
0.24616642 -0.1943419 0.87500006 4294634219
0.24769066 -0.1943419 0.87500006 4294569470
0.24921492 -0.1943419 0.87500006 4293648368
0.25073916 -0.1943419 0.87500006 4289709795
0.25226343 -0.1943419 0.87500006 4286156716
0.25291753 -0.19367559 0.87200004 4285437615
0.25443655 -0.19367559 0.87200004 4286095288
0.25595558 -0.19367559 0.87200004 4286095025
0.25747457 -0.19367559 0.87200004 4286292148
0.25839961 -0.19323137 0.87000006 4286293174
0.25991514 -0.19323137 0.87000006 4286358967
0.26143068 -0.19323137 0.87000006 4286423990
0.26294622 -0.19323137 0.87000006 4286621369
0.26446179 -0.19323137 0.87000006 4287080891
0.26597732 -0.19323137 0.87000006 4286883255
0.26687792 -0.19278716 0.86800003 4286554293
0.26653475 -0.19145453 0.86200005 4287080637
0.26797453 -0.19034402 0.85700005 4290692824
0.26946738 -0.19034402 0.85700005 4291543747
0.27159265 -0.19078822 0.85900003 4291609540
0.27308899 -0.19078822 0.85900003 4292198079
0.2745854 -0.19078822 0.85900003 4292000700
0.27543899 -0.19034402 0.85700005 4291606217
0.27693188 -0.19034402 0.85700005 4290422200
0.27842477 -0.19034402 0.85700005 4289764517
0.27991766 -0.19034402 0.85700005 4288909208
0.28141055 -0.19034402 0.85700005 4287201927
0.1326028 -0.20581906 0.93400002 4281944897
0.13422982 -0.20581906 0.93400002 4282076478
0.13585684 -0.20581906 0.93400002 4282208064
0.13718949 -0.20537834 0.93200004 4281683535
0.13881303 -0.20537834 0.93200004 4281683535
0.13998452 -0.20471725 0.92900002 4282142019
0.14160283 -0.20471725 0.92900002 4282208068
0.14322115 -0.20471725 0.92900002 4282470722
0.14483947 -0.20471725 0.92900002 4282404929
0.14614248 -0.20427652 0.92700005 4281683535
0.14727914 -0.20361543 0.92400002 4282538844
0.14888875 -0.20361543 0.92400002 4284178243
0.15095563 -0.20207289 0.91700006 4287596149
0.15205397 -0.2014118 0.91400003 4287530356
0.15364616 -0.2014118 0.91400003 4288646733
0.15523835 -0.2014118 0.91400003 4289107284
0.15683053 -0.2014118 0.91400003 4289172618
0.15842272 -0.2014118 0.91400003 4289172618
0.16001491 -0.2014118 0.91400003 4288581753
0.1616071 -0.2014118 0.91400003 4287989360
0.16319929 -0.2014118 0.91400003 4289368966
0.16479148 -0.2014118 0.91400003 4290553240
0.16601959 -0.20097108 0.91200006 4289962121
0.16705695 -0.20030998 0.90900004 4287264608
0.16826938 -0.19986928 0.90700006 4287527809
0.16984938 -0.19986928 0.90700006 4289896357
0.17105135 -0.19942854 0.90500003 4290815599
0.17262787 -0.19942854 0.90500003 4291276150
0.1736269 -0.19876745 0.90200007 4291341223
0.17519818 -0.19876745 0.90200007 4290946465
0.17637752 -0.19832672 0.90000004 4289831014
0.17794532 -0.19832672 0.90000004 4287264830
0.17951311 -0.19832672 0.90000004 4288249257
0.18475218 -0.19722492 0.89500004 4287527546
0.18631127 -0.19722492 0.89500004 4291146161
0.18787037 -0.19722492 0.89500004 4290422951
0.18858284 -0.19634345 0.89100003 4289238421
0.19013497 -0.19634345 0.89100003 4289566641
0.19168709 -0.19634345 0.89100003 4290290107
0.19789557 -0.19634345 0.89100003 4288843915
0.19944771 -0.19634345 0.89100003 4288711565
0.201451 -0.19678418 0.89300007 4289566874
0.20255195 -0.19634345 0.89100003 4290159014
0.20410407 -0.19634345 0.89100003 4288711567
0.20565619 -0.19634345 0.89100003 4286145111
0.20720831 -0.19634345 0.89100003 4283118377
0.20969762 -0.19722492 0.89500004 4283316526
0.21031256 -0.19634345 0.89100003 4283316526
0.21186468 -0.19634345 0.89100003 4283313973
0.2134168 -0.19634345 0.89100003 4282985264
0.21496892 -0.19634345 0.89100003 4283248180
0.21579202 -0.19568238 0.88800007 4283313973
0.2168494 -0.19524163 0.88600004 4283643219
0.21839282 -0.19524163 0.88600004 4286340476
0.21993624 -0.19524163 0.88600004 4286408045
0.22147965 -0.19524163 0.88600004 4287263354
0.22302306 -0.19524163 0.88600004 4287791206
0.22456647 -0.19524163 0.88600004 4288119915
0.22610989 -0.19524163 0.88600004 4288514423
0.22713941 -0.19480093 0.88400006 4288514423
0.22867933 -0.19480093 0.88400006 4288842370
0.22943796 -0.19413982 0.88100004 4288842370
0.23097266 -0.19413982 0.88100004 4288908163
0.23250739 -0.19413982 0.88100004 4289040006
0.23351079 -0.19369911 0.87900007 4289170822
0.23504201 -0.19369911 0.87900007 4289105029
0.23657322 -0.19369911 0.87900007 4289236878
0.23810443 -0.19369911 0.87900007 4289500051
0.23963565 -0.19369911 0.87900007 4289960854
0.2417156 -0.19413982 0.88100004 4290224025
0.2426981 -0.19369911 0.87900007 4290683289
0.24422932 -0.19369911 0.87900007 4290946717
0.24576053 -0.19369911 0.87900007 4291341727
0.24616642 -0.19281764 0.87500006 4292262829
0.24769066 -0.19281764 0.87500006 4290951355
0.24921492 -0.19281764 0.87500006 4289043358
0.25073916 -0.19281764 0.87500006 4286288025
0.25226343 -0.19281764 0.87500006 4284972165
0.25291753 -0.19215655 0.87200004 4284582565
0.25443655 -0.19215655 0.87200004 4284911530
0.25595558 -0.19215655 0.87200004 4286092706
0.25747457 -0.19215655 0.87200004 4286224549
0.25839961 -0.19171584 0.87000006 4286290090
0.25991514 -0.19171584 0.87000006 4286355883
0.26143068 -0.19171584 0.87000006 4286619306
0.26294622 -0.19171584 0.87000006 4286685099
0.26446179 -0.19171584 0.87000006 4286488750
0.26536584 -0.1912751 0.86800003 4286225834
0.26687792 -0.1912751 0.86800003 4286814650
0.26653475 -0.18995292 0.86200005 4289314785
0.26710352 -0.18929183 0.85900003 4292332758
0.26859987 -0.18929183 0.85900003 4294832893
0.27009624 -0.18929183 0.85900003 4294765553
0.27159265 -0.18929183 0.85900003 4294897395
0.27308899 -0.18929183 0.85900003 4294700271
0.2745854 -0.18929183 0.85900003 4294832113
0.27543899 -0.18885112 0.85700005 4294898422
0.27693188 -0.18885112 0.85700005 4294964215
0.27842477 -0.18885112 0.85700005 4294701043
0.28057089 -0.18929183 0.85900003 4294964215
0.28141055 -0.18885112 0.85700005 4294767342
0.28224322 -0.18841037 0.85500002 4294701293
0.28373262 -0.18841037 0.85500002 4293911795
0.28969026 -0.18841037 0.85500002 4288452005
0.29117966 -0.18841037 0.85500002 4285030769
0.29266909 -0.18841037 0.85500002 4278981502
0.29415849 -0.18841037 0.85500002 4278190172
0.29564789 -0.18841037 0.85500002 4278190123
0.29713732 -0.18841037 0.85500002 4278190119
0.29792818 -0.18796965 0.85300004 4278190093
0.29941413 -0.18796965 0.85300004 4278190097
0.1326028 -0.20419203 0.93400002 4281616197
0.13422982 -0.20419203 0.93400002 4282076226
0.13585684 -0.20419203 0.93400002 4282208068
0.13748388 -0.20419203 0.93400002 4282142023
0.13881303 -0.2037548 0.93200004 4282076230
0.14043657 -0.2037548 0.93200004 4281881415
0.14206012 -0.2037548 0.93200004 4281947208
0.14368366 -0.2037548 0.93200004 4282470470
0.14483947 -0.20309892 0.92900002 4282207555
0.14645779 -0.20309892 0.92900002 4282338380
0.14775732 -0.20266169 0.92700005 4283128153
0.15095563 -0.20047547 0.91700006 4286545526
0.15255305 -0.20047547 0.91700006 4286742904
0.15364616 -0.19981961 0.91400003 4287462764
0.15523835 -0.19981961 0.91400003 4289042052
0.15683053 -0.19981961 0.91400003 4289041552
0.15842272 -0.19981961 0.91400003 4288646795
0.16001491 -0.19981961 0.91400003 4287594365
0.1616071 -0.19981961 0.91400003 4287660159
0.16319929 -0.19981961 0.91400003 4288711554
0.16479148 -0.19981961 0.91400003 4289435021
0.16601959 -0.19938238 0.91200006 4288778878
0.16760829 -0.19938238 0.91200006 4287857776
0.16864042 -0.19872651 0.90900004 4288776327
0.17022391 -0.19872651 0.90900004 4289302671
0.17142937 -0.19828928 0.90700006 4289171576
0.17262787 -0.19785203 0.90500003 4290947730
0.17420436 -0.19785203 0.90500003 4291013557
0.17519818 -0.19719617 0.90200007 4290092455
0.17637752 -0.19675893 0.90000004 4288121200
0.17794532 -0.19675893 0.90000004 4288055407
0.17991205 -0.19719617 0.90200007 4288975013
0.18475218 -0.19566581 0.89500004 4288381065
0.18631127 -0.19566581 0.89500004 4290815663
0.18787037 -0.19566581 0.89500004 4290684063
0.18900616 -0.19522858 0.89300007 4291012772
0.19056176 -0.19522858 0.89300007 4291079866
0.19211736 -0.19522858 0.89300007 4289566370
0.19678418 -0.19522858 0.89300007 4290883516
0.19789557 -0.19479133 0.89100003 4288514968
0.19944771 -0.19479133 0.89100003 4288250249
0.201451 -0.19522858 0.89300007 4289697695
0.20255195 -0.19479133 0.89100003 4290094002
0.20410407 -0.19479133 0.89100003 4287659405
0.20565619 -0.19479133 0.89100003 4285617480
0.20720831 -0.19479133 0.89100003 4283578154
0.20876044 -0.19479133 0.89100003 4283448627
0.21078464 -0.19522858 0.89300007 4283448627
0.21234025 -0.19522858 0.89300007 4282923833
0.21269822 -0.19413547 0.88800007 4282397489
0.21424513 -0.19413547 0.88800007 4282461748
0.21579202 -0.19413547 0.88800007 4281737769
0.21733892 -0.19413547 0.88800007 4281868033
0.21839282 -0.19369823 0.88600004 4282525963
0.21993624 -0.19369823 0.88600004 4284893771
0.2219796 -0.19413547 0.88800007 4285946715
0.22302306 -0.19369823 0.88600004 4286408797
0.22456647 -0.19369823 0.88600004 4286671969
0.22610989 -0.19369823 0.88600004 4286803305
0.22713941 -0.193261 0.88400006 4287527028
0.22867933 -0.193261 0.88400006 4288053872
0.23021926 -0.193261 0.88400006 4288251507
0.23097266 -0.19260512 0.88100004 4288447864
0.23250739 -0.19260512 0.88100004 4288711036
0.23404208 -0.19260512 0.88100004 4288710530
0.23504201 -0.19216788 0.87900007 4288579201
0.23657322 -0.19216788 0.87900007 4288644224
0.23810443 -0.19216788 0.87900007 4288644224
0.23963565 -0.19216788 0.87900007 4288908165
0.2417156 -0.19260512 0.88100004 4288776579
0.2432503 -0.19260512 0.88100004 4289236613
0.24422932 -0.19216788 0.87900007 4289433991
0.24576053 -0.19216788 0.87900007 4290091660
0.24729174 -0.19216788 0.87900007 4291012762
0.24825682 -0.19173065 0.87700003 4289703087
0.24921492 -0.1912934 0.87500006 4286808195
0.25073916 -0.1912934 0.87500006 4284119688
0.25226343 -0.1912934 0.87500006 4284119688
0.25291753 -0.19063753 0.87200004 4283924633
0.25443655 -0.19063753 0.87200004 4284122268
0.25595558 -0.19063753 0.87200004 4284908437
0.25747457 -0.19063753 0.87200004 4285237401
0.25839961 -0.19020028 0.87000006 4285237149
0.25991514 -0.19020028 0.87000006 4285763494
0.26143068 -0.19020028 0.87000006 4285895336
0.26294622 -0.19020028 0.87000006 4285895336
0.26446179 -0.19020028 0.87000006 4285895334
0.26536584 -0.18976305 0.86800003 4285961127
0.26687792 -0.18976305 0.86800003 4287009702
0.26653475 -0.18845132 0.86200005 4288917699
0.26710352 -0.18779546 0.85900003 4292462800
0.26859987 -0.18779546 0.85900003 4294633969
0.27009624 -0.18779546 0.85900003 4294239461
0.27159265 -0.18779546 0.85900003 4294371047
0.27308899 -0.18779546 0.85900003 4294239720
0.2745854 -0.18779546 0.85900003 4294371562
0.27608177 -0.18779546 0.85900003 4294700271
0.27757815 -0.18779546 0.85900003 4294503149
0.27907452 -0.18779546 0.85900003 4294633705
0.28057089 -0.18779546 0.85900003 4294962927
0.28141055 -0.18735822 0.85700005 4294964466
0.28224322 -0.18692097 0.85500002 4294964466
0.28373262 -0.18692097 0.85500002 4294965247
0.28522202 -0.18692097 0.85500002 4294963963
0.28671145 -0.18692097 0.85500002 4294569459
0.28820086 -0.18692097 0.85500002 4294240494
0.28969026 -0.18692097 0.85500002 4291021014
0.29117966 -0.18692097 0.85500002 4288849589
0.29266909 -0.18692097 0.85500002 4287531936
0.29415849 -0.18692097 0.85500002 4281412931
0.29564789 -0.18692097 0.85500002 4279697734
0.29713732 -0.18692097 0.85500002 4278255663
0.29792818 -0.18648374 0.85300004 4278190123
0.29941413 -0.18648374 0.85300004 4278190124
0.30090007 -0.18648374 0.85300004 4278190108
0.13422982 -0.20256501 0.93400002 4280165165
0.13585684 -0.20256501 0.93400002 4281020474
0.13748388 -0.20256501 0.93400002 4281811745
0.13911091 -0.20256501 0.93400002 4282338089
0.14043657 -0.20213124 0.93200004 4282535482
0.14206012 -0.20213124 0.93200004 4282733118
0.14368366 -0.20213124 0.93200004 4282666818
0.1453072 -0.20213124 0.93200004 4282666818
0.14645779 -0.2014806 0.92900002 4282470219
0.14775732 -0.20104685 0.92700005 4282536268
0.15095563 -0.19887806 0.91700006 4284768317
0.15255305 -0.19887806 0.91700006 4284768317
0.15364616 -0.19822744 0.91400003 4287330678
0.15523835 -0.19822744 0.91400003 4288581001
0.15683053 -0.19822744 0.91400003 4288317282
0.15842272 -0.19822744 0.91400003 4286409285
0.16001491 -0.19822744 0.91400003 4286146415
0.1616071 -0.19822744 0.91400003 4286015086
0.16319929 -0.19822744 0.91400003 4287000420
0.16479148 -0.19822744 0.91400003 4287855473
0.16601959 -0.19779368 0.91200006 4287789930
0.16760829 -0.19779368 0.91200006 4288777081
0.16864042 -0.19714303 0.90900004 4288777872
0.17022391 -0.19714303 0.90900004 4288185992
0.17180738 -0.19714303 0.90900004 4289235329
0.17300937 -0.19670928 0.90700006 4291472291
0.17458937 -0.19670928 0.90700006 4291275682
0.17578088 -0.1962755 0.90500003 4289170307
0.17676947 -0.19562489 0.90200007 4288645761
0.17834076 -0.19562489 0.90200007 4289698449
0.18051042 -0.1962755 0.90500003 4290291867
0.18289173 -0.19714303 0.90900004 4290423453
0.18631127 -0.19410673 0.89500004 4290487222
0.18787037 -0.19410673 0.89500004 4290683289
0.18942946 -0.19410673 0.89500004 4291209889
0.19056176 -0.19367297 0.89300007 4290949546
0.19211736 -0.19367297 0.89300007 4289041548
0.19367297 -0.19367297 0.89300007 4289302115
0.19522858 -0.19367297 0.89300007 4290946940
0.19678418 -0.19367297 0.89300007 4290619033
0.19789557 -0.19323921 0.89100003 4288842622
0.19944771 -0.19323921 0.89100003 4288382364
0.20099983 -0.19323921 0.89100003 4288908708
0.20255195 -0.19323921 0.89100003 4289435052
0.20410407 -0.19323921 0.89100003 4286540160
0.20565619 -0.19323921 0.89100003 4284367197
0.20720831 -0.19323921 0.89100003 4283709010
0.20876044 -0.19323921 0.89100003 4283844155
0.21269822 -0.19258858 0.88800007 4283056447
0.21424513 -0.19258858 0.88800007 4282923079
0.21579202 -0.19258858 0.88800007 4282659906
0.21733892 -0.19258858 0.88800007 4282723110
0.21839282 -0.19215482 0.88600004 4282196766
0.21993624 -0.19215482 0.88600004 4281997865
0.2219796 -0.19258858 0.88800007 4281866279
0.22302306 -0.19215482 0.88600004 4281866781
0.22456647 -0.19215482 0.88600004 4281669403
0.22610989 -0.19215482 0.88600004 4281405717
0.22765331 -0.19215482 0.88600004 4280813323
0.2291967 -0.19215482 0.88600004 4281339420
0.23021926 -0.19172105 0.88400006 4284891985
0.23175919 -0.19172105 0.88400006 4285090917
0.23250739 -0.19107041 0.88100004 4286998915
0.23404208 -0.19107041 0.88100004 4287263858
0.23557678 -0.19107041 0.88100004 4287526774
0.23711148 -0.19107041 0.88100004 4287857263
0.23810443 -0.19063666 0.87900007 4287988849
0.23963565 -0.19063666 0.87900007 4288184956
0.2417156 -0.19107041 0.88100004 4288119163
0.2432503 -0.19107041 0.88100004 4288316024
0.24478498 -0.19107041 0.88100004 4288250231
