# .PCD v0.7 - Point Cloud Data file format
VERSION 0.7
FIELDS x y z rgba
SIZE 4 4 4 4
TYPE F F F U
COUNT 1 1 1 1
WIDTH 1044
HEIGHT 1
VIEWPOINT 0 0 0 1 0 0 0
POINTS 1044
DATA ascii
0.25253862 -0.070922926 0.76100004 4287408588
0.25386429 -0.070922926 0.76100004 4287276746
0.25518996 -0.070922926 0.76100004 4285700792
0.25651562 -0.070922926 0.76100004 4284911532
0.25818008 -0.071016125 0.76200002 4284318878
0.25950751 -0.071016125 0.76200002 4283660947
0.2608349 -0.071016125 0.76200002 4286150268
0.26216233 -0.071016125 0.76200002 4289176745
0.26348972 -0.071016125 0.76200002 4290292408
0.26481715 -0.071016125 0.76200002 4290095286
0.26614451 -0.071016125 0.76200002 4290095537
0.26747191 -0.071016125 0.76200002 4289963695
0.26879933 -0.071016125 0.76200002 4289241255
0.27083576 -0.071202517 0.76400006 4288714911
0.27216661 -0.071202517 0.76400006 4286155382
0.27349752 -0.071202517 0.76400006 4285628782
0.2748284 -0.071202517 0.76400006 4283588976
0.27688223 -0.071388908 0.76600003 4283654770
0.2782166 -0.071388908 0.76600003 4286412404
0.27955097 -0.071388908 0.76600003 4290096812
0.28088534 -0.071388908 0.76600003 4293382868
0.28221971 -0.071388908 0.76600003 4294764521
0.28355408 -0.071388908 0.76600003 4294305769
0.24225125 -0.069688715 0.76200002 4285831347
0.24357867 -0.069688715 0.76200002 4286489533
0.24490607 -0.069688715 0.76200002 4286556091
0.24591033 -0.069597267 0.76100004 4286819264
0.247236 -0.069597267 0.76100004 4287015373
0.24856164 -0.069597267 0.76100004 4286949580
0.2498873 -0.069597267 0.76100004 4286489281
0.25121298 -0.069597267 0.76100004 4285897144
0.25253862 -0.069597267 0.76100004 4285173183
0.25386429 -0.069597267 0.76100004 4284778425
0.25518996 -0.069597267 0.76100004 4283924635
0.25651562 -0.069597267 0.76100004 4283858842
0.25784129 -0.069597267 0.76100004 4283069339
0.25916696 -0.069597267 0.76100004 4282608788
0.2608349 -0.069688715 0.76200002 4283128448
0.26216233 -0.069688715 0.76200002 4282470261
0.26348972 -0.069688715 0.76200002 4283847524
0.26481715 -0.069688715 0.76200002 4284702833
0.26614451 -0.069688715 0.76200002 4284047218
0.26747191 -0.069688715 0.76200002 4283520873
0.26879933 -0.069688715 0.76200002 4283124832
0.27083576 -0.069871634 0.76400006 4281677386
0.27216661 -0.069871634 0.76400006 4285164067
0.27349752 -0.069871634 0.76400006 4287861580
0.2748284 -0.069871634 0.76400006 4291346320
0.27688223 -0.070054531 0.76600003 4293386160
0.2782166 -0.070054531 0.76600003 4293845746
0.23997535 -0.068092182 0.75900006 4284385958
0.24129753 -0.068092182 0.75900006 4285700029
0.24357867 -0.068361312 0.76200002 4286555337
0.24490607 -0.068361312 0.76200002 4286949830
0.24623345 -0.068361312 0.76200002 4287015879
0.24756087 -0.068361312 0.76200002 4287146695
0.24856164 -0.0682716 0.76100004 4286883524
0.2498873 -0.0682716 0.76100004 4285569726
0.25121298 -0.0682716 0.76100004 4285174968
0.25253862 -0.0682716 0.76100004 4284516774
0.25319713 -0.068092182 0.75900006 4284056223
0.25451931 -0.068092182 0.75900006 4283660684
0.25584149 -0.068092182 0.75900006 4283594891
0.25784129 -0.0682716 0.76100004 4283331469
0.25916696 -0.0682716 0.76100004 4282541697
0.2608349 -0.068361312 0.76200002 4281948533
0.26216233 -0.068361312 0.76200002 4280961638
0.26348972 -0.068361312 0.76200002 4278204491
0.26481715 -0.068361312 0.76200002 4278271055
0.26614451 -0.068361312 0.76200002 4278201893
0.26747191 -0.068361312 0.76200002 4278993465
0.26950485 -0.068540744 0.76400006 4278923556
0.27012673 -0.068361312 0.76200002 4281884241
0.27145416 -0.068361312 0.76200002 4286476123
0.27349752 -0.068540744 0.76400006 4289239429
0.2748284 -0.068540744 0.76400006 4293313480
0.23997535 -0.066769995 0.75900006 4288654526
0.24129753 -0.066769995 0.75900006 4287344075
0.24357867 -0.067033909 0.76200002 4286883524
0.24490607 -0.067033909 0.76200002 4286292170
0.24623345 -0.067033909 0.76200002 4285831619
0.24756087 -0.067033909 0.76200002 4284517808
0.24856164 -0.066945933 0.76100004 4284188586
0.2498873 -0.066945933 0.76100004 4283859119
0.25121298 -0.066945933 0.76100004 4283530411
0.25253862 -0.066945933 0.76100004 4283069063
0.25319713 -0.066769995 0.75900006 4282871684
0.25451931 -0.066769995 0.75900006 4281885316
0.25584149 -0.066769995 0.75900006 4281819523
0.25784129 -0.066945933 0.76100004 4281751935
0.25916696 -0.066945933 0.76100004 4281357177
0.2608349 -0.067033909 0.76200002 4280831585
0.26216233 -0.067033909 0.76200002 4280305241
0.26348972 -0.067033909 0.76200002 4280039771
0.26481715 -0.067033909 0.76200002 4281092202
0.26614451 -0.067033909 0.76200002 4283388783
0.26747191 -0.067033909 0.76200002 4287731378
0.26879933 -0.067033909 0.76200002 4291741569
0.27012673 -0.067033909 0.76200002 4293320857
0.27145416 -0.067033909 0.76200002 4293779943
0.27278155 -0.067033909 0.76200002 4294108908
0.23244205 -0.065189131 0.75600004 4293514970
0.233759 -0.065189131 0.75600004 4294436072
0.23538691 -0.065275356 0.75700003 4294569718
0.23670559 -0.065275356 0.75700003 4294964990
0.23802429 -0.065275356 0.75700003 4293323517
0.24060768 -0.065620273 0.76100004 4290560211
0.24193335 -0.065620273 0.76100004 4286688461
0.24357867 -0.065706506 0.76200002 4285503931
0.24490607 -0.065706506 0.76200002 4286092990
0.24623345 -0.065706506 0.76200002 4285566646
0.24756087 -0.065706506 0.76200002 4283926180
0.24888827 -0.065706506 0.76200002 4283663264
0.2498873 -0.065620273 0.76100004 4283202461
0.25121298 -0.065620273 0.76100004 4283005082
0.25253862 -0.065620273 0.76100004 4282806140
0.25319713 -0.065447822 0.75900006 4282609018
0.25451931 -0.065447822 0.75900006 4282278520
0.25651562 -0.065620273 0.76100004 4282015091
0.25784129 -0.065620273 0.76100004 4281028185
0.25916696 -0.065620273 0.76100004 4280830549
0.2608349 -0.065706506 0.76200002 4280040245
0.26216233 -0.065706506 0.76200002 4280303160
0.26348972 -0.065706506 0.76200002 4282074170
0.26481715 -0.065706506 0.76200002 4284837476
0.26614451 -0.065706506 0.76200002 4288054153
0.26747191 -0.065706506 0.76200002 4290291115
0.26879933 -0.065706506 0.76200002 4293315015
0.27012673 -0.065706506 0.76200002 4294960869
0.27145416 -0.065706506 0.76200002 4294371310
0.22879344 -0.063956663 0.75700003 4293450206
0.23011214 -0.063956663 0.75700003 4294502356
0.2311251 -0.063872173 0.75600004 4294964191
0.23244205 -0.063872173 0.75600004 4294964986
0.233759 -0.063872173 0.75600004 4294966527
0.23538691 -0.063956663 0.75700003 4294965247
0.23670559 -0.063956663 0.75700003 4294898940
0.23802429 -0.063956663 0.75700003 4294175483
0.23997535 -0.064125642 0.75900006 4292004057
0.24129753 -0.064125642 0.75900006 4289179839
0.24357867 -0.064379096 0.76200002 4285298053
0.24490607 -0.064379096 0.76200002 4282871722
0.24623345 -0.064379096 0.76200002 4283003565
0.24756087 -0.064379096 0.76200002 4282017681
0.24856164 -0.064294614 0.76100004 4282149523
0.2498873 -0.064294614 0.76100004 4281687171
0.25121298 -0.064294614 0.76100004 4281292414
0.25253862 -0.064294614 0.76100004 4281226089
0.25319713 -0.064125642 0.75900006 4281028966
0.25451931 -0.064125642 0.75900006 4280895845
0.25651562 -0.064294614 0.76100004 4280435294
0.25784129 -0.064294614 0.76100004 4281022802
0.25916696 -0.064294614 0.76100004 4283851901
0.2608349 -0.064379096 0.76200002 4288121965
0.26216233 -0.064379096 0.76200002 4290424720
0.26348972 -0.064379096 0.76200002 4293121688
0.26481715 -0.064379096 0.76200002 4294240170
0.26614451 -0.064379096 0.76200002 4294108654
0.26747191 -0.064379096 0.76200002 4294240240
0.26879933 -0.064379096 0.76200002 4294108393
0.22675358 -0.062803462 0.75900006 4293515222
0.22747473 -0.06263797 0.75700003 4293318874
0.22879344 -0.06263797 0.75700003 4293845218
0.23011214 -0.06263797 0.75700003 4294569196
0.2311251 -0.062555231 0.75600004 4294964468
0.23244205 -0.062555231 0.75600004 4294965753
0.233759 -0.062555231 0.75600004 4294965753
0.23538691 -0.06263797 0.75700003 4294899453
0.23670559 -0.06263797 0.75700003 4294504695
0.23802429 -0.06263797 0.75700003 4294240754
0.23997535 -0.062803462 0.75900006 4292464599
0.24129753 -0.062803462 0.75900006 4289967043
0.24325901 -0.062968954 0.76100004 4284835189
0.24458468 -0.062968954 0.76100004 4282869898
0.24623345 -0.063051693 0.76200002 4282672520
0.24756087 -0.063051693 0.76200002 4282802554
0.24856164 -0.062968954 0.76100004 4282605432
0.2498873 -0.062968954 0.76100004 4282144363
0.25121298 -0.062968954 0.76100004 4281289054
0.25253862 -0.062968954 0.76100004 4279910199
0.25386429 -0.062968954 0.76100004 4280436799
0.25518996 -0.062968954 0.76100004 4280826674
0.25651562 -0.062968954 0.76100004 4281616447
0.25784129 -0.062968954 0.76100004 4284044610
0.25950751 -0.063051693 0.76200002 4285689691
0.2608349 -0.063051693 0.76200002 4291141278
0.26216233 -0.063051693 0.76200002 4293115324
0.26418129 -0.063217185 0.76400006 4294105563
0.2655122 -0.063217185 0.76400006 4294961129
0.26614451 -0.063051693 0.76200002 4294305515
0.26747191 -0.063051693 0.76200002 4294108393
0.18573293 -0.060185231 0.74300003 4293251280
0.22675358 -0.061481286 0.75900006 4294963167
0.22747473 -0.061319277 0.75700003 4294964466
0.22879344 -0.061319277 0.75700003 4294965751
0.23011214 -0.061319277 0.75700003 4294898940
0.23143081 -0.061319277 0.75700003 4294767354
0.23274951 -0.061319277 0.75700003 4294569707
0.23406821 -0.061319277 0.75700003 4293846240
0.23538691 -0.061319277 0.75700003 4293253860
0.23670559 -0.061319277 0.75700003 4292398552
0.23802429 -0.061319277 0.75700003 4292791483
0.24060768 -0.061643288 0.76100004 4290949279
0.24193335 -0.061643288 0.76100004 4289638035
0.24325901 -0.061643288 0.76100004 4282532391
0.24458468 -0.061643288 0.76100004 4278207590
0.24623345 -0.061724294 0.76200002 4278669170
0.24756087 -0.061724294 0.76200002 4280567895
0.24888827 -0.061724294 0.76200002 4280370773
0.25021568 -0.061724294 0.76200002 4281024864
0.25121298 -0.061643288 0.76100004 4282735739
0.25253862 -0.061643288 0.76100004 4286874449
0.25386429 -0.061643288 0.76100004 4288585067
0.25518996 -0.061643288 0.76100004 4291806328
0.25651562 -0.061643288 0.76100004 4293187981
0.25784129 -0.061643288 0.76100004 4293648603
0.25950751 -0.061724294 0.76200002 4294569705
0.2608349 -0.061724294 0.76200002 4294503664
0.26285043 -0.061886299 0.76400006 4294437871
0.18468685 -0.058970191 0.74400002 4292987863
0.18573293 -0.058890931 0.74300003 4292856020
0.18702723 -0.058890931 0.74300003 4292790727
0.22219996 -0.060000584 0.75700003 4293514970
0.2241092 -0.06015911 0.75900006 4294041314
0.22543138 -0.06015911 0.75900006 4294699497
0.22615604 -0.060000584 0.75700003 4294964210
0.22747473 -0.060000584 0.75700003 4294965239
0.22879344 -0.060000584 0.75700003 4294964725
0.23011214 -0.060000584 0.75700003 4294898168
0.23143081 -0.060000584 0.75700003 4294503410
0.23274951 -0.060000584 0.75700003 4294108906
0.23406821 -0.060000584 0.75700003 4293714148
0.23538691 -0.060000584 0.75700003 4292137433
0.23670559 -0.060000584 0.75700003 4291676882
0.23865317 -0.06015911 0.75900006 4290623158
0.23997535 -0.06015911 0.75900006 4289833642
0.24193335 -0.060317632 0.76100004 4286485404
0.24357867 -0.060396887 0.76200002 4281616722
0.24458468 -0.060317632 0.76100004 4279121723
0.24591033 -0.060317632 0.76100004 4279845190
0.24756087 -0.060396887 0.76200002 4280302157
0.24888827 -0.060396887 0.76200002 4280433999
0.25021568 -0.060396887 0.76200002 4283058735
0.25154307 -0.060396887 0.76200002 4284966732
0.25253862 -0.060317632 0.76100004 4290154916
0.25386429 -0.060317632 0.76100004 4291931327
0.25518996 -0.060317632 0.76100004 4293052872
0.25651562 -0.060317632 0.76100004 4294962154
0.25818008 -0.060396887 0.76200002 4294701297
0.25950751 -0.060396887 0.76200002 4294635248
0.1838838 -0.057829183 0.74600005 4292857293
0.18468685 -0.057674143 0.74400002 4293119458
0.1859829 -0.057674143 0.74400002 4292658907
0.18702723 -0.05759662 0.74300003 4292593605
0.18781462 -0.057441588 0.74100006 4292527812
0.21418241 -0.058294293 0.75200003 4293318622
0.21549238 -0.058294293 0.75200003 4293449693
0.21680239 -0.058294293 0.75200003 4293910244
0.21811236 -0.058294293 0.75200003 4294239459
0.22058949 -0.058604371 0.75600004 4294568423
0.22219996 -0.058681887 0.75700003 4294964720
0.22351865 -0.058681887 0.75700003 4294965491
0.22483736 -0.058681887 0.75700003 4294965247
0.22615604 -0.058681887 0.75700003 4294964734
0.22747473 -0.058681887 0.75700003 4294832111
0.22879344 -0.058681887 0.75700003 4293648094
0.23011214 -0.058681887 0.75700003 4292857315
0.23143081 -0.058681887 0.75700003 4292396764
0.23274951 -0.058681887 0.75700003 4291212245
0.23406821 -0.058681887 0.75700003 4290554314
0.23538691 -0.058681887 0.75700003 4289106866
0.23670559 -0.058681887 0.75700003 4288317351
0.23802429 -0.058681887 0.75700003 4288185473
0.23997535 -0.058836926 0.75900006 4287856509
0.24225125 -0.059069481 0.76200002 4287136393
0.24357867 -0.059069481 0.76200002 4286412926
0.24458468 -0.058991965 0.76100004 4287795331
0.24591033 -0.058991965 0.76100004 4289045398
0.24756087 -0.059069481 0.76200002 4290226102
0.24888827 -0.059069481 0.76200002 4290489273
0.25021568 -0.059069481 0.76200002 4290884517
0.25154307 -0.059069481 0.76200002 4292660928
0.2528705 -0.059069481 0.76200002 4293186287
0.2541979 -0.059069481 0.76200002 4294699263
0.25552529 -0.059069481 0.76200002 4294568173
0.25685269 -0.059069481 0.76200002 4294568173
0.25818008 -0.059069481 0.76200002 4294305263
0.25950751 -0.059069481 0.76200002 4294239470
0.18079871 -0.056378096 0.74400002 4292725706
0.18185 -0.05630232 0.74300003 4292661199
0.18314432 -0.05630232 0.74300003 4293121750
0.18443862 -0.05630232 0.74300003 4293187552
0.18573293 -0.05630232 0.74300003 4292200657
0.18652381 -0.056150764 0.74100006 4292396225
0.1873077 -0.055999205 0.73900002 4292330176
0.18885459 -0.0556961 0.73500001 4293119167
0.21212511 -0.057135861 0.75400001 4293648092
0.21343857 -0.057135861 0.75400001 4293450458
0.21418241 -0.056984309 0.75200003 4293384665
0.21549238 -0.056984309 0.75200003 4293712349
0.21680239 -0.056984309 0.75200003 4294172900
0.21811236 -0.056984309 0.75200003 4294829549
0.22058949 -0.057287417 0.75600004 4294962678
0.22190644 -0.057287417 0.75600004 4294966271
0.22351865 -0.057363193 0.75700003 4294964986
0.22483736 -0.057363193 0.75700003 4294964733
0.22615604 -0.057363193 0.75700003 4294898940
0.22747473 -0.057363193 0.75700003 4293977838
0.22879344 -0.057363193 0.75700003 4293319652
0.23011214 -0.057363193 0.75700003 4292332756
0.23143081 -0.057363193 0.75700003 4291477704
0.23274951 -0.057363193 0.75700003 4290621109
0.23406821 -0.057363193 0.75700003 4289371043
0.23538691 -0.057363193 0.75700003 4288778126
0.23670559 -0.057363193 0.75700003 4288317575
0.23802429 -0.057363193 0.75700003 4287790963
0.23934299 -0.057363193 0.75700003 4288646272
0.24225125 -0.057742078 0.76200002 4289303453
0.24357867 -0.057742078 0.76200002 4289829797
0.24490607 -0.057742078 0.76200002 4290815924
0.24623345 -0.057742078 0.76200002 4292263370
0.24756087 -0.057742078 0.76200002 4293118425
0.24888827 -0.057742078 0.76200002 4292789716
0.25021568 -0.057742078 0.76200002 4291804602
0.25154307 -0.057742078 0.76200002 4292199360
0.2528705 -0.057742078 0.76200002 4292791250
0.2541979 -0.057742078 0.76200002 4294699247
0.25619596 -0.057893634 0.76400006 4294502897
0.25752687 -0.057893634 0.76400006 4294239724
0.17877887 -0.054859944 0.74100006 4292921802
0.18079871 -0.055082045 0.74400002 4292856009
0.18185 -0.055008009 0.74300003 4292988365
0.18314432 -0.055008009 0.74300003 4293514709
0.18394215 -0.054859944 0.74100006 4293252554
0.18523298 -0.054859944 0.74100006 4292331452
0.18652381 -0.054859944 0.74100006 4292461769
0.1873077 -0.054711871 0.73900002 4292395719
0.18782943 -0.054489769 0.73600006 4292329917
0.18885459 -0.054415729 0.73500001 4292856261
0.1896176 -0.054267664 0.73300004 4293184444
0.19089447 -0.054267664 0.73300004 4293250237
0.21081163 -0.055822399 0.75400001 4293778647
0.21156244 -0.055674326 0.75200003 4293909976
0.21287242 -0.055674326 0.75200003 4294436826
0.21418241 -0.055674326 0.75200003 4294963941
0.21549238 -0.055674326 0.75200003 4294965236
0.21680239 -0.055674326 0.75200003 4294966265
0.21811236 -0.055674326 0.75200003 4294965247
0.2200059 -0.055822399 0.75400001 4294964221
0.22190644 -0.055970464 0.75600004 4294701045
0.2232234 -0.055970464 0.75600004 4293648357
0.22483736 -0.0560445 0.75700003 4292923364
0.22615604 -0.0560445 0.75700003 4292265435
0.22747473 -0.0560445 0.75700003 4291145686
0.22879344 -0.0560445 0.75700003 4290553549
0.23011214 -0.0560445 0.75700003 4289368242
0.23143081 -0.0560445 0.75700003 4288710312
0.23274951 -0.0560445 0.75700003 4288906630
0.23406821 -0.0560445 0.75700003 4288972423
0.23538691 -0.0560445 0.75700003 4289961108
0.23670559 -0.0560445 0.75700003 4291671469
0.23802429 -0.0560445 0.75700003 4293579687
0.23934299 -0.0560445 0.75700003 4294434995
0.24225125 -0.056414679 0.76200002 4294041829
0.24357867 -0.056414679 0.76200002 4294041829
0.24490607 -0.056414679 0.76200002 4294172912
0.24591033 -0.056340642 0.76100004 4294107119
0.247236 -0.056340642 0.76100004 4293711068
0.24888827 -0.056414679 0.76200002 4292789966
0.25021568 -0.056414679 0.76200002 4292461237
0.25220332 -0.056562744 0.76400006 4290619033
0.2535342 -0.056562744 0.76400006 4291012785
0.25486508 -0.056562744 0.76400006 4293644762
0.25619596 -0.056562744 0.76400006 4294173416
0.16859776 -0.053207655 0.73600006 4293319904
0.16964905 -0.053135358 0.73500001 4293516002
0.17092942 -0.053135358 0.73500001 4293187293
0.17220977 -0.053135358 0.73500001 4292988363
0.17700899 -0.053424533 0.73900002 4293249232
0.17829633 -0.053424533 0.73900002 4293052359
0.18006968 -0.053569123 0.74100006 4292920773
0.18185 -0.053713705 0.74300003 4292920773
0.18314432 -0.053713705 0.74300003 4293512910
0.18394215 -0.053569123 0.74100006 4293054158
0.18473302 -0.053424533 0.73900002 4292395971
0.18602036 -0.053424533 0.73900002 4292527814
0.1873077 -0.053424533 0.73900002 4292461765
0.18782943 -0.053207655 0.73600006 4292263870
0.18885459 -0.053135358 0.73500001 4292724421
0.1896176 -0.052990776 0.73300004 4292921021
0.19089447 -0.052990776 0.73300004 4292921021
0.21081163 -0.054508924 0.75400001 4293844701
0.21156244 -0.054364342 0.75200003 4294107872
0.21287242 -0.054364342 0.75200003 4294896623
0.21418241 -0.054364342 0.75200003 4294964987
0.21549238 -0.054364342 0.75200003 4294967039
0.21680239 -0.054364342 0.75200003 4294966270
0.21811236 -0.054364342 0.75200003 4294965246
0.2200059 -0.054508924 0.75400001 4294307316
0.22190644 -0.054653514 0.75600004 4293912558
0.2232234 -0.054653514 0.75600004 4293386214
0.22454035 -0.054653514 0.75600004 4292333529
0.22585729 -0.054653514 0.75600004 4291280840
0.22717424 -0.054653514 0.75600004 4290555314
0.22879344 -0.054725807 0.75700003 4289371297
0.23011214 -0.054725807 0.75700003 4289236365
0.23143081 -0.054725807 0.75700003 4289104523
0.23274951 -0.054725807 0.75700003 4288970876
0.23406821 -0.054725807 0.75700003 4289563270
0.23538691 -0.054725807 0.75700003 4291865002
0.23670559 -0.054725807 0.75700003 4293444035
0.23802429 -0.054725807 0.75700003 4294170585
0.24591033 -0.055014979 0.76100004 4293778406
0.247236 -0.055014979 0.76100004 4293316571
0.24888827 -0.055087272 0.76200002 4292790227
0.25021568 -0.055087272 0.76200002 4292461253
0.16731563 -0.051925544 0.73600006 4292856774
0.16836867 -0.051854987 0.73500001 4292856774
0.16964905 -0.051854987 0.73500001 4292791753
0.17046431 -0.051713891 0.73300004 4292791753
0.17174119 -0.051713891 0.73300004 4292659398
0.17349014 -0.051854987 0.73500001 4292462018
0.17500831 -0.051925544 0.73600006 4292658628
0.17676947 -0.052066643 0.73800004 4292724421
0.17805506 -0.052066643 0.73800004 4292789957
0.17934066 -0.052066643 0.73800004 4292921286
0.18185 -0.052419398 0.74300003 4292789957
0.18314432 -0.052419398 0.74300003 4293052872
0.18394215 -0.052278299 0.74100006 4292987329
0.1839831 -0.051925544 0.73600006 4292592571
0.18501349 -0.051854987 0.73500001 4292462018
0.18629386 -0.051854987 0.73500001 4292527812
0.18757422 -0.051854987 0.73500001 4292528075
0.18834071 -0.051713891 0.73300004 4292528075
0.1896176 -0.051713891 0.73300004 4292527812
0.19089447 -0.051713891 0.73300004 4292462018
0.20949817 -0.053195458 0.75400001 4294964199
0.21025246 -0.053054359 0.75200003 4294966012
0.21156244 -0.053054359 0.75200003 4294967295
0.21287242 -0.053054359 0.75200003 4294965759
0.21418241 -0.053054359 0.75200003 4294964734
0.21549238 -0.053054359 0.75200003 4294766838
0.21680239 -0.053054359 0.75200003 4293845737
0.21811236 -0.053054359 0.75200003 4292792546
0.2200059 -0.053195458 0.75400001 4291871444
0.22190644 -0.053336564 0.75600004 4290555857
0.2232234 -0.053336564 0.75600004 4290161099
0.22454035 -0.053336564 0.75600004 4289107636
0.22585729 -0.053336564 0.75600004 4288054948
0.22717424 -0.053336564 0.75600004 4288579201
0.22849119 -0.053336564 0.75600004 4289039752
0.22980817 -0.053336564 0.75600004 4290683029
0.23143081 -0.05340711 0.75700003 4292722613
0.23274951 -0.05340711 0.75700003 4294171576
0.23406821 -0.05340711 0.75700003 4294500541
0.23538691 -0.05340711 0.75700003 4294239209
0.23670559 -0.05340711 0.75700003 4294370795
0.16580793 -0.050574619 0.73500001 4292922569
0.1670883 -0.050574619 0.73500001 4293052870
0.16791053 -0.050437 0.73300004 4293118919
0.16872577 -0.050299384 0.73100001 4292922569
0.16999918 -0.050299384 0.73100001 4292790727
0.17127259 -0.050299384 0.73100001 4292528325
0.17254598 -0.050299384 0.73100001 4292396996
0.17477052 -0.050574619 0.73500001 4292067009
0.17676947 -0.050781045 0.73800004 4292067009
0.17805506 -0.050781045 0.73800004 4292329917
0.17934066 -0.050781045 0.73800004 4292592832
0.18087101 -0.050849855 0.73900002 4292658368
0.18215835 -0.050849855 0.73900002 4292658368
0.18319745 -0.050781045 0.73800004 4292526526
0.18373311 -0.050574619 0.73500001 4292526526
0.18501349 -0.050574619 0.73500001 4292592834
0.18578693 -0.050437 0.73300004 4292724421
0.18706383 -0.050437 0.73300004 4292266441
0.18834071 -0.050437 0.73300004 4291740097
0.1896176 -0.050437 0.73300004 4291870649
0.19089447 -0.050437 0.73300004 4292331200
0.19269569 -0.050574619 0.73500001 4292331202
0.20894247 -0.051744372 0.75200003 4294965753
0.21025246 -0.051744372 0.75200003 4294967039
0.21156244 -0.051744372 0.75200003 4294966269
0.21287242 -0.051744372 0.75200003 4294965759
0.21418241 -0.051744372 0.75200003 4294898938
0.21549238 -0.051744372 0.75200003 4293912304
0.21680239 -0.051744372 0.75200003 4293385960
0.21811236 -0.051744372 0.75200003 4292135632
0.2200059 -0.051881991 0.75400001 4291148737
0.22131938 -0.051881991 0.75400001 4290162607
0.2232234 -0.052019611 0.75600004 4289373091
0.22454035 -0.052019611 0.75600004 4288189585
0.22585729 -0.052019611 0.75600004 4287729034
0.22717424 -0.052019611 0.75600004 4288643976
0.22849119 -0.052019611 0.75600004 4289762457
0.22980817 -0.052019611 0.75600004 4292325803
0.2311251 -0.052019611 0.75600004 4294365387
0.23274951 -0.052088417 0.75700003 4294435811
0.23406821 -0.052088417 0.75700003 4294698726
0.16407987 -0.049160115 0.73300004 4293053889
0.16535676 -0.049160115 0.73300004 4292922304
0.16663364 -0.049160115 0.73300004 4293119179
0.16791053 -0.049160115 0.73300004 4293184972
0.16872577 -0.049025979 0.73100001 4292922306
0.16999918 -0.049025979 0.73100001 4292724671
0.17127259 -0.049025979 0.73100001 4292593605
0.17254598 -0.049025979 0.73100001 4292593605
0.17429496 -0.049160115 0.73300004 4292329926
0.17676947 -0.049495451 0.73800004 4292132804
0.17805506 -0.049495451 0.73800004 4292329665
0.17934066 -0.049495451 0.73800004 4292658630
0.18087101 -0.049562518 0.73900002 4292658366
0.18215835 -0.049562518 0.73900002 4292592573
0.18319745 -0.049495451 0.73800004 4292461505
0.18373311 -0.049294248 0.73500001 4292395712
0.18451004 -0.049160115 0.73300004 4292461503
0.18578693 -0.049160115 0.73300004 4292790468
0.18706383 -0.049160115 0.73300004 4292331200
0.18834071 -0.049160115 0.73300004 4291870649
0.19013496 -0.049294248 0.73500001 4292001981
0.19141532 -0.049294248 0.73500001 4292396996
0.20632249 -0.050434388 0.75200003 4294967295
0.20818469 -0.050568525 0.75400001 4294966015
0.20894247 -0.050434388 0.75200003 4294965503
0.21025246 -0.050434388 0.75200003 4294832111
0.21156244 -0.050434388 0.75200003 4293911009
0.21287242 -0.050434388 0.75200003 4292989405
0.21418241 -0.050434388 0.75200003 4292134353
0.21549238 -0.050434388 0.75200003 4290686682
0.21680239 -0.050434388 0.75200003 4290094545
0.21811236 -0.050434388 0.75200003 4288778155
0.2200059 -0.050568525 0.75400001 4287988640
0.22131938 -0.050568525 0.75400001 4288777863
0.2232234 -0.050702658 0.75600004 4289567122
0.22454035 -0.050702658 0.75600004 4291408533
0.22585729 -0.050702658 0.75600004 4293184944
0.22717424 -0.050702658 0.75600004 4293712354
0.22849119 -0.050702658 0.75600004 4294567406
0.22980817 -0.050702658 0.75600004 4294239713
0.2311251 -0.050702658 0.75600004 4294239713
0.23274951 -0.050769724 0.75700003 4294107874
0.23406821 -0.050769724 0.75700003 4293910496
0.16407987 -0.047883231 0.73300004 4293184444
0.16535676 -0.047883231 0.73300004 4293316031
0.16663364 -0.047883231 0.73300004 4292789957
0.16791053 -0.047883231 0.73300004 4292789957
0.16872577 -0.047752578 0.73100001 4292789953
0.16999918 -0.047752578 0.73100001 4292789953
0.17127259 -0.047752578 0.73100001 4292462268
0.17254598 -0.047752578 0.73100001 4292593855
0.17429496 -0.047883231 0.73300004 4292199112
0.17700899 -0.04827518 0.73900002 4292133319
0.17829633 -0.04827518 0.73900002 4292197564
0.17958367 -0.04827518 0.73900002 4292263357
0.18136051 -0.048405834 0.74100006 4292395710
0.18265134 -0.048405834 0.74100006 4292658882
0.18344568 -0.04827518 0.73900002 4292658882
0.1839831 -0.048079208 0.73600006 4292329917
0.18451004 -0.047883231 0.73300004 4292329663
0.18528001 -0.047752578 0.73100001 4292395712
0.1865534 -0.047752578 0.73100001 4292395712
0.18782681 -0.047752578 0.73100001 4292329663
0.19013496 -0.048013877 0.73500001 4292067774
0.19141532 -0.048013877 0.73500001 4292199360
0.19269569 -0.048013877 0.73500001 4292527812
0.20288989 -0.048928428 0.74900001 4294965751
0.20419464 -0.048928428 0.74900001 4294966780
0.20604815 -0.049059082 0.75100005 4294967037
0.20818469 -0.049255051 0.75400001 4294966527
0.20894247 -0.049124405 0.75200003 4294964733
0.21025246 -0.049124405 0.75200003 4293912810
0.21156244 -0.049124405 0.75200003 4293386210
0.21287242 -0.049124405 0.75200003 4292267467
0.21418241 -0.049124405 0.75200003 4291083194
0.21549238 -0.049124405 0.75200003 4289899435
0.21680239 -0.049124405 0.75200003 4289373091
0.21869244 -0.049255051 0.75400001 4288122247
0.2200059 -0.049255051 0.75400001 4288188040
0.22131938 -0.049255051 0.75400001 4289368212
0.2232234 -0.049385708 0.75600004 4290421157
0.22454035 -0.049385708 0.75600004 4292984249
0.22585729 -0.049385708 0.75600004 4294826453
0.22717424 -0.049385708 0.75600004 4294501867
0.22849119 -0.049385708 0.75600004 4294567660
0.22980817 -0.049385708 0.75600004 4294239459
0.2311251 -0.049385708 0.75600004 4294042079
0.16235876 -0.046479177 0.73100001 4292725706
0.16407987 -0.046606343 0.73300004 4292987318
0.16535676 -0.046606343 0.73300004 4293382076
0.16663364 -0.046606343 0.73300004 4292922821
0.16791053 -0.046606343 0.73300004 4292528064
0.16872577 -0.046479177 0.73100001 4292593086
0.16999918 -0.046479177 0.73100001 4292461757
0.17174119 -0.046606343 0.73300004 4292462007
0.17301807 -0.046606343 0.73300004 4292856765
0.17429496 -0.046606343 0.73300004 4292724673
0.17829633 -0.046987843 0.73900002 4292065975
0.18006968 -0.047115009 0.74100006 4292065975
0.18136051 -0.047115009 0.74100006 4292133054
0.18344568 -0.046987843 0.73900002 4292461755
0.1839831 -0.046797093 0.73600006 4292264376
0.18451004 -0.046606343 0.73300004 4292198851
0.18528001 -0.046479177 0.73100001 4292198851
0.1865534 -0.046479177 0.73100001 4292395458
0.18782681 -0.046479177 0.73100001 4292856009
0.18910021 -0.046479177 0.73100001 4292593857
0.19167578 -0.046797093 0.73600006 4292330428
0.20028037 -0.047623672 0.74900001 4294897141
0.20158513 -0.047623672 0.74900001 4294568412
0.20288989 -0.047623672 0.74900001 4293976275
0.20419464 -0.047623672 0.74900001 4293909980
0.20604815 -0.047750838 0.75100005 4293975773
0.2076325 -0.047814421 0.75200003 4293055464
0.20894247 -0.047814421 0.75200003 4292068569
0.21025246 -0.047814421 0.75200003 4290554831
0.21156244 -0.047814421 0.75200003 4289633729
0.21287242 -0.047814421 0.75200003 4289106842
0.21418241 -0.047814421 0.75200003 4288054153
0.21549238 -0.047814421 0.75200003 4289238652
0.21680239 -0.047814421 0.75200003 4290159754
0.21869244 -0.047941584 0.75400001 4292001438
0.2200059 -0.047941584 0.75400001 4293514677
0.22190644 -0.048068754 0.75600004 4294173164
0.2232234 -0.048068754 0.75600004 4294633715
0.22454035 -0.048068754 0.75600004 4294239461
0.22585729 -0.048068754 0.75600004 4294305254
0.22717424 -0.048068754 0.75600004 4294173416
0.22849119 -0.048068754 0.75600004 4294305002
0.22980817 -0.048068754 0.75600004 4293844705
0.16108537 -0.045205776 0.73100001 4293580763
0.16235876 -0.045205776 0.73100001 4292725454
0.16452757 -0.045453139 0.73500001 4291934618
0.16535676 -0.045329459 0.73300004 4293250222
0.16663364 -0.045329459 0.73300004 4293120210
0.16791053 -0.045329459 0.73300004 4292396744
0.16872577 -0.045205776 0.73100001 4291999921
0.16999918 -0.045205776 0.73100001 4292328885
0.17174119 -0.045329459 0.73300004 4292263609
0.17301807 -0.045329459 0.73300004 4292987331
0.17429496 -0.045329459 0.73300004 4292725456
0.17605089 -0.045453139 0.73500001 4292133319
0.17934066 -0.045638662 0.73800004 4292132022
0.18062626 -0.045638662 0.73800004 4292329404
0.18215835 -0.045700502 0.73900002 4292526526
0.18319745 -0.045638662 0.73800004 4292133821
0.18501349 -0.045453139 0.73500001 4292265155
0.18578693 -0.045329459 0.73300004 4292199362
0.18706383 -0.045329459 0.73300004 4292460731
0.18885459 -0.045453139 0.73500001 4292921282
0.19039366 -0.045514982 0.73600006 4292659398
0.19167578 -0.045514982 0.73600006 4292330176
0.19295788 -0.045514982 0.73600006 4292329917
0.19974558 -0.046195231 0.74700004 4294305252
0.20158513 -0.046318911 0.74900001 4294042598
0.20288989 -0.046318911 0.74900001 4293647840
0.20419464 -0.046318911 0.74900001 4293450458
0.20604815 -0.046442598 0.75100005 4293055700
0.2076325 -0.046504438 0.75200003 4292529106
0.20894247 -0.046504438 0.75200003 4291147453
0.20997287 -0.046442598 0.75100005 4289964451
0.21128111 -0.046442598 0.75100005 4289043349
0.21258935 -0.046442598 0.75100005 4288579964
0.21418241 -0.046504438 0.75200003 4289106564
0.21549238 -0.046504438 0.75200003 4290354067
0.21680239 -0.046504438 0.75200003 4291275169
0.21869244 -0.046628118 0.75400001 4293379527
0.2200059 -0.046628118 0.75400001 4294960101
0.22190644 -0.046751801 0.75600004 4294766066
0.2232234 -0.046751801 0.75600004 4294371308
0.22454035 -0.046751801 0.75600004 4293976802
0.22585729 -0.046751801 0.75600004 4293911009
0.15959334 -0.043872274 0.73000002 4293251803
0.16086501 -0.043872274 0.73000002 4293252052
0.16213667 -0.043872274 0.73000002 4292791502
0.16407987 -0.044052571 0.73300004 4291935674
0.16535676 -0.044052571 0.73300004 4292922569
0.16663364 -0.044052571 0.73300004 4292989648
0.16791053 -0.044052571 0.73300004 4292331462
0.16918741 -0.044052571 0.73300004 4292329917
0.17046431 -0.044052571 0.73300004 4292592832
0.17174119 -0.044052571 0.73300004 4292527812
0.17301807 -0.044052571 0.73300004 4292856776
0.17429496 -0.044052571 0.73300004 4292790998
0.17557184 -0.044052571 0.73300004 4292133067
0.17684874 -0.044052571 0.73300004 4292067259
0.1781256 -0.044052571 0.73300004 4292330430
0.1794025 -0.044052571 0.73300004 4292330430
0.1806794 -0.044052571 0.73300004 4292330430
0.18195628 -0.044052571 0.73300004 4292330176
0.18323317 -0.044052571 0.73300004 4292396225
0.1840066 -0.043932371 0.73100001 4292396225
0.18528001 -0.043932371 0.73100001 4292330176
0.18706383 -0.044052571 0.73300004 4292329402
0.18834071 -0.044052571 0.73300004 4292789953
0.1896176 -0.044052571 0.73300004 4292593866
0.19141532 -0.044172768 0.73500001 4292330951
0.19295788 -0.044232871 0.73600006 4292461251
0.19974558 -0.044893958 0.74700004 4293644982
0.20158513 -0.045014154 0.74900001 4292791259
0.20288989 -0.045014154 0.74900001 4292396757
0.20419464 -0.045014154 0.74900001 4290817989
0.20604815 -0.045134354 0.75100005 4290094265
0.2076325 -0.045194451 0.75200003 4289567141
0.20894247 -0.045194451 0.75200003 4288580246
0.20997287 -0.045134354 0.75100005 4290225027
0.21128111 -0.045134354 0.75100005 4291146129
0.21258935 -0.045134354 0.75100005 4293053846
0.21418241 -0.045194451 0.75200003 4294435499
0.21549238 -0.045194451 0.75200003 4294436592
0.21680239 -0.045194451 0.75200003 4294567922
0.21869244 -0.045314651 0.75400001 4294436590
0.2200059 -0.045314651 0.75400001 4294567919
0.15577836 -0.042600613 0.73000002 4293384665
0.15705001 -0.042600613 0.73000002 4292924114
0.15832168 -0.042600613 0.73000002 4293581528
0.15959334 -0.042600613 0.73000002 4293581528
0.16086501 -0.042600613 0.73000002 4292791761
0.16213667 -0.042600613 0.73000002 4292528845
0.16407987 -0.042775687 0.73300004 4292198065
0.16535676 -0.042775687 0.73300004 4293119167
0.16663364 -0.042775687 0.73300004 4292857806
0.16791053 -0.042775687 0.73300004 4292265669
0.16918741 -0.042775687 0.73300004 4292461503
0.17046431 -0.042775687 0.73300004 4292658882
0.17174119 -0.042775687 0.73300004 4292528325
0.17254598 -0.04265897 0.73100001 4292725704
0.17381939 -0.04265897 0.73100001 4292725968
0.17509279 -0.04265897 0.73100001 4292265417
0.17612493 -0.042600613 0.73000002 4292133567
0.17739658 -0.042600613 0.73000002 4292265153
0.17866825 -0.042600613 0.73000002 4292462018
0.17993991 -0.042600613 0.73000002 4292396225
0.18121156 -0.042600613 0.73000002 4292395712
0.18273319 -0.04265897 0.73100001 4292724421
0.18375488 -0.042600613 0.73000002 4292790727
0.18502654 -0.042600613 0.73000002 4292462018
0.18706383 -0.042775687 0.73300004 4292197813
0.18834071 -0.042775687 0.73300004 4292724414
0.1896176 -0.042775687 0.73300004 4292593605
0.19141532 -0.0428924 0.73500001 4292593605
0.19295788 -0.042950757 0.73600006 4292528327
0.20104685 -0.043592684 0.74700004 4292264905
0.20288989 -0.043709397 0.74900001 4291409597
0.20419464 -0.043709397 0.74900001 4290555053
0.20604815 -0.043826111 0.75100005 4289633951
0.20735638 -0.043826111 0.75100005 4288909199
0.20866463 -0.043826111 0.75100005 4289632665
0.20997287 -0.043826111 0.75100005 4291012764
0.21128111 -0.043826111 0.75100005 4292130989
0.21258935 -0.043826111 0.75100005 4293972428
0.21389759 -0.043826111 0.75100005 4294961122
0.21549238 -0.043884467 0.75200003 4294503664
0.21680239 -0.043884467 0.75200003 4294174699
0.15069173 -0.041328952 0.73000002 4293118915
0.15196338 -0.041328952 0.73000002 4293053122
0.15323505 -0.041328952 0.73000002 4293052870
0.1545067 -0.041328952 0.73000002 4293184713
0.15577836 -0.041328952 0.73000002 4292791250
0.15661976 -0.041215725 0.72800004 4292199112
0.15788794 -0.041215725 0.72800004 4293514175
0.15915611 -0.041215725 0.72800004 4294040519
0.16042428 -0.041215725 0.72800004 4293184972
0.16452757 -0.041612029 0.73500001 4292395721
0.16535676 -0.041498803 0.73300004 4292987859
0.16663364 -0.041498803 0.73300004 4292988363
0.16791053 -0.041498803 0.73300004 4292396225
0.16918741 -0.041498803 0.73300004 4292330697
0.17046431 -0.041498803 0.73300004 4292791248
0.17174119 -0.041498803 0.73300004 4292856774
0.17254598 -0.041385569 0.73100001 4292790981
0.17381939 -0.041385569 0.73100001 4292529095
0.17509279 -0.041385569 0.73100001 4292331716
0.17612493 -0.041328952 0.73000002 4292133567
0.17739658 -0.041328952 0.73000002 4292199360
0.17866825 -0.041328952 0.73000002 4292395458
0.17993991 -0.041328952 0.73000002 4292658630
0.18121156 -0.041328952 0.73000002 4292658628
0.18273319 -0.041385569 0.73100001 4292856263
0.18375488 -0.041328952 0.73000002 4292856261
0.18502654 -0.041328952 0.73000002 4292724675
0.18706383 -0.041498803 0.73300004 4292592832
0.18834071 -0.041498803 0.73300004 4292658882
0.1896176 -0.041498803 0.73300004 4292724675
0.19167578 -0.041668646 0.73600006 4292724675
0.19295788 -0.041668646 0.73600006 4292593607
0.20604815 -0.042517871 0.75100005 4291408824
0.20735638 -0.042517871 0.75100005 4292922540
0.20866463 -0.042517871 0.75100005 4294435779
0.20997287 -0.042517871 0.75100005 4294305769
0.21128111 -0.042517871 0.75100005 4294437355
0.21258935 -0.042517871 0.75100005 4294371301
0.21389759 -0.042517871 0.75100005 4294371301
0.15027888 -0.039947547 0.72800004 4292723126
0.15154704 -0.039947547 0.72800004 4292788919
0.15323505 -0.040057294 0.73000002 4292722876
0.1545067 -0.040057294 0.73000002 4292854462
0.15535158 -0.039947547 0.72800004 4292659913
0.15661976 -0.039947547 0.72800004 4292199362
0.15767105 -0.039892677 0.72700006 4293315265
0.15850024 -0.03978293 0.72500002 4293775816
0.15976319 -0.03978293 0.72500002 4293381583
0.16102614 -0.03978293 0.72500002 4292986825
0.16535676 -0.040221911 0.73300004 4293119433
0.16663364 -0.040221911 0.73300004 4293053635
0.16791053 -0.040221911 0.73300004 4292395962
0.16964905 -0.040331658 0.73500001 4292199364
0.17092942 -0.040331658 0.73500001 4292791502
0.17174119 -0.040221911 0.73300004 4292726217
0.17254598 -0.040112168 0.73100001 4292660424
0.17381939 -0.040112168 0.73100001 4292265669
0.17485327 -0.040057294 0.73000002 4292002753
0.17612493 -0.040057294 0.73000002 4292067774
0.17739658 -0.040057294 0.73000002 4292133567
0.17866825 -0.040057294 0.73000002 4292329404
0.17993991 -0.040057294 0.73000002 4292724162
0.1814598 -0.040112168 0.73100001 4292658882
0.18273319 -0.040112168 0.73100001 4292790468
0.18451004 -0.040221911 0.73300004 4292659911
0.18578693 -0.040221911 0.73300004 4292594118
0.18757422 -0.040331658 0.73500001 4292724673
0.18834071 -0.040221911 0.73300004 4292790466
0.1896176 -0.040221911 0.73300004 4292724675
0.19141532 -0.040331658 0.73500001 4292724675
0.19295788 -0.040386535 0.73600006 4292396742
0.20735638 -0.041209627 0.75100005 4293513423
0.20866463 -0.041209627 0.75100005 4294829283
0.20997287 -0.041209627 0.75100005 4294437607
0.21128111 -0.041209627 0.75100005 4294305765
0.1490107 -0.038679373 0.72800004 4292592837
0.15007246 -0.038626242 0.72700006 4292657324
0.15133889 -0.038626242 0.72700006 4292854446
0.15218548 -0.038519979 0.72500002 4292330430
0.15344843 -0.038519979 0.72500002 4292067259
0.15513819 -0.038626242 0.72700006 4292133567
0.15640463 -0.038626242 0.72700006 4292133567
0.15767105 -0.038626242 0.72700006 4293052609
0.15850024 -0.038519979 0.72500002 4293513160
0.15954283 -0.038466848 0.72400004 4293381583
0.16080403 -0.038466848 0.72400004 4293052874
0.16206525 -0.038466848 0.72400004 4292461253
0.16535676 -0.038945027 0.73300004 4292921804
0.16663364 -0.038945027 0.73300004 4293052845
0.16791053 -0.038945027 0.73300004 4292592294
0.16918741 -0.038945027 0.73300004 4292395971
0.17092942 -0.039051287 0.73500001 4293054158
0.17174119 -0.038945027 0.73300004 4293054669
0.17254598 -0.038838763 0.73100001 4292659911
0.17381939 -0.038838763 0.73100001 4292396744
0.17485327 -0.038785636 0.73000002 4292199364
0.17612493 -0.038785636 0.73000002 4292199112
0.17739658 -0.038785636 0.73000002 4292527821
0.17866825 -0.038785636 0.73000002 4293053122
0.17993991 -0.038785636 0.73000002 4293184709
0.18121156 -0.038785636 0.73000002 4293053635
0.18273319 -0.038838763 0.73100001 4292922306
0.1840066 -0.038838763 0.73100001 4292791502
0.18528001 -0.038838763 0.73100001 4292593866
0.1865534 -0.038838763 0.73100001 4292527810
0.18756987 -0.038785636 0.73000002 4292593859
0.18884154 -0.038785636 0.73000002 4292461757
0.19037361 -0.038838763 0.73100001 4292395708
0.19217137 -0.038945027 0.73300004 4292593607
0.19397607 -0.039051287 0.73500001 4292922315
0.1955221 -0.039104421 0.73600006 4292790481
0.19680423 -0.039104421 0.73600006 4292790481
0.1490107 -0.037411198 0.72800004 4292132286
0.15007246 -0.037359808 0.72700006 4291015072
0.15133889 -0.037359808 0.72700006 4292199603
0.15218548 -0.037257027 0.72500002 4291938241
0.15344843 -0.037257027 0.72500002 4291674813
0.15471138 -0.037257027 0.72500002 4291937217
0.15597434 -0.037257027 0.72500002 4292003266
0.15723729 -0.037257027 0.72500002 4292461505
0.15828162 -0.03720564 0.72400004 4293184972
0.15954283 -0.03720564 0.72400004 4292988365
0.16035983 -0.037102863 0.72200006 4292593607
0.16161756 -0.037102863 0.72200006 4292198849
0.16663364 -0.037668142 0.73300004 4292461757
0.16791053 -0.037668142 0.73300004 4292461757
0.16918741 -0.037668142 0.73300004 4292592834
0.17092942 -0.03777092 0.73500001 4293053385
0.17174119 -0.037668142 0.73300004 4292792267
0.17254598 -0.037565362 0.73100001 4292660424
0.17381939 -0.037565362 0.73100001 4292594118
0.17485327 -0.037513971 0.73000002 4292199360
0.17612493 -0.037513971 0.73000002 4292329665
0.17739658 -0.037513971 0.73000002 4292856009
0.17866825 -0.037513971 0.73000002 4292922315
0.17870744 -0.037257027 0.72500002 4293054158
0.17997038 -0.037257027 0.72500002 4293250765
0.1840066 -0.037565362 0.73100001 4292790729
0.18502654 -0.037513971 0.73000002 4292527814
0.18629821 -0.037513971 0.73000002 4292067259
0.18756987 -0.037513971 0.73000002 4292133308
0.18884154 -0.037513971 0.73000002 4292264124
0.19037361 -0.037565362 0.73100001 4292395710
0.19217137 -0.037668142 0.73300004 4292658628
0.19397607 -0.03777092 0.73500001 4292922056
0.19525644 -0.03777092 0.73500001 4292593607
0.19653681 -0.03777092 0.73500001 4293054158
0.1972789 -0.037668142 0.73300004 4293449175
0.1985558 -0.037668142 0.73300004 4293712603
0.14839664 -0.035994079 0.72500002 4291278271
0.14965959 -0.035994079 0.72500002 4291539883
0.15092254 -0.035994079 0.72500002 4292790207
0.15197559 -0.035944432 0.72400004 4292397248
0.15323679 -0.035944432 0.72400004 4291804854
0.15471138 -0.035994079 0.72500002 4291870661
0.15597434 -0.035994079 0.72500002 4292199625
0.15702042 -0.035944432 0.72400004 4292330176
0.15828162 -0.035944432 0.72400004 4292396225
0.15954283 -0.035944432 0.72400004 4292329917
0.16035983 -0.035845138 0.72200006 4292198331
0.16161756 -0.035845138 0.72200006 4292133319
0.16287528 -0.035845138 0.72200006 4292725456
0.16745238 -0.036291961 0.73100001 4292988876
0.16918741 -0.036391255 0.73300004 4292659398
0.17046431 -0.036391255 0.73300004 4292659398
0.17174119 -0.036391255 0.73300004 4292594118
0.17254598 -0.036291961 0.73100001 4292725704
0.17381939 -0.036291961 0.73100001 4292790727
0.17485327 -0.036242314 0.73000002 4292790727
0.17612493 -0.036242314 0.73000002 4292790727
0.17739658 -0.036242314 0.73000002 4293383120
0.17866825 -0.036242314 0.73000002 4292987859
0.17870744 -0.035994079 0.72500002 4292659150
0.17997038 -0.035994079 0.72500002 4292593605
0.18123335 -0.035994079 0.72500002 4292527812
0.18375488 -0.036242314 0.73000002 4292527812
0.18502654 -0.036242314 0.73000002 4292396225
0.18629821 -0.036242314 0.73000002 4292396225
0.18756987 -0.036242314 0.73000002 4292527812
0.18884154 -0.036242314 0.73000002 4292527812
0.19037361 -0.036291961 0.73100001 4292922569
0.19269569 -0.036490548 0.73500001 4292922567
0.19424 -0.036540199 0.73600006 4293120203
0.19525644 -0.036490548 0.73500001 4293120203
0.19600202 -0.036391255 0.73300004 4293251532
0.1972789 -0.036391255 0.73300004 4293186257
0.1985558 -0.036391255 0.73300004 4293317844
0.19928743 -0.036291961 0.73100001 4293515220
0.12234155 -0.03415627 0.71300006 4286286730
0.12358359 -0.03415627 0.71300006 4286023558
0.12482565 -0.03415627 0.71300006 4285827201
0.1264213 -0.034252077 0.71500003 4285695359
0.12784539 -0.034299985 0.71600002 4285172612
0.13264896 -0.034252077 0.71500003 4284910204
0.13389449 -0.034252077 0.71500003 4284975997
0.13514003 -0.034252077 0.71500003 4285173894
0.13638555 -0.034252077 0.71500003 4284910978
0.1372461 -0.03415627 0.71300006 4284910208
0.13848814 -0.03415627 0.71300006 4284910208
0.1397302 -0.03415627 0.71300006 4285697661
0.14097224 -0.03415627 0.71300006 4285631612
0.14201482 -0.034108363 0.71200001 4286550138
0.14945316 -0.034683224 0.72400004 4291539870
0.15071437 -0.034683224 0.72400004 4292921523
0.15197559 -0.034683224 0.72400004 4292396996
0.15323679 -0.034683224 0.72400004 4291804602
0.154498 -0.034683224 0.72400004 4291607212
0.1557592 -0.034683224 0.72400004 4292199349
0.15702042 -0.034683224 0.72400004 4292199873
0.15828162 -0.034683224 0.72400004 4292002751
0.15954283 -0.034683224 0.72400004 4292002233
0.16080403 -0.034683224 0.72400004 4292002233
0.16206525 -0.034683224 0.72400004 4292001727
0.16355205 -0.034731127 0.72500002 4292725706
0.16549699 -0.034874842 0.72800004 4292792013
0.16676515 -0.034874842 0.72800004 4292726219
0.16849497 -0.034970652 0.73000002 4292594118
0.16999918 -0.03501856 0.73100001 4292594118
0.17174119 -0.03511437 0.73300004 4292462016
0.17254598 -0.03501856 0.73100001 4292856774
0.17381939 -0.03501856 0.73100001 4292922567
0.17485327 -0.034970652 0.73000002 4292988361
0.17612493 -0.034970652 0.73000002 4292988363
0.17618154 -0.034731127 0.72500002 4292856776
0.17719975 -0.034683224 0.72400004 4292659150
0.17846096 -0.034683224 0.72400004 4292527308
0.17997038 -0.034731127 0.72500002 4292396225
0.18123335 -0.034731127 0.72500002 4292133054
0.18325146 -0.034874842 0.72800004 4292198849
0.18451962 -0.034874842 0.72800004 4292527814
0.18629821 -0.034970652 0.73000002 4292528064
0.18756987 -0.034970652 0.73000002 4292593857
0.18884154 -0.034970652 0.73000002 4292593605
0.19141532 -0.035210177 0.73500001 4292856776
0.19269569 -0.035210177 0.73500001 4292725704
0.19344826 -0.03511437 0.73300004 4293054669
0.19472514 -0.03511437 0.73300004 4293186255
0.19600202 -0.03511437 0.73300004 4293186255
0.19674061 -0.03501856 0.73100001 4293186257
0.19801402 -0.03501856 0.73100001 4293449429
0.19901481 -0.034970652 0.73000002 4293778395
0.20028648 -0.034970652 0.73000002 4293581015
0.11645707 -0.033006549 0.71500003 4287664508
0.1177026 -0.033006549 0.71500003 4286484111
0.11894812 -0.033006549 0.71500003 4285957767
0.12019366 -0.033006549 0.71500003 4284975747
0.12143919 -0.033006549 0.71500003 4284844161
0.12234155 -0.032914221 0.71300006 4284975999
0.12358359 -0.032914221 0.71300006 4285173634
0.12482565 -0.032914221 0.71300006 4285303937
0.1264213 -0.033006549 0.71500003 4285238144
0.12784539 -0.033052713 0.71600002 4285107589
0.12909266 -0.033052713 0.71600002 4285107589
0.13140343 -0.033006549 0.71500003 4285502608
0.13227792 -0.032914221 0.71300006 4285765253
0.13351996 -0.032914221 0.71300006 4285831046
0.134762 -0.032914221 0.71300006 4285895817
0.13600406 -0.032914221 0.71300006 4285632646
0.1372461 -0.032914221 0.71300006 4285633163
0.13829391 -0.032868057 0.71200001 4285633163
0.13953421 -0.032868057 0.71200001 4285567620
0.14097224 -0.032914221 0.71300006 4285436035
0.14201482 -0.032868057 0.71200001 4285762951
0.14325511 -0.032868057 0.71200001 4286026122
0.14469838 -0.032914221 0.71300006 4286615179
0.15029804 -0.033329692 0.72200006 4290820496
0.15155576 -0.033329692 0.72200006 4291870129
0.15281349 -0.033329692 0.72200006 4291673007
0.154498 -0.033422016 0.72400004 4291540383
0.1557592 -0.033422016 0.72400004 4292330156
0.15702042 -0.033422016 0.72400004 4292265920
0.15828162 -0.033422016 0.72400004 4292200127
0.15954283 -0.033422016 0.72400004 4292462266
0.16080403 -0.033422016 0.72400004 4292528316
0.16206525 -0.033422016 0.72400004 4292462016
0.16355205 -0.033468179 0.72500002 4292462016
0.16526966 -0.033560503 0.72700006 4292659398
0.16676515 -0.033606671 0.72800004 4292790727
0.16803335 -0.033606671 0.72800004 4292659911
0.16976662 -0.033698995 0.73000002 4292659911
0.17127259 -0.033745155 0.73100001 4292659911
0.17301807 -0.033837482 0.73300004 4292791753
0.17381939 -0.033745155 0.73100001 4292791751
0.17509279 -0.033745155 0.73100001 4292857545
0.17612493 -0.033698995 0.73000002 4292528325
0.17719975 -0.033422016 0.72400004 4292527560
0.17846096 -0.033422016 0.72400004 4292461767
0.17972216 -0.033422016 0.72400004 4292462018
0.18123335 -0.033468179 0.72500002 4292396225
0.18325146 -0.033606671 0.72800004 4292330949
0.18451962 -0.033606671 0.72800004 4292396742
0.18706383 -0.033837482 0.73300004 4292461755
