# .PCD v0.7 - Point Cloud Data file format
VERSION 0.7
FIELDS x y z rgba
SIZE 4 4 4 4
TYPE F F F U
COUNT 1 1 1 1
WIDTH 1031
HEIGHT 1
VIEWPOINT 0 0 0 1 0 0 0
POINTS 1031
DATA ascii
-0.012689601 -0.18138663 0.85700005 4292460211
-0.011196706 -0.18138663 0.85700005 4292722626
-0.0097264582 -0.18180993 0.85900003 4292722626
-0.0082300799 -0.18180993 0.85900003 4292722624
-0.0067337016 -0.18180993 0.85900003 4292788417
-0.0052373232 -0.18180993 0.85900003 4292854462
-0.0037322354 -0.18138663 0.85700005 4293315013
-0.0022288891 -0.18054003 0.85300004 4293118915
-0.00074122107 -0.18011671 0.85100001 4293513673
0.00073947909 -0.17969342 0.84900004 4292724423
0.0022184374 -0.17969342 0.84900004 4292461251
0.0037061053 -0.18011671 0.85100001 4292722624
0.0051885475 -0.18011671 0.85100001 4293117382
0.0066866679 -0.18054003 0.85300004 4292921032
0.008172594 -0.18054003 0.85300004 4293052874
0.0096585201 -0.18054003 0.85300004 4292856522
0.011170576 -0.18096332 0.85500002 4293119951
0.012630372 -0.18054003 0.85300004 4293251799
0.0140832 -0.18011671 0.85100001 4292988626
0.015529061 -0.17969342 0.84900004 4292329663
0.017008018 -0.17969342 0.84900004 4292198077
0.018486977 -0.17969342 0.84900004 4292198079
0.019965934 -0.17969342 0.84900004 4293053387
0.021444893 -0.17969342 0.84900004 4292791252
0.022923851 -0.17969342 0.84900004 4291080377
0.02440281 -0.17969342 0.84900004 4290948525
0.025820799 -0.17927012 0.84700006 4291277747
0.027296273 -0.17927012 0.84700006 4290949822
0.028771745 -0.17927012 0.84700006 4290160306
0.030247221 -0.17927012 0.84700006 4289569704
0.03164779 -0.17884681 0.84500003 4290951357
0.033119779 -0.17884681 0.84500003 4290820047
0.040048581 -0.17694193 0.83600003 4286552716
0.041405603 -0.17651863 0.83400005 4286553750
0.042858429 -0.17651863 0.83400005 4286619543
0.053854808 -0.17927012 0.84700006 4284251258
0.055330284 -0.17927012 0.84700006 4283593585
0.056939889 -0.17969342 0.84900004 4283719511
0.058418844 -0.17969342 0.84900004 4282272065
0.060038906 -0.18011671 0.85100001 4281412401
0.061521351 -0.18011671 0.85100001 4278780682
-0.049877822 -0.18493162 0.88100004 4282591006
-0.048343118 -0.18493162 0.88100004 4283178530
-0.046808414 -0.18493162 0.88100004 4282783772
-0.045273714 -0.18493162 0.88100004 4283178280
-0.043639719 -0.1845118 0.87900007 4286665053
-0.042108502 -0.1845118 0.87900007 4286865766
-0.040577281 -0.1845118 0.87900007 4288642177
-0.039046064 -0.1845118 0.87900007 4289431679
-0.037514847 -0.1845118 0.87900007 4290221195
-0.035901751 -0.18409197 0.87700003 4290811799
-0.034374017 -0.18409197 0.87700003 4291469729
-0.032846287 -0.18409197 0.87700003 4291798433
-0.031139996 -0.18304241 0.87200004 4292521899
-0.029620973 -0.18304241 0.87200004 4292653499
-0.028101945 -0.18304241 0.87200004 4294035152
-0.026582923 -0.18304241 0.87200004 4293907164
-0.025063898 -0.18304241 0.87200004 4294960623
-0.023544874 -0.18304241 0.87200004 4294965233
-0.021975333 -0.1826226 0.87000006 4294967295
-0.020365724 -0.18178295 0.86600006 4294964479
-0.015711971 -0.18031357 0.85900003 4289897643
-0.014215593 -0.18031357 0.85900003 4290618801
-0.012719214 -0.18031357 0.85900003 4292658128
-0.011222836 -0.18031357 0.85900003 4292920773
-0.0097264582 -0.18031357 0.85900003 4293315531
-0.0082300799 -0.18031357 0.85900003 4293052361
-0.0067337016 -0.18031357 0.85900003 4292920519
-0.0052373232 -0.18031357 0.85900003 4292920771
-0.0037235252 -0.17947392 0.85500002 4293381322
-0.0022288891 -0.17905411 0.85300004 4293382087
-0.00074122107 -0.17863427 0.85100001 4293711309
0.00074122107 -0.17863427 0.85100001 4293250767
0.002223663 -0.17863427 0.85100001 4293184974
0.0037061053 -0.17863427 0.85100001 4293250506
0.0051885475 -0.17863427 0.85100001 4293381835
0.0066866679 -0.17905411 0.85300004 4293053385
0.008172594 -0.17905411 0.85300004 4292856263
0.0096585201 -0.17905411 0.85300004 4292790729
0.011144446 -0.17905411 0.85300004 4293119951
0.012600758 -0.17863427 0.85100001 4293251019
0.0140832 -0.17863427 0.85100001 4293645777
0.015529061 -0.17821446 0.84900004 4293184974
0.017008018 -0.17821446 0.84900004 4293119181
0.018486977 -0.17821446 0.84900004 4292790214
0.019965934 -0.17821446 0.84900004 4292592834
0.021444893 -0.17821446 0.84900004 4292199364
0.022923851 -0.17821446 0.84900004 4290817711
0.024345325 -0.17779464 0.84700006 4291015602
0.025820799 -0.17779464 0.84700006 4291936704
0.027231818 -0.17737481 0.84500003 4291674553
0.028703809 -0.17737481 0.84500003 4290292901
0.030104378 -0.176955 0.84300005 4289768349
0.031572882 -0.176955 0.84300005 4290360742
0.032923806 -0.17632525 0.84000003 4289179816
0.034387086 -0.17632525 0.84000003 4286745219
0.035765007 -0.17590544 0.83800006 4286026624
0.037135959 -0.17548563 0.83600003 4286289797
0.038592272 -0.17548563 0.83600003 4285831056
0.039952774 -0.1750658 0.83400005 4285633933
0.041405603 -0.1750658 0.83400005 4285765001
0.042755652 -0.17464598 0.83200002 4286159759
0.044204999 -0.17464598 0.83200002 4285240189
0.052379336 -0.17779464 0.84700006 4283793526
0.053981971 -0.17821446 0.84900004 4284646014
0.05546093 -0.17821446 0.84900004 4285106565
0.056939889 -0.17821446 0.84900004 4285170300
0.058418844 -0.17821446 0.84900004 4285104507
0.060038906 -0.17863427 0.85100001 4285035621
0.061376762 -0.17821446 0.84900004 4283127623
0.062855721 -0.17821446 0.84900004 4282074170
0.064334683 -0.17821446 0.84900004 4279771415
0.065813638 -0.17821446 0.84900004 4279439872
-0.043639719 -0.18298057 0.87900007 4281406208
-0.042108502 -0.18298057 0.87900007 4284365339
-0.040577281 -0.18298057 0.87900007 4286404922
-0.03895722 -0.18256423 0.87700003 4287983972
-0.037429489 -0.18256423 0.87700003 4289562747
-0.035901751 -0.18256423 0.87700003 4289892480
-0.034374017 -0.18256423 0.87700003 4290813582
-0.032771379 -0.18214791 0.87500006 4290747276
-0.031139996 -0.18152338 0.87200004 4291010447
-0.029620973 -0.18152338 0.87200004 4291863954
-0.028101945 -0.18152338 0.87200004 4292522140
-0.026582923 -0.18152338 0.87200004 4293444527
-0.025063898 -0.18152338 0.87200004 4293905078
-0.023544874 -0.18152338 0.87200004 4294694349
-0.021975333 -0.18110704 0.87000006 4294961890
-0.020459794 -0.18110704 0.87000006 4294964991
-0.018857153 -0.18027438 0.86600006 4293974758
-0.01734858 -0.18027438 0.86600006 4293120212
-0.015803427 -0.17985803 0.86400002 4292133317
-0.014298338 -0.17985803 0.86400002 4291737780
-0.012793249 -0.17985803 0.86400002 4292592832
-0.01128816 -0.17985803 0.86400002 4292789434
-0.0097604273 -0.17944169 0.86200005 4293052863
-0.0082588224 -0.17944169 0.86200005 4292921021
-0.0067337016 -0.1788172 0.85900003 4292921021
-0.0052373232 -0.1788172 0.85900003 4292920769
-0.0037235252 -0.17798451 0.85500002 4293447369
-0.0022288891 -0.17756817 0.85300004 4293381833
-0.00074296311 -0.17756817 0.85300004 4293579468
0.00074122107 -0.17715184 0.85100001 4293381837
0.002223663 -0.17715184 0.85100001 4293447630
0.0037061053 -0.17715184 0.85100001 4293381835
0.0051885475 -0.17715184 0.85100001 4293250506
0.0066866679 -0.17756817 0.85300004 4293053385
0.008172594 -0.17756817 0.85300004 4292790214
0.0096585201 -0.17756817 0.85300004 4292789184
0.011144446 -0.17756817 0.85300004 4292986564
0.012600758 -0.17715184 0.85100001 4293053124
0.0140832 -0.17715184 0.85100001 4293447882
0.015529061 -0.17673551 0.84900004 4293053387
0.017008018 -0.17673551 0.84900004 4293184974
0.018486977 -0.17673551 0.84900004 4292856776
0.019918902 -0.17631917 0.84700006 4292790727
0.021394376 -0.17631917 0.84700006 4291870661
0.02286985 -0.17631917 0.84700006 4291015352
0.024287837 -0.17590281 0.84500003 4291410101
0.025759827 -0.17590281 0.84500003 4292001981
0.027167365 -0.17548649 0.84300005 4291674563
0.028635871 -0.17548649 0.84300005 4290556338
0.030104378 -0.17548649 0.84300005 4289573025
0.031572882 -0.17548649 0.84300005 4288914839
0.032923806 -0.17486198 0.84000003 4286816156
0.034305211 -0.17444564 0.83800006 4285302661
0.035679646 -0.17402929 0.83600003 4284715139
0.037135959 -0.17402929 0.83600003 4285175690
0.038499948 -0.17361297 0.83400005 4285109134
0.039952774 -0.17361297 0.83400005 4285240720
0.041405603 -0.17361297 0.83400005 4285633679
0.042755652 -0.17319663 0.83200002 4285831058
0.044204999 -0.17319663 0.83200002 4284847491
0.045654338 -0.17319663 0.83200002 4283465838
0.052503016 -0.17673551 0.84900004 4283400063
0.053981971 -0.17673551 0.84900004 4283597441
0.05546093 -0.17673551 0.84900004 4283794821
0.057074022 -0.17715184 0.85100001 4284581504
0.058556467 -0.17715184 0.85100001 4284647297
0.059897806 -0.17673551 0.84900004 4285038208
0.061376762 -0.17673551 0.84900004 4284446071
0.062855721 -0.17673551 0.84900004 4283326563
0.064334683 -0.17673551 0.84900004 4281155394
0.065813638 -0.17673551 0.84900004 4279968035
-0.040577281 -0.18144935 0.87900007 4282458137
-0.03895722 -0.1810365 0.87700003 4283048192
-0.037344132 -0.18062365 0.87500006 4283311360
-0.035819881 -0.18062365 0.87500006 4284427339
-0.03429563 -0.18062365 0.87500006 4287782782
-0.032771379 -0.18062365 0.87500006 4288114034
-0.031139996 -0.18000437 0.87200004 4289100929
-0.029620973 -0.18000437 0.87200004 4290088560
-0.028101945 -0.18000437 0.87200004 4290878333
-0.026582923 -0.18000437 0.87200004 4291930503
-0.025006413 -0.17959152 0.87000006 4292983191
-0.023490872 -0.17959152 0.87000006 4293245879
-0.021975333 -0.17959152 0.87000006 4293903552
-0.020459794 -0.17959152 0.87000006 4293774020
-0.018857153 -0.1787658 0.86600006 4294036935
-0.01734858 -0.1787658 0.86600006 4293711055
-0.015840007 -0.1787658 0.86600006 4294302935
-0.014331435 -0.1787658 0.86600006 4293711316
-0.012822864 -0.1787658 0.86600006 4293448400
-0.011314292 -0.1787658 0.86600006 4293448130
-0.0097830733 -0.17835294 0.86400002 4293974474
-0.0082779853 -0.17835294 0.86400002 4293908420
-0.0067572189 -0.17794009 0.86200005 4293908420
-0.0052373232 -0.17732081 0.85900003 4293711570
-0.0037235252 -0.17649511 0.85500002 4293711570
-0.0022288891 -0.17608225 0.85300004 4293382353
-0.00074296311 -0.17608225 0.85300004 4293448402
0.00074296311 -0.17608225 0.85300004 4293645010
0.0022288891 -0.17608225 0.85300004 4293973974
0.0037148155 -0.17608225 0.85300004 4293579470
0.0052007413 -0.17608225 0.85300004 4293579470
0.0066709896 -0.17566939 0.85100001 4293382859
0.0081534311 -0.17566939 0.85100001 4293316810
0.0096358731 -0.17566939 0.85100001 4293185226
0.011092186 -0.17525655 0.84900004 4293251019
0.012571144 -0.17525655 0.84900004 4293316810
0.014050103 -0.17525655 0.84900004 4293645775
0.015529061 -0.17525655 0.84900004 4293382857
0.017008018 -0.17525655 0.84900004 4293119429
0.018443428 -0.1748437 0.84700006 4292988363
0.019918902 -0.1748437 0.84700006 4293251278
0.021394376 -0.1748437 0.84700006 4292529095
0.022815848 -0.17443083 0.84500003 4291278771
0.024287837 -0.17443083 0.84500003 4291606710
0.025698857 -0.17401798 0.84300005 4292396225
0.027167365 -0.17401798 0.84300005 4291674300
0.028533963 -0.17339869 0.84000003 4290687404
0.029997244 -0.17339869 0.84000003 4288522143
0.031460524 -0.17339869 0.84000003 4286482817
0.032923806 -0.17339869 0.84000003 4285042307
0.034223333 -0.17257299 0.83600003 4285042307
0.035594288 -0.17216013 0.83400005 4285043341
0.037047122 -0.17216013 0.83400005 4285109134
0.038499948 -0.17216013 0.83400005 4285109134
0.039952774 -0.17216013 0.83400005 4285438099
0.041306306 -0.17174728 0.83200002 4285437595
0.042755652 -0.17174728 0.83200002 4285174679
0.044204999 -0.17174728 0.83200002 4285109382
0.045544595 -0.17133443 0.83000004 4284977796
0.052626695 -0.17566939 0.85100001 4283203976
0.054109138 -0.17566939 0.85100001 4283531898
0.05559158 -0.17566939 0.85100001 4283531898
0.057074022 -0.17566939 0.85100001 4283990396
0.058556467 -0.17566939 0.85100001 4284516997
0.059897806 -0.17525655 0.84900004 4284975488
0.061376762 -0.17525655 0.84900004 4285304196
0.062855721 -0.17525655 0.84900004 4285761917
0.064334683 -0.17525655 0.84900004 4284840815
0.065813638 -0.17525655 0.84900004 4283458147
0.067451119 -0.17566939 0.85100001 4280234546
-0.032771379 -0.1790994 0.87500006 4286467899
-0.031139996 -0.17848535 0.87200004 4287981138
-0.029553035 -0.17807597 0.87000006 4288050528
-0.028037494 -0.17807597 0.87000006 4289497974
-0.026521955 -0.17807597 0.87000006 4289827689
-0.025006413 -0.17807597 0.87000006 4290946426
-0.023490872 -0.17807597 0.87000006 4292456082
-0.021924814 -0.1776666 0.86800003 4292916633
-0.020412758 -0.1776666 0.86800003 4292524470
-0.018857153 -0.17725722 0.86600006 4292392628
-0.01734858 -0.17725722 0.86600006 4293313467
-0.015876589 -0.1776666 0.86800003 4294629327
-0.014364533 -0.1776666 0.86800003 4293908951
-0.012852477 -0.1776666 0.86800003 4293382607
-0.011314292 -0.17725722 0.86600006 4293382339
-0.0098057194 -0.17725722 0.86600006 4294040269
-0.0082971472 -0.17725722 0.86600006 4293909453
-0.0067572189 -0.17643848 0.86200005 4293843660
-0.0052373232 -0.17582443 0.85900003 4293777363
-0.0037322354 -0.17541507 0.85700005 4293711570
-0.0022341153 -0.17500569 0.85500002 4293447882
-0.00074296311 -0.17459632 0.85300004 4293579468
0.00074296311 -0.17459632 0.85300004 4293579730
0.0022288891 -0.17459632 0.85300004 4293777365
0.0037148155 -0.17459632 0.85300004 4293382605
0.0052007413 -0.17459632 0.85300004 4293448398
0.0066709896 -0.17418694 0.85100001 4293579984
0.0081534311 -0.17418694 0.85100001 4293382605
0.0096358731 -0.17418694 0.85100001 4293447376
0.011092186 -0.1737776 0.84900004 4293513425
0.012571144 -0.1737776 0.84900004 4293316814
0.014050103 -0.1737776 0.84900004 4293382607
0.015529061 -0.1737776 0.84900004 4293252304
0.017008018 -0.1737776 0.84900004 4292857547
0.018443428 -0.17336822 0.84700006 4292856776
0.019918902 -0.17336822 0.84700006 4293054156
0.021343857 -0.17295885 0.84500003 4292792015
0.022815848 -0.17295885 0.84500003 4291410362
0.024230352 -0.17254947 0.84300005 4291803319
0.025698857 -0.17254947 0.84300005 4292329663
0.027070682 -0.17193542 0.84000003 4291609017
0.028533963 -0.17193542 0.84000003 4289635484
0.029997244 -0.17193542 0.84000003 4287734415
0.031385619 -0.17152604 0.83800006 4285892211
0.032845415 -0.17152604 0.83800006 4284846978
0.034141462 -0.1707073 0.83400005 4284846978
0.035508931 -0.17029794 0.83200002 4285173894
0.036958274 -0.17029794 0.83200002 4285305480
0.03840762 -0.17029794 0.83200002 4285109134
0.039856963 -0.17029794 0.83200002 4285109134
0.041306306 -0.17029794 0.83200002 4285240468
0.042755652 -0.17029794 0.83200002 4285108882
0.044098735 -0.16988856 0.83000004 4285567366
0.045544595 -0.16988856 0.83000004 4285896588
0.054109138 -0.17418694 0.85100001 4283400324
0.05559158 -0.17418694 0.85100001 4283400324
0.057074022 -0.17418694 0.85100001 4283334783
0.058556467 -0.17418694 0.85100001 4283795334
0.059897806 -0.1737776 0.84900004 4283992447
0.061376762 -0.1737776 0.84900004 4284124033
0.062855721 -0.1737776 0.84900004 4285106567
0.064334683 -0.1737776 0.84900004 4284975238
0.065813638 -0.1737776 0.84900004 4284513147
0.067451119 -0.17418694 0.85100001 4282210648
0.068933554 -0.17418694 0.85100001 4278595134
-0.028037494 -0.17656045 0.87000006 4282324488
-0.026521955 -0.17656045 0.87000006 4282779698
-0.024948927 -0.17615454 0.86800003 4287845758
-0.02343687 -0.17615454 0.86800003 4289627750
-0.021924814 -0.17615454 0.86800003 4292259213
-0.020412758 -0.17615454 0.86800003 4291602092
-0.018857153 -0.17574866 0.86600006 4290746783
-0.01734858 -0.17574866 0.86600006 4291010977
-0.015876589 -0.17615454 0.86800003 4292853181
-0.014364533 -0.17615454 0.86800003 4292460733
-0.012852477 -0.17615454 0.86800003 4292329404
-0.011314292 -0.17574866 0.86600006 4292789182
-0.0098057194 -0.17574866 0.86600006 4293776078
-0.0082971472 -0.17574866 0.86600006 4294301894
-0.0067572189 -0.17493689 0.86200005 4294367687
-0.0052556149 -0.17493689 0.86200005 4294105811
-0.0037409454 -0.17432804 0.85900003 4294368982
-0.0022393411 -0.17392218 0.85700005 4294368467
-0.00074470509 -0.17351629 0.85500002 4294500309
0.00074470509 -0.17351629 0.85500002 4294302935
0.0022341153 -0.17351629 0.85500002 4294171606
0.0037235252 -0.17351629 0.85500002 4293908433
0.0052129356 -0.17351629 0.85500002 4293908433
0.0066709896 -0.1727045 0.85100001 4293711316
0.0081534311 -0.1727045 0.85100001 4293777365
0.0096358731 -0.1727045 0.85100001 4293843168
0.011092186 -0.17229863 0.84900004 4293843168
0.012571144 -0.17229863 0.84900004 4293448912
0.014050103 -0.17229863 0.84900004 4293120203
0.015529061 -0.17229863 0.84900004 4293120716
0.017008018 -0.17229863 0.84900004 4292857545
0.018443428 -0.17189275 0.84700006 4292922821
0.019918902 -0.17189275 0.84700006 4292659650
0.021343857 -0.17148685 0.84500003 4292594109
0.022761846 -0.17108096 0.84300005 4292133558
0.024230352 -0.17108096 0.84300005 4292329915
0.025607403 -0.17047213 0.84000003 4292132535
0.027006229 -0.17006625 0.83800006 4291148972
0.028466027 -0.17006625 0.83800006 4289109390
0.029925821 -0.17006625 0.83800006 4287144074
0.031310711 -0.16966036 0.83600003 4285762421
0.032688633 -0.16925448 0.83400005 4285043843
0.034059588 -0.16884859 0.83200002 4284714878
0.035508931 -0.16884859 0.83200002 4285042305
0.036958274 -0.16884859 0.83200002 4285108098
0.038315292 -0.16844271 0.83000004 4285043593
0.039761152 -0.16844271 0.83000004 4285043593
0.041207016 -0.16844271 0.83000004 4285043341
0.042652875 -0.16844271 0.83000004 4284977548
0.043992475 -0.16803682 0.82800007 4285239687
0.045325104 -0.16763094 0.82600003 4285634445
0.046763994 -0.16763094 0.82600003 4284714889
0.052626695 -0.1727045 0.85100001 4283005832
0.054109138 -0.1727045 0.85100001 4283006856
0.05559158 -0.1727045 0.85100001 4283138185
0.057074022 -0.1727045 0.85100001 4283203713
0.058556467 -0.1727045 0.85100001 4283598471
0.059897806 -0.17229863 0.84900004 4283598460
0.061376762 -0.17229863 0.84900004 4283598460
0.062855721 -0.17229863 0.84900004 4284318587
0.064334683 -0.17229863 0.84900004 4284515709
0.065813638 -0.17229863 0.84900004 4285236857
0.067451119 -0.1727045 0.85100001 4285368699
0.068933554 -0.1727045 0.85100001 4283853952
-0.02338287 -0.1742401 0.86600006 4288314186
-0.021924814 -0.17464249 0.86800003 4289367131
-0.020412758 -0.17464249 0.86800003 4290417289
-0.018857153 -0.1742401 0.86600006 4290812047
-0.01734858 -0.1742401 0.86600006 4290420621
-0.015840007 -0.1742401 0.86600006 4291013014
-0.014331435 -0.1742401 0.86600006 4290947228
-0.012822864 -0.1742401 0.86600006 4292394675
-0.011314292 -0.1742401 0.86600006 4292723137
-0.0098057194 -0.1742401 0.86600006 4292986566
-0.0082971472 -0.1742401 0.86600006 4294035361
-0.0067572189 -0.17343529 0.86200005 4294561705
-0.0052373232 -0.17283167 0.85900003 4293972689
-0.0037409454 -0.17283167 0.85900003 4294170324
-0.0022445673 -0.17283167 0.85900003 4294433231
-0.00074644707 -0.17242928 0.85700005 4294433231
0.00074644707 -0.17242928 0.85700005 4294170837
0.0022341153 -0.17202687 0.85500002 4294170837
0.0037235252 -0.17202687 0.85500002 4294040019
0.0052129356 -0.17202687 0.85500002 4293974226
0.0066866679 -0.17162448 0.85300004 4293711568
0.0081534311 -0.17122208 0.85100001 4293777361
0.0096358731 -0.17122208 0.85100001 4293581015
0.011092186 -0.17081967 0.84900004 4293646808
0.012571144 -0.17081967 0.84900004 4293317844
0.014050103 -0.17081967 0.84900004 4293120464
0.015529061 -0.17081967 0.84900004 4293120462
0.017008018 -0.17081967 0.84900004 4292988876
0.018486977 -0.17081967 0.84900004 4292791753
0.019918902 -0.17041726 0.84700006 4292659911
0.021343857 -0.17001486 0.84500003 4292395712
0.022761846 -0.16961247 0.84300005 4292395712
0.024230352 -0.16961247 0.84300005 4292395971
0.025607403 -0.16900885 0.84000003 4292001214
0.027006229 -0.16860646 0.83800006 4290689201
0.028466027 -0.16860646 0.83800006 4287925895
0.029854398 -0.16820405 0.83600003 4286878854
0.031235807 -0.16780165 0.83400005 4286286717
0.032610245 -0.16739924 0.83200002 4285175431
0.034059588 -0.16739924 0.83200002 4285109382
0.035508931 -0.16739924 0.83200002 4284912004
0.036869433 -0.16699685 0.83000004 4284912004
0.038315292 -0.16699685 0.83000004 4284977548
0.039761152 -0.16699685 0.83000004 4284911498
0.041207016 -0.16699685 0.83000004 4284780682
0.042652875 -0.16699685 0.83000004 4284780682
0.043886211 -0.16619205 0.82600003 4284977544
0.045325104 -0.16619205 0.82600003 4285240972
0.046763994 -0.16619205 0.82600003 4285504144
0.048202887 -0.16619205 0.82600003 4285175179
0.052626695 -0.17122208 0.85100001 4283597187
0.054109138 -0.17122208 0.85100001 4282613124
0.05559158 -0.17122208 0.85100001 4282810504
0.057074022 -0.17122208 0.85100001 4283532167
0.058556467 -0.17122208 0.85100001 4283597960
0.059897806 -0.17081967 0.84900004 4283467134
0.061376762 -0.17081967 0.84900004 4283467134
0.062855721 -0.17081967 0.84900004 4283860094
0.064334683 -0.17081967 0.84900004 4283925887
0.065813638 -0.17081967 0.84900004 4284647038
0.067292593 -0.17081967 0.84900004 4285107589
0.068771549 -0.17081967 0.84900004 4284842634
0.070416003 -0.17122208 0.85100001 4283263346
-0.021823777 -0.17233258 0.86400002 4287987567
-0.020318691 -0.17233258 0.86400002 4288971130
-0.018813601 -0.17233258 0.86400002 4290944921
-0.017308513 -0.17233258 0.86400002 4291670186
-0.015840007 -0.17273152 0.86600006 4292064944
-0.014331435 -0.17273152 0.86600006 4291671208
-0.012822864 -0.17273152 0.86600006 4292921275
-0.011314292 -0.17273152 0.86600006 4292592834
-0.0097830733 -0.17233258 0.86400002 4290421666
-0.0082588224 -0.17193368 0.86200005 4291141782
-0.0067337016 -0.17133531 0.85900003 4293378744
-0.0052373232 -0.17133531 0.85900003 4293183688
-0.0037409454 -0.17133531 0.85900003 4292788930
-0.0022445673 -0.17133531 0.85900003 4293248441
-0.00074644707 -0.17093638 0.85700005 4294103494
0.00074644707 -0.17093638 0.85700005 4293907920
0.0022393411 -0.17093638 0.85700005 4293907920
0.0037322354 -0.17093638 0.85700005 4293908431
0.0052251299 -0.17093638 0.85700005 4294368982
0.0067023458 -0.17053746 0.85500002 4294434514
0.009613228 -0.1693407 0.84900004 4294106578
0.011092186 -0.1693407 0.84900004 4294106578
0.012571144 -0.1693407 0.84900004 4293712083
0.014050103 -0.1693407 0.84900004 4293251532
0.015565642 -0.16973962 0.85100001 4293120464
0.017048083 -0.16973962 0.85100001 4293120464
0.018486977 -0.1693407 0.84900004 4292988361
0.019918902 -0.1689418 0.84700006 4293054410
0.021343857 -0.16854288 0.84500003 4292461767
0.022761846 -0.16814396 0.84300005 4291869629
0.024230352 -0.16814396 0.84300005 4291672251
0.025546433 -0.16714665 0.83800006 4291540665
0.027006229 -0.16714665 0.83800006 4290754467
0.028398085 -0.16674773 0.83600003 4287859318
0.029782977 -0.16634883 0.83400005 4285434501
0.031160899 -0.1659499 0.83200002 4285697673
0.032610245 -0.1659499 0.83200002 4285241222
0.033977713 -0.16555099 0.83000004 4285241222
0.035423573 -0.16555099 0.83000004 4285175179
0.036869433 -0.16555099 0.83000004 4284977544
0.038315292 -0.16555099 0.83000004 4284649614
0.039761152 -0.16555099 0.83000004 4284583821
0.041107722 -0.16515207 0.82800007 4284780682
0.042550098 -0.16515207 0.82800007 4284780682
0.043886211 -0.16475315 0.82600003 4284977798
0.045325104 -0.16475315 0.82600003 4285043591
0.046650767 -0.16435423 0.82400006 4285633933
0.048086174 -0.16435423 0.82400006 4285831056
0.04952158 -0.16435423 0.82400006 4285305480
0.054109138 -0.16973962 0.85100001 4283729037
0.05559158 -0.16973962 0.85100001 4283005570
0.057074022 -0.16973962 0.85100001 4283138435
0.058556467 -0.16973962 0.85100001 4283401864
0.059897806 -0.1693407 0.84900004 4283269760
0.061376762 -0.1693407 0.84900004 4283335553
0.062855721 -0.1693407 0.84900004 4283532165
0.064334683 -0.1693407 0.84900004 4283597958
0.065813638 -0.1693407 0.84900004 4284319100
0.067292593 -0.1693407 0.84900004 4284450686
0.068771549 -0.1693407 0.84900004 4285105789
0.070250519 -0.1693407 0.84900004 4285368960
0.071898445 -0.16973962 0.85100001 4283590290
-0.02177326 -0.17043208 0.86200005 4288578921
-0.020318691 -0.17082751 0.86400002 4289103482
-0.018813601 -0.17082751 0.86400002 4292261290
-0.017308513 -0.17082751 0.86400002 4292459968
-0.015803427 -0.17082751 0.86400002 4292328382
-0.014298338 -0.17082751 0.86400002 4292064428
-0.012793249 -0.17082751 0.86400002 4293117373
-0.01128816 -0.17082751 0.86400002 4292462016
-0.0097830733 -0.17082751 0.86400002 4290225055
-0.0082588224 -0.17043208 0.86200005 4291010947
-0.0067337016 -0.16983892 0.85900003 4293511082
-0.0052251299 -0.16944349 0.85700005 4292856009
-0.0037322354 -0.16944349 0.85700005 4292263872
-0.0022445673 -0.16983892 0.85900003 4292198065
-0.00074818905 -0.16983892 0.85900003 4293645512
0.00074644707 -0.16944349 0.85700005 4293579466
0.0022393411 -0.16944349 0.85700005 4292987329
0.0037322354 -0.16944349 0.85700005 4293576888
0.0052373232 -0.16983892 0.85900003 4294695626
0.0067180237 -0.16944349 0.85700005 4294565332
0.011092186 -0.16786174 0.84900004 4294040533
0.012571144 -0.16786174 0.84900004 4293646806
0.014050103 -0.16786174 0.84900004 4293186255
0.015565642 -0.16825718 0.85100001 4293120716
0.017048083 -0.16825718 0.85100001 4293120716
0.018486977 -0.16786174 0.84900004 4292988615
0.019918902 -0.16746633 0.84700006 4293054408
0.021343857 -0.16707088 0.84500003 4292330951
0.022761846 -0.16667545 0.84300005 4291278262
0.024230352 -0.16667545 0.84300005 4291212467
0.025546433 -0.16568686 0.83800006 4291344053
0.027006229 -0.16568686 0.83800006 4289703337
0.028398085 -0.16529143 0.83600003 4287071874
0.029782977 -0.164896 0.83400005 4284776821
0.031160899 -0.16450055 0.83200002 4285106043
0.032610245 -0.16450055 0.83200002 4285502595
0.033977713 -0.16410512 0.83000004 4285568388
0.035423573 -0.16410512 0.83000004 4285109397
0.036869433 -0.16410512 0.83000004 4285043604
0.038222969 -0.1637097 0.82800007 4284649614
0.039665345 -0.1637097 0.82800007 4284518028
0.041107722 -0.1637097 0.82800007 4284714637
0.042447317 -0.16331427 0.82600003 4284714637
0.043886211 -0.16331427 0.82600003 4284714887
0.045215357 -0.16291884 0.82400006 4284846730
0.046650767 -0.16291884 0.82400006 4285305234
0.048086174 -0.16291884 0.82400006 4285305234
0.049401384 -0.16252339 0.82200003 4285829259
0.050833307 -0.16252339 0.82200003 4285960845
0.05546093 -0.16786174 0.84900004 4283334533
0.056939889 -0.16786174 0.84900004 4282875781
0.058418844 -0.16786174 0.84900004 4283007367
0.059897806 -0.16786174 0.84900004 4282941309
0.061376762 -0.16786174 0.84900004 4283007358
0.062855721 -0.16786174 0.84900004 4283335555
0.064334683 -0.16786174 0.84900004 4283532678
0.065813638 -0.16786174 0.84900004 4283598462
0.067292593 -0.16786174 0.84900004 4283795584
0.068771549 -0.16786174 0.84900004 4284712577
0.070250519 -0.16786174 0.84900004 4285041542
0.071898445 -0.16825718 0.85100001 4285301909
-0.02177326 -0.16893047 0.86200005 4290880922
-0.020318691 -0.16932242 0.86400002 4291209889
-0.018813601 -0.16932242 0.86400002 4292591286
-0.017308513 -0.16932242 0.86400002 4292788421
-0.015803427 -0.16932242 0.86400002 4292393664
-0.014298338 -0.16932242 0.86400002 4292065462
-0.012793249 -0.16932242 0.86400002 4292723391
-0.01128816 -0.16932242 0.86400002 4292396214
-0.0097604273 -0.16893047 0.86200005 4291343270
-0.0082300799 -0.16834255 0.85900003 4291802808
-0.0067337016 -0.16834255 0.85900003 4293842134
-0.0052251299 -0.1679506 0.85700005 4293184459
-0.0037322354 -0.1679506 0.85700005 4292723908
-0.0022445673 -0.16834255 0.85900003 4292986825
-0.00074818905 -0.16834255 0.85900003 4294302685
0.00074644707 -0.1679506 0.85700005 4293513412
0.0022393411 -0.1679506 0.85700005 4292328881
0.0037409454 -0.16834255 0.85900003 4293050542
0.0052556149 -0.16893047 0.86200005 4294235073
0.0067572189 -0.16893047 0.86200005 4294169543
0.012571144 -0.16638279 0.84900004 4293909203
0.014050103 -0.16638279 0.84900004 4293711568
0.015602225 -0.16716669 0.85300004 4293382857
0.017088151 -0.16716669 0.85300004 4293448650
0.018486977 -0.16638279 0.84900004 4292988613
0.019965934 -0.16638279 0.84900004 4292659648
0.021394376 -0.16599084 0.84700006 4292330949
0.022815848 -0.16559888 0.84500003 4291278260
0.024230352 -0.16520695 0.84300005 4291015602
0.025607403 -0.16461901 0.84000003 4290884016
0.027006229 -0.16422708 0.83800006 4289767847
0.028398085 -0.16383511 0.83600003 4287070590
0.029782977 -0.16344316 0.83400005 4284842362
0.031160899 -0.1630512 0.83200002 4284447604
0.032531854 -0.16265927 0.83000004 4284975999
0.033977713 -0.16265927 0.83000004 4285962894
0.035423573 -0.16265927 0.83000004 4285503642
0.036869433 -0.16265927 0.83000004 4285108884
0.038222969 -0.16226733 0.82800007 4284911502
0.039665345 -0.16226733 0.82800007 4284714124
0.041008424 -0.16187537 0.82600003 4284321419
0.042447317 -0.16187537 0.82600003 4284321419
0.043779951 -0.16148342 0.82400006 4284583303
0.045215357 -0.16148342 0.82400006 4284583303
0.046650767 -0.16148342 0.82400006 4284714637
0.047969457 -0.16109148 0.82200003 4284714637
0.049401384 -0.16109148 0.82200003 4285042057
0.050833307 -0.16109148 0.82200003 4285568401
0.052265231 -0.16109148 0.82200003 4284977798
0.05546093 -0.16638279 0.84900004 4284517247
0.056939889 -0.16638279 0.84900004 4283466635
0.058418844 -0.16638279 0.84900004 4283006084
0.059897806 -0.16638279 0.84900004 4282679166
0.061376762 -0.16638279 0.84900004 4282876801
0.062855721 -0.16638279 0.84900004 4283335555
0.064334683 -0.16638279 0.84900004 4283466885
0.065813638 -0.16638279 0.84900004 4283598212
0.067292593 -0.16638279 0.84900004 4283729541
0.068771549 -0.16638279 0.84900004 4284318848
0.070250519 -0.16638279 0.84900004 4284516483
0.071898445 -0.16677473 0.85100001 4285105793
-0.023274865 -0.16742887 0.86200005 4287655280
-0.02177326 -0.16742887 0.86200005 4291339688
-0.020318691 -0.16781734 0.86400002 4291341225
-0.018813601 -0.16781734 0.86400002 4292328120
-0.017308513 -0.16781734 0.86400002 4292394415
-0.015803427 -0.16781734 0.86400002 4292130987
-0.014298338 -0.16781734 0.86400002 4291803321
-0.012793249 -0.16781734 0.86400002 4292395458
-0.011262031 -0.16742887 0.86200005 4292330682
-0.0097264582 -0.16684616 0.85900003 4291606960
-0.0082300799 -0.16684616 0.85900003 4292065716
-0.0067337016 -0.16684616 0.85900003 4293183940
-0.0052373232 -0.16684616 0.85900003 4293183940
-0.0037409454 -0.16684616 0.85900003 4293052611
-0.0022445673 -0.16684616 0.85900003 4293315277
-0.00074818905 -0.16684616 0.85900003 4293381070
0.00074818905 -0.16684616 0.85900003 4293052609
0.0022445673 -0.16684616 0.85900003 4291868334
0.0037409454 -0.16684616 0.85900003 4292720035
0.0052556149 -0.16742887 0.86200005 4293706930
0.0067572189 -0.16742887 0.86200005 4293510584
0.0082588224 -0.16742887 0.86200005 4293576377
0.012630372 -0.16568077 0.85300004 4294040533
0.014116298 -0.16568077 0.85300004 4293777361
0.015602225 -0.16568077 0.85300004 4293383370
0.017088151 -0.16568077 0.85300004 4293449164
0.018530525 -0.16529229 0.85100001 4292922567
0.019965934 -0.16490383 0.84900004 4292790981
0.021394376 -0.16451538 0.84700006 4292528325
0.022815848 -0.1641269 0.84500003 4291738809
0.024230352 -0.16373844 0.84300005 4291211954
0.025698857 -0.16373844 0.84300005 4291014318
0.027006229 -0.16276728 0.83800006 4289702308
0.028398085 -0.1623788 0.83600003 4287399553
0.029782977 -0.16199034 0.83400005 4285367677
0.031160899 -0.16160187 0.83200002 4284315245
0.032531854 -0.16121341 0.83000004 4284054634
0.033977713 -0.16121341 0.83000004 4284975736
0.035423573 -0.16121341 0.83000004 4285829763
0.036869433 -0.16121341 0.83000004 4285763714
0.038222969 -0.16082494 0.82800007 4284977296
0.039569534 -0.16043648 0.82600003 4284714124
0.040909134 -0.16004801 0.82400006 4284452235
0.042344544 -0.16004801 0.82400006 4284518028
0.043779951 -0.16004801 0.82400006 4284321415
0.045215357 -0.16004801 0.82400006 4284387464
0.046537533 -0.15965953 0.82200003 4284649096
0.047969457 -0.15965953 0.82200003 4284583303
0.049401384 -0.15965953 0.82200003 4284451974
0.050833307 -0.15965953 0.82200003 4285043854
0.052265231 -0.15965953 0.82200003 4285568136
0.053827807 -0.16004801 0.82400006 4285568136
0.056939889 -0.16490383 0.84900004 4284057738
0.058418844 -0.16490383 0.84900004 4283400065
0.059897806 -0.16490383 0.84900004 4282875781
0.061376762 -0.16490383 0.84900004 4282941574
0.062855721 -0.16490383 0.84900004 4283335555
0.064334683 -0.16490383 0.84900004 4283466885
0.065813638 -0.16490383 0.84900004 4283466369
0.067292593 -0.16490383 0.84900004 4283532419
0.068771549 -0.16490383 0.84900004 4284253055
0.070416003 -0.16529229 0.85100001 4284384641
0.071898445 -0.16529229 0.85100001 4285105541
0.073380888 -0.16529229 0.85100001 4285566092
0.07486333 -0.16529229 0.85100001 4285826960
-0.023274865 -0.16592726 0.86200005 4287526555
-0.021823777 -0.16631223 0.86400002 4289105588
-0.020318691 -0.16631223 0.86400002 4290749586
-0.018813601 -0.16631223 0.86400002 4291736481
-0.017308513 -0.16631223 0.86400002 4291407489
-0.015803427 -0.16631223 0.86400002 4291407489
-0.014298338 -0.16631223 0.86400002 4291933374
-0.012793249 -0.16631223 0.86400002 4292591304
-0.011262031 -0.16592726 0.86200005 4292526780
-0.0097264582 -0.16534978 0.85900003 4293118917
-0.0082300799 -0.16534978 0.85900003 4292921282
-0.0067337016 -0.16534978 0.85900003 4292789953
-0.0052373232 -0.16534978 0.85900003 4293512129
-0.0037409454 -0.16534978 0.85900003 4294301388
-0.0022445673 -0.16534978 0.85900003 4293711568
-0.00075080211 -0.16592726 0.86200005 4291869364
0.00075080211 -0.16592726 0.86200005 4291934126
0.0022524062 -0.16592726 0.86200005 4292065712
0.0037540107 -0.16592726 0.86200005 4292000434
0.0052556149 -0.16592726 0.86200005 4292066227
0.0067572189 -0.16592726 0.86200005 4291409063
0.0082588224 -0.16592726 0.86200005 4291277477
0.0097604273 -0.16592726 0.86200005 4292065212
0.011222836 -0.16534978 0.85900003 4293249486
0.014149397 -0.16457982 0.85500002 4293052091
0.015638806 -0.16457982 0.85500002 4293184709
0.017088151 -0.16419485 0.85300004 4293513673
0.018530525 -0.16380985 0.85100001 4293054408
0.019965934 -0.16342488 0.84900004 4293120201
0.021394376 -0.16303989 0.84700006 4292791753
0.022815848 -0.16265492 0.84500003 4292199360
0.024230352 -0.16226994 0.84300005 4291476659
0.028466027 -0.16130748 0.83800006 4287925636
0.029782977 -0.16053751 0.83400005 4285957504
0.031160899 -0.16015252 0.83200002 4284049507
0.032531854 -0.15976755 0.83000004 4283396453
0.033977713 -0.15976755 0.83000004 4283922797
0.035423573 -0.15976755 0.83000004 4284580961
0.036869433 -0.15976755 0.83000004 4285962614
0.038222969 -0.15938258 0.82800007 4285765001
0.039569534 -0.15899758 0.82600003 4285106815
0.040909134 -0.15861261 0.82400006 4284583051
0.042344544 -0.15861261 0.82400006 4284583051
0.043779951 -0.15861261 0.82400006 4284189829
0.04510561 -0.15822761 0.82200003 4284255622
0.046537533 -0.15822761 0.82200003 4284451974
0.047969457 -0.15822761 0.82200003 4284451974
0.049401384 -0.15822761 0.82200003 4284321419
0.050833307 -0.15822761 0.82200003 4284715921
0.052265231 -0.15822761 0.82200003 4285109634
0.053827807 -0.15861261 0.82400006 4285241476
0.058418844 -0.16342488 0.84900004 4284188293
0.059897806 -0.16342488 0.84900004 4283466385
0.061376762 -0.16342488 0.84900004 4283071627
0.062855721 -0.16342488 0.84900004 4283007369
0.064334683 -0.16342488 0.84900004 4283138955
0.065813638 -0.16342488 0.84900004 4283400576
0.067292593 -0.16342488 0.84900004 4283532419
0.068771549 -0.16342488 0.84900004 4283991934
0.070250519 -0.16342488 0.84900004 4283991934
0.071898445 -0.16380985 0.85100001 4284581254
0.073380888 -0.16380985 0.85100001 4285568149
0.07486333 -0.16380985 0.85100001 4286288261
0.076345764 -0.16380985 0.85100001 4286683019
-0.023328865 -0.16480716 0.86400002 4287795844
-0.021823777 -0.16480716 0.86400002 4288190602
-0.020318691 -0.16480716 0.86400002 4289566609
-0.018813601 -0.16480716 0.86400002 4290487711
-0.017308513 -0.16480716 0.86400002 4290683529
-0.015803427 -0.16480716 0.86400002 4291736218
-0.014298338 -0.16480716 0.86400002 4292064442
-0.012793249 -0.16480716 0.86400002 4292722372
-0.011262031 -0.16442566 0.86200005 4292723389
-0.0097264582 -0.16385341 0.85900003 4293183940
-0.0082300799 -0.16385341 0.85900003 4292987331
-0.0067572189 -0.16442566 0.86200005 4292789953
-0.0052556149 -0.16442566 0.86200005 4293643465
-0.0037540107 -0.16442566 0.86200005 4294432981
-0.0022524062 -0.16442566 0.86200005 4293515222
-0.00075254409 -0.16480716 0.86400002 4291738811
0.00075254409 -0.16480716 0.86400002 4291803323
0.0022628582 -0.16518866 0.86600006 4292263874
0.0037714306 -0.16518866 0.86600006 4291805108
0.0052800025 -0.16518866 0.86600006 4290884006
0.0067728963 -0.16480716 0.86400002 4290162818
0.0082588224 -0.16442566 0.86200005 4290754955
0.0097604273 -0.16442566 0.86200005 4291671229
0.011222836 -0.16385341 0.85900003 4292197829
0.012689601 -0.16347192 0.85700005 4292918443
0.014182495 -0.16347192 0.85700005 4293444787
0.015638806 -0.16309041 0.85500002 4292856776
0.017128216 -0.16309041 0.85500002 4292593605
0.018530525 -0.16232741 0.85100001 4292855218
0.019965934 -0.16194592 0.84900004 4293315769
0.021394376 -0.16156442 0.84700006 4292857293
0.02286985 -0.16156442 0.84700006 4292199362
0.02440281 -0.16194592 0.84900004 4291411647
0.025820799 -0.16156442 0.84700006 4290556338
0.029854398 -0.15946618 0.83600003 4286482046
0.031235807 -0.15908469 0.83400005 4284245085
0.032610245 -0.15870318 0.83200002 4282870109
0.034059588 -0.15870318 0.83200002 4283067489
0.035423573 -0.15832168 0.83000004 4284054106
0.036869433 -0.15832168 0.83000004 4285501552
0.038222969 -0.15794019 0.82800007 4286026641
0.039569534 -0.15755869 0.82600003 4285434503
0.040909134 -0.15717719 0.82400006 4284583303
0.042344544 -0.15717719 0.82400006 4284583303
0.043779951 -0.15717719 0.82400006 4284255370
0.04510561 -0.1567957 0.82200003 4284321419
0.046537533 -0.1567957 0.82200003 4284255622
0.047969457 -0.1567957 0.82200003 4284255622
0.049401384 -0.1567957 0.82200003 4284255622
0.050833307 -0.1567957 0.82200003 4284650380
0.052265231 -0.1567957 0.82200003 4284913286
0.053827807 -0.15717719 0.82400006 4284913286
0.059756704 -0.16156442 0.84700006 4283991693
0.061232176 -0.16156442 0.84700006 4283202434
0.062855721 -0.16194592 0.84900004 4282744196
0.064334683 -0.16194592 0.84900004 4283073160
0.065813638 -0.16194592 0.84900004 4283532419
0.067292593 -0.16194592 0.84900004 4283598212
0.068771549 -0.16194592 0.84900004 4283860614
0.070250519 -0.16194592 0.84900004 4283860614
0.071729474 -0.16194592 0.84900004 4284384641
0.073208429 -0.16194592 0.84900004 4285239950
0.074687384 -0.16194592 0.84900004 4286091411
0.076166347 -0.16194592 0.84900004 4286946720
-0.023328865 -0.16330206 0.86400002 4289634162
-0.021874297 -0.16368008 0.86600006 4289173611
-0.020365724 -0.16368008 0.86600006 4289434771
-0.018857153 -0.16368008 0.86600006 4290553508
-0.01734858 -0.16368008 0.86600006 4291209387
-0.015803427 -0.16330206 0.86400002 4292262075
-0.014298338 -0.16330206 0.86400002 4292327870
-0.012793249 -0.16330206 0.86400002 4292656579
-0.011262031 -0.16292405 0.86200005 4292460220
-0.0097604273 -0.16292405 0.86200005 4292789184
-0.0082588224 -0.16292405 0.86200005 4292789184
-0.0067728963 -0.16330206 0.86400002 4292723391
-0.0052678087 -0.16330206 0.86400002 4293051841
-0.0037540107 -0.16292405 0.86200005 4293117634
-0.0022524062 -0.16292405 0.86200005 4293183425
-0.00075254409 -0.16330206 0.86400002 4293643976
0.00075254409 -0.16330206 0.86400002 4293579730
0.0022628582 -0.16368008 0.86600006 4293053385
0.0037714306 -0.16368008 0.86600006 4291607475
0.0052800025 -0.16368008 0.86600006 4290817959
0.0067728963 -0.16330206 0.86400002 4290687336
0.0082588224 -0.16292405 0.86200005 4292661126
0.0097604273 -0.16292405 0.86200005 4292922056
0.011222836 -0.16235702 0.85900003 4291737526
0.012689601 -0.16197902 0.85700005 4292129946
0.014182495 -0.16197902 0.85700005 4292787876
0.015638806 -0.16160099 0.85500002 4292263107
0.017128216 -0.16160099 0.85500002 4290749867
0.018574078 -0.16122299 0.85300004 4290880924
0.020060005 -0.16122299 0.85300004 4292459957
0.021444893 -0.16046695 0.84900004 4292199360
0.022923851 -0.16046695 0.84900004 4292199360
0.024460295 -0.16084497 0.85100001 4291870649
0.025881769 -0.16046695 0.84900004 4291080877
0.027296273 -0.16008894 0.84700006 4290489500
0.031310711 -0.15800986 0.83600003 4283981397
0.032610245 -0.15725385 0.83200002 4282540906
0.034059588 -0.15725385 0.83200002 4282606699
0.035423573 -0.15687583 0.83000004 4283264098
0.036869433 -0.15687583 0.83000004 4284711544
0.038222969 -0.15649782 0.82800007 4285893769
0.039569534 -0.15611979 0.82600003 4285827976
0.040909134 -0.1557418 0.82400006 4285041794
0.042344544 -0.1557418 0.82400006 4284976001
0.043779951 -0.1557418 0.82400006 4284649096
0.045215357 -0.1557418 0.82400006 4284385925
0.046650767 -0.1557418 0.82400006 4283992970
0.047969457 -0.15536377 0.82200003 4283926920
0.049401384 -0.15536377 0.82200003 4284058240
0.050833307 -0.15536377 0.82200003 4284124033
0.052265231 -0.15536377 0.82200003 4284649348
0.053697154 -0.15536377 0.82200003 4284912521
0.055263218 -0.1557418 0.82400006 4285436550
0.056698628 -0.1557418 0.82400006 4286094736
0.062707648 -0.16008894 0.84700006 4283138185
0.064334683 -0.16046695 0.84900004 4283203978
0.065813638 -0.16046695 0.84900004 4283400324
0.067292593 -0.16046695 0.84900004 4283597960
0.068609551 -0.16008894 0.84700006 4283925385
0.070085026 -0.16008894 0.84700006 4284188814
0.071729474 -0.16046695 0.84900004 4285042053
0.073208429 -0.16046695 0.84900004 4285831826
0.074511446 -0.16008894 0.84700006 4287012506
0.075986922 -0.16008894 0.84700006 4287012506
-0.021975333 -0.16292058 0.87000006 4289171585
-0.020412758 -0.16254604 0.86800003 4289171585
-0.018857153 -0.16217151 0.86600006 4291013789
-0.01734858 -0.16217151 0.86600006 4291603889
-0.015840007 -0.16217151 0.86600006 4292262075
-0.014298338 -0.16179697 0.86400002 4292197564
-0.012793249 -0.16179697 0.86400002 4292460735
-0.01128816 -0.16179697 0.86400002 4291867817
-0.0097830733 -0.16179697 0.86400002 4292723126
-0.0082779853 -0.16179697 0.86400002 4292526528
-0.0067728963 -0.16179697 0.86400002 4292592321
-0.0052678087 -0.16179697 0.86400002 4292592321
-0.0037627204 -0.16179697 0.86400002 4292723908
-0.0022576321 -0.16179697 0.86400002 4293116098
-0.00075254409 -0.16179697 0.86400002 4294234580
0.00075428607 -0.16217151 0.86600006 4294038486
0.0022680843 -0.16254604 0.86800003 4292854213
0.0037801403 -0.16254604 0.86800003 4290884508
0.0052800025 -0.16217151 0.86600006 4290752666
0.0067572189 -0.16142246 0.86200005 4291408272
0.0082588224 -0.16142246 0.86200005 4293973943
0.0097604273 -0.16142246 0.86200005 4293514970
0.011222836 -0.16086066 0.85900003 4291606973
0.012719214 -0.16086066 0.85900003 4291735186
0.014182495 -0.16048612 0.85700005 4292722081
0.015638806 -0.16011158 0.85500002 4292197564
0.017128216 -0.16011158 0.85500002 4290552738
0.018574078 -0.15973707 0.85300004 4289828984
0.020060005 -0.15973707 0.85300004 4291868823
0.021495411 -0.15936252 0.85100001 4291672757
0.022977853 -0.15936252 0.85100001 4291540915
0.024460295 -0.15936252 0.85100001 4291343020
0.025942737 -0.15936252 0.85100001 4291408813
0.027360726 -0.158988 0.84900004 4290817959
0.032688633 -0.15617903 0.83400005 4282802013
0.034059588 -0.1558045 0.83200002 4283065442
0.035423573 -0.15542997 0.83000004 4283262301
0.036869433 -0.15542997 0.83000004 4284315245
0.038222969 -0.15505545 0.82800007 4285105772
0.039569534 -0.15468091 0.82600003 4285303152
0.040909134 -0.15430638 0.82400006 4284975751
0.042344544 -0.15430638 0.82400006 4284975751
0.043779951 -0.15430638 0.82400006 4284451468
0.045215357 -0.15430638 0.82400006 4284319882
0.046537533 -0.15393186 0.82200003 4283992449
0.047969457 -0.15393186 0.82200003 4283663484
0.049401384 -0.15393186 0.82200003 4283532920
0.050833307 -0.15393186 0.82200003 4283993215
0.052265231 -0.15393186 0.82200003 4284320383
0.053697154 -0.15393186 0.82200003 4284386177
0.055263218 -0.15430638 0.82400006 4284715141
0.056698628 -0.15430638 0.82400006 4285373072
0.058134031 -0.15430638 0.82400006 4285242769
0.062707648 -0.15861347 0.84700006 4283532165
0.064183123 -0.15861347 0.84700006 4283466371
0.065658599 -0.15861347 0.84700006 4283531392
0.067134075 -0.15861347 0.84700006 4283663235
0.068609551 -0.15861347 0.84700006 4283859844
0.070085026 -0.15861347 0.84700006 4284518030
0.071560495 -0.15861347 0.84700006 4285109134
0.07303597 -0.15861347 0.84700006 4285832600
0.074511446 -0.15861347 0.84700006 4287340452
0.075986922 -0.15861347 0.84700006 4285893006
-0.021975333 -0.16140503 0.87000006 4287460969
-0.020459794 -0.16140503 0.87000006 4288642677
-0.018900702 -0.16103397 0.86800003 4291800741
-0.017388646 -0.16103397 0.86800003 4291932331
-0.015840007 -0.16066293 0.86600006 4291734695
-0.014331435 -0.16066293 0.86600006 4291997620
-0.012822864 -0.16066293 0.86600006 4292984515
-0.01128816 -0.16029188 0.86400002 4292788140
-0.0097830733 -0.16029188 0.86400002 4292985519
-0.0082779853 -0.16029188 0.86400002 4292723908
-0.0067728963 -0.16029188 0.86400002 4292526528
-0.0052678087 -0.16029188 0.86400002 4292920006
-0.0037627204 -0.16029188 0.86400002 4293972437
-0.0022576321 -0.16029188 0.86400002 4293117132
-0.00075254409 -0.16029188 0.86400002 4292722374
0.00075428607 -0.16066293 0.86600006 4292524729
0.0022680843 -0.16103397 0.86800003 4291998385
0.0037714306 -0.16066293 0.86600006 4291341988
0.0052678087 -0.16029188 0.86400002 4292921021
0.0067572189 -0.15992084 0.86200005 4293054156
0.0082588224 -0.15992084 0.86200005 4293777878
0.0097264582 -0.15936428 0.85900003 4293316812
0.011222836 -0.15936428 0.85900003 4292000952
0.012689601 -0.15899323 0.85700005 4292327589
0.014182495 -0.15899323 0.85700005 4292853933
0.015638806 -0.15862218 0.85500002 4292526265
0.017128216 -0.15862218 0.85500002 4291605163
0.018574078 -0.15825114 0.85300004 4291671460
0.020012969 -0.15788008 0.85100001 4292132011
0.021495411 -0.15788008 0.85100001 4290685619
0.022977853 -0.15788008 0.85100001 4289435552
0.024460295 -0.15788008 0.85100001 4289633158
0.025942737 -0.15788008 0.85100001 4290290831
0.027425177 -0.15788008 0.85100001 4290160013
0.028771745 -0.157138 0.84700006 4288252016
0.032688633 -0.15472621 0.83400005 4282737000
0.034059588 -0.15435515 0.83200002 4282605413
0.035423573 -0.15398411 0.83000004 4282934113
0.036869433 -0.15398411 0.83000004 4282605404
0.038222969 -0.15361306 0.82800007 4283789881
0.039569534 -0.15324201 0.82600003 4285434962
0.040909134 -0.15287097 0.82400006 4285500296
0.042344544 -0.15287097 0.82400006 4285500296
0.043779951 -0.15287097 0.82400006 4284910222
0.045215357 -0.15287097 0.82400006 4284647050
0.046537533 -0.15249991 0.82200003 4284123522
0.047969457 -0.15249991 0.82200003 4283597178
0.049401384 -0.15249991 0.82200003 4283597943
0.050833307 -0.15249991 0.82200003 4284190081
0.052265231 -0.15249991 0.82200003 4284189567
0.053697154 -0.15249991 0.82200003 4284123774
0.055263218 -0.15287097 0.82400006 4284583303
0.056698628 -0.15287097 0.82400006 4285307027
0.058134031 -0.15287097 0.82400006 4285438596
0.059569441 -0.15287097 0.82400006 4285570439
0.061004851 -0.15287097 0.82400006 4285372805
0.065658599 -0.157138 0.84700006 4283729037
0.067134075 -0.157138 0.84700006 4283926672
0.068609551 -0.157138 0.84700006 4284909702
0.070085026 -0.157138 0.84700006 4285370253
0.071560495 -0.157138 0.84700006 4286420615
0.07303597 -0.157138 0.84700006 4286289028
0.074511446 -0.157138 0.84700006 4285430891
0.075986922 -0.157138 0.84700006 4279509522
-0.021975333 -0.15988949 0.87000006 4287199076
-0.020459794 -0.15988949 0.87000006 4289233274
-0.018900702 -0.15952192 0.86800003 4291536028
-0.017388646 -0.15952192 0.86800003 4291207336
-0.015840007 -0.15915437 0.86600006 4290615199
-0.014331435 -0.15915437 0.86600006 4291208088
-0.012822864 -0.15915437 0.86600006 4292853170
-0.01128816 -0.15878679 0.86400002 4292854448
-0.0097830733 -0.15878679 0.86400002 4292920241
-0.0082779853 -0.15878679 0.86400002 4292592573
-0.0067728963 -0.15878679 0.86400002 4292526780
-0.0052800025 -0.15915437 0.86600006 4292788669
-0.0037714306 -0.15915437 0.86600006 4293315013
-0.0022628582 -0.15915437 0.86600006 4292920519
-0.00075428607 -0.15915437 0.86600006 4291670708
0.00075428607 -0.15915437 0.86600006 4291867819
0.0022680843 -0.15952192 0.86800003 4291802026
