# .PCD v0.7 - Point Cloud Data file format
VERSION 0.7
FIELDS x y z rgba
SIZE 4 4 4 4
TYPE F F F U
COUNT 1 1 1 1
WIDTH 1066
HEIGHT 1
VIEWPOINT 0 0 0 1 0 0 0
POINTS 1066
DATA ascii
-0.18889813 0.083289377 0.625 4290421418
-0.18810989 0.083422653 0.62600005 4289631902
-0.18701941 0.083422653 0.62600005 4285826699
-0.18592891 0.083422653 0.62600005 4282207827
-0.18483843 0.083422653 0.62600005 4278197797
-0.18374793 0.083422653 0.62600005 4280437329
-0.20797653 0.083298102 0.61700004 4288385194
-0.20690171 0.083298102 0.61700004 4285621888
-0.20649409 0.083568104 0.61900002 4284908189
-0.20541579 0.083568104 0.61900002 4285895084
-0.20433749 0.083568104 0.61900002 4286289840
-0.20325918 0.083568104 0.61900002 4286684598
-0.20218089 0.083568104 0.61900002 4286553539
-0.20175238 0.083838113 0.62100005 4285961402
-0.2006706 0.083838113 0.62100005 4285762992
-0.198946 0.083568104 0.61900002 4284973732
-0.19786771 0.083568104 0.61900002 4284772764
-0.19742525 0.083838113 0.62100005 4284378007
-0.19634347 0.083838113 0.62100005 4287856009
-0.1955761 0.083973117 0.62200004 4289698213
-0.19449259 0.083973117 0.62200004 4289828513
-0.19340906 0.083973117 0.62200004 4289828513
-0.19263473 0.084108122 0.62300003 4289501599
-0.19154947 0.084108122 0.62300003 4288646291
-0.1904642 0.084108122 0.62300003 4286672805
-0.18968292 0.084243126 0.62400001 4285949082
-0.18920039 0.084513143 0.62600005 4282923387
-0.18810989 0.084513143 0.62600005 4280686425
-0.18731815 0.084648147 0.62700003 4280625720
-0.18622592 0.084648147 0.62700003 4283717735
-0.18513368 0.084648147 0.62700003 4289238414
-0.20905136 0.084372908 0.61700004 4288580246
-0.20797653 0.084372908 0.61700004 4285825427
-0.20690171 0.084372908 0.61700004 4285364876
-0.2061605 0.084509656 0.61800003 4285042085
-0.20508394 0.084509656 0.61800003 4285831601
-0.20400739 0.084509656 0.61800003 4286225332
-0.20325918 0.084646404 0.61900002 4286225332
-0.20218089 0.084646404 0.61900002 4286224828
-0.2011026 0.084646404 0.61900002 4285632691
-0.20002429 0.084646404 0.61900002 4285370035
-0.198946 0.084646404 0.61900002 4284580519
-0.19786771 0.084646404 0.61900002 4283988895
-0.19742525 0.0849199 0.62100005 4282344070
-0.19634347 0.0849199 0.62100005 4284111727
-0.1955761 0.085056648 0.62200004 4285953931
-0.19449259 0.085056648 0.62200004 4287922065
-0.19372 0.085193388 0.62300003 4288119445
-0.19263473 0.085193388 0.62300003 4287662239
-0.19154947 0.085193388 0.62300003 4287267481
-0.19076991 0.085330136 0.62400001 4283656320
-0.18998688 0.085466884 0.625 4281156187
-0.18920039 0.085603632 0.62600005 4278656553
-0.18841039 0.08574038 0.62700003 4278193431
-0.21012618 0.085447721 0.61700004 4289568937
-0.20905136 0.085447721 0.61700004 4285884785
-0.20831361 0.085586213 0.61800003 4284907433
-0.20723705 0.085586213 0.61800003 4285762742
-0.2061605 0.085586213 0.61800003 4286092208
-0.20508394 0.085586213 0.61800003 4286289588
-0.20400739 0.085586213 0.61800003 4286223279
-0.20293082 0.085586213 0.61800003 4285499556
-0.20185427 0.085586213 0.61800003 4285106345
-0.20077771 0.085586213 0.61800003 4284382622
-0.20002429 0.085724704 0.61900002 4284448431
-0.198946 0.085724704 0.61900002 4284053673
-0.19786771 0.085724704 0.61900002 4283593887
-0.19742525 0.086001679 0.62100005 4282672785
-0.19665962 0.086140163 0.62200004 4282866042
-0.1955761 0.086140163 0.62200004 4282273648
-0.19480526 0.086278662 0.62300003 4282860381
-0.19372 0.086278662 0.62300003 4281939279
-0.19263473 0.086278662 0.62300003 4281349466
-0.19154947 0.086278662 0.62300003 4280954708
-0.19107564 0.08655563 0.625 4280891218
-0.19029088 0.086694121 0.62600005 4279180600
-0.18920039 0.086694121 0.62600005 4280948566
-0.18841039 0.086832613 0.62700003 4287922624
-0.21120098 0.086522534 0.61700004 4290225588
-0.21012618 0.086522534 0.61700004 4286221216
-0.20905136 0.086522534 0.61700004 4285168528
-0.20831361 0.086662762 0.61800003 4285040552
-0.20723705 0.086662762 0.61800003 4285830324
-0.2061605 0.086662762 0.61800003 4286880955
-0.20508394 0.086662762 0.61800003 4286486453
-0.20400739 0.086662762 0.61800003 4286354349
-0.20293082 0.086662762 0.61800003 4285499041
-0.20185427 0.086662762 0.61800003 4285368238
-0.20077771 0.086662762 0.61800003 4284644258
-0.19970116 0.086662762 0.61800003 4284710051
-0.198946 0.086802997 0.61900002 4284249500
-0.19786771 0.086802997 0.61900002 4283724177
-0.19742525 0.087083466 0.62100005 4283132039
-0.19634347 0.087083466 0.62100005 4282867838
-0.1955761 0.087223694 0.62200004 4281420392
-0.19480526 0.087363921 0.62300003 4281288291
-0.19372 0.087363921 0.62300003 4280696153
-0.19263473 0.087363921 0.62300003 4279972946
-0.19185692 0.087504156 0.62400001 4279117637
-0.19107564 0.087644383 0.625 4279445042
-0.19029088 0.087784618 0.62600005 4280695109
-0.18950263 0.087924846 0.62700003 4285943883
-0.21154328 0.087739326 0.61800003 4286081643
-0.21046673 0.087739326 0.61800003 4285563813
-0.20939016 0.087739326 0.61800003 4286155951
-0.20831361 0.087739326 0.61800003 4286025900
-0.20723705 0.087739326 0.61800003 4286223279
-0.2061605 0.087739326 0.61800003 4286223543
-0.20508394 0.087739326 0.61800003 4285565612
-0.20400739 0.087739326 0.61800003 4285368486
-0.20293082 0.087739326 0.61800003 4284513177
-0.20185427 0.087739326 0.61800003 4284250282
-0.20077771 0.087739326 0.61800003 4283723938
-0.19970116 0.087739326 0.61800003 4283395729
-0.1986246 0.087739326 0.61800003 4282803592
-0.19754805 0.087739326 0.61800003 4282802043
-0.19678941 0.087881297 0.61900002 4282144113
-0.19634347 0.088165246 0.62100005 4282143611
-0.1955761 0.088307217 0.62200004 4281946232
-0.19480526 0.088449188 0.62300003 4281880178
-0.19372 0.088449188 0.62300003 4280893283
-0.19294393 0.088591166 0.62400001 4280494161
-0.19185692 0.088591166 0.62400001 4281810021
-0.19107564 0.088733129 0.625 4286078576
-0.19059485 0.089017078 0.62700003 4291670981
-0.18950263 0.089017078 0.62700003 4294761898
-0.21261984 0.088815875 0.61800003 4286283148
-0.21154328 0.088815875 0.61800003 4285559425
-0.21046673 0.088815875 0.61800003 4284908968
-0.20939016 0.088815875 0.61800003 4285764277
-0.20831361 0.088815875 0.61800003 4286027699
-0.20723705 0.088815875 0.61800003 4285961905
-0.2061605 0.088815875 0.61800003 4285961402
-0.20508394 0.088815875 0.61800003 4285237935
-0.20400739 0.088815875 0.61800003 4285565358
-0.20293082 0.088815875 0.61800003 4284512927
-0.20185427 0.088815875 0.61800003 4284118682
-0.20077771 0.088815875 0.61800003 4283658131
-0.19970116 0.088815875 0.61800003 4283526284
-0.1986246 0.088815875 0.61800003 4282999940
-0.19754805 0.088815875 0.61800003 4282867836
-0.19678941 0.08895959 0.61900002 4281946734
-0.19571111 0.08895959 0.61900002 4282273641
-0.1955761 0.08939074 0.62200004 4282076006
-0.19449259 0.08939074 0.62200004 4280565587
-0.19372 0.089534454 0.62300003 4279446850
-0.19294393 0.089678168 0.62400001 4281280822
-0.19185692 0.089678168 0.62400001 4282859598
-0.19107564 0.089821883 0.625 4290347153
-0.19059485 0.090109311 0.62700003 4294954719
-0.18950263 0.090109311 0.62700003 4294960615
-0.21369639 0.08989244 0.61800003 4287001967
-0.21261984 0.08989244 0.61800003 4285629093
-0.21120098 0.089746982 0.61700004 4285958058
-0.21012618 0.089746982 0.61700004 4285566380
-0.20905136 0.089746982 0.61700004 4285763759
-0.20797653 0.089746982 0.61700004 4285762478
-0.20723705 0.08989244 0.61800003 4285104548
-0.2061605 0.08989244 0.61800003 4284776882
-0.20508394 0.08989244 0.61800003 4284316331
-0.20400739 0.08989244 0.61800003 4283921319
-0.20293082 0.08989244 0.61800003 4283394975
-0.20185427 0.08989244 0.61800003 4283065983
-0.20077771 0.08989244 0.61800003 4282342003
-0.19970116 0.08989244 0.61800003 4282472562
-0.1986246 0.08989244 0.61800003 4281880682
-0.19754805 0.08989244 0.61800003 4281683576
-0.19678941 0.09003789 0.61900002 4281289074
-0.19571111 0.09003789 0.61900002 4280631380
-0.19526167 0.090328813 0.62100005 4279183934
-0.19449259 0.09047427 0.62200004 4279899723
-0.19372 0.090619721 0.62300003 4285360286
-0.19325313 0.090910628 0.625 4290683783
-0.19216439 0.090910628 0.625 4293907384
-0.21369639 0.090968989 0.61800003 4286411906
-0.21261984 0.090968989 0.61800003 4284974245
-0.21120098 0.090821795 0.61700004 4285632176
-0.21012618 0.090821795 0.61700004 4286157486
-0.20905136 0.090821795 0.61700004 4285960107
-0.20797653 0.090821795 0.61700004 4285893546
-0.20723705 0.090968989 0.61800003 4285104287
-0.2061605 0.090968989 0.61800003 4284841894
-0.20508394 0.090968989 0.61800003 4283920792
-0.20400739 0.090968989 0.61800003 4283723156
-0.20293082 0.090968989 0.61800003 4283328398
-0.20185427 0.090968989 0.61800003 4283459203
-0.20077771 0.090968989 0.61800003 4282538101
-0.19970116 0.090968989 0.61800003 4282734453
-0.1986246 0.090968989 0.61800003 4282076267
-0.19786771 0.09111619 0.61900002 4281223781
-0.19678941 0.09111619 0.61900002 4280434008
-0.19571111 0.09111619 0.61900002 4278661685
-0.19526167 0.091410592 0.62100005 4278398514
-0.19449259 0.091557786 0.62200004 4283448121
-0.19372 0.091704987 0.62300003 4288448646
-0.21442541 0.091896608 0.61700004 4284710542
-0.21335061 0.091896608 0.61700004 4285302679
-0.21227579 0.091896608 0.61700004 4285696939
-0.21120098 0.091896608 0.61700004 4285630890
-0.21012618 0.091896608 0.61700004 4285302693
-0.20905136 0.091896608 0.61700004 4284907935
-0.20797653 0.091896608 0.61700004 4284644508
-0.20690171 0.091896608 0.61700004 4284315800
-0.20582691 0.091896608 0.61700004 4283921042
-0.20475209 0.091896608 0.61700004 4282868097
-0.20400739 0.092045553 0.61800003 4282472832
-0.20293082 0.092045553 0.61800003 4282275197
-0.20185427 0.092045553 0.61800003 4282013052
-0.20077771 0.092045553 0.61800003 4281684343
-0.20002429 0.09219449 0.61900002 4281289587
-0.198946 0.09219449 0.61900002 4280170850
-0.19850703 0.092492372 0.62100005 4280297802
-0.19742525 0.092492372 0.62100005 4280560718
-0.19634347 0.092492372 0.62100005 4284632683
-0.1955761 0.092641316 0.62200004 4290422211
-0.19449259 0.092641316 0.62200004 4293908127
-0.21550024 0.092971422 0.61700004 4284968572
-0.21442541 0.092971422 0.61700004 4284251036
-0.21335061 0.092971422 0.61700004 4285303724
-0.21227579 0.092971422 0.61700004 4285895084
-0.21120098 0.092971422 0.61700004 4285302947
-0.21012618 0.092971422 0.61700004 4285368236
-0.20905136 0.092971422 0.61700004 4284644256
-0.20797653 0.092971422 0.61700004 4284250775
-0.20690171 0.092971422 0.61700004 4283921553
-0.20582691 0.092971422 0.61700004 4283264139
-0.20475209 0.092971422 0.61700004 4282672001
-0.20400739 0.093122102 0.61800003 4282932096
-0.20293082 0.093122102 0.61800003 4282405752
-0.20185427 0.093122102 0.61800003 4281421674
-0.2011026 0.09327279 0.61900002 4280895329
-0.20002429 0.09327279 0.61900002 4279711823
-0.198946 0.09327279 0.61900002 4278527293
-0.19786771 0.09327279 0.61900002 4280098077
-0.19742525 0.093574151 0.62100005 4281479730
-0.19634347 0.093574151 0.62100005 4289426058
-0.19526167 0.093574151 0.62100005 4294360790
-0.21729712 0.093893819 0.61600006 4293315017
-0.21622403 0.093893819 0.61600006 4291806944
-0.21515097 0.093893819 0.61600006 4291083477
-0.2140779 0.093893819 0.61600006 4288657345
-0.21335061 0.094046235 0.61700004 4285564817
-0.21227579 0.094046235 0.61700004 4284647840
-0.21120098 0.094046235 0.61700004 4284187289
-0.21012618 0.094046235 0.61700004 4284119214
-0.20905136 0.094046235 0.61700004 4283329697
-0.20797653 0.094046235 0.61700004 4283263107
-0.20690171 0.094046235 0.61700004 4282407798
-0.20582691 0.094046235 0.61700004 4281815929
-0.20475209 0.094046235 0.61700004 4281421172
-0.20400739 0.094198667 0.61800003 4281617783
-0.20293082 0.094198667 0.61800003 4281157232
-0.20218089 0.094351083 0.61900002 4280432982
-0.2011026 0.094351083 0.61900002 4278985536
-0.20002429 0.094351083 0.61900002 4280622418
-0.198946 0.094351083 0.61900002 4285820065
-0.19786771 0.094351083 0.61900002 4291013235
-0.19742525 0.094655938 0.62100005 4293973920
-0.219087 0.094812714 0.61500001 4292852416
-0.21801567 0.094812714 0.61500001 4292984769
-0.21694434 0.094812714 0.61500001 4294432215
-0.215873 0.094812714 0.61500001 4293713394
-0.21515097 0.094966888 0.61600006 4293779443
-0.2140779 0.094966888 0.61600006 4290300646
-0.21300483 0.094966888 0.61600006 4286813617
-0.21227579 0.095121048 0.61700004 4283466651
-0.21085869 0.094966888 0.61600006 4282545549
-0.20978561 0.094966888 0.61600006 4283854997
-0.20905136 0.095121048 0.61700004 4283460239
-0.20797653 0.095121048 0.61700004 4283524746
-0.20690171 0.095121048 0.61700004 4282603644
-0.20582691 0.095121048 0.61700004 4282274413
-0.20508394 0.095275216 0.61800003 4281550947
-0.20400739 0.095275216 0.61800003 4281091941
-0.20293082 0.095275216 0.61800003 4280105045
-0.20218089 0.095429383 0.61900002 4280100165
-0.20175238 0.095737718 0.62100005 4281153109
-0.20002429 0.095429383 0.61900002 4285090904
-0.198946 0.095429383 0.61900002 4289498779
-0.19786771 0.095429383 0.61900002 4293376191
-0.22015832 0.09588404 0.61500001 4292720830
-0.21873076 0.095728137 0.61400002 4293904847
-0.21766119 0.095728137 0.61400002 4294432977
-0.2165916 0.095728137 0.61400002 4294893528
-0.21552201 0.095728137 0.61400002 4294501100
-0.21480168 0.09588404 0.61500001 4294303721
-0.21373035 0.09588404 0.61500001 4293057501
-0.21300483 0.096039958 0.61600006 4289636009
-0.21193175 0.096039958 0.61600006 4286748576
-0.21085869 0.096039958 0.61600006 4282735203
-0.20978561 0.096039958 0.61600006 4281357177
-0.20905136 0.096195869 0.61700004 4281225591
-0.20797653 0.096195869 0.61700004 4281683580
-0.20690171 0.096195869 0.61700004 4281157236
-0.20582691 0.096195869 0.61700004 4280827740
-0.20508394 0.096351773 0.61800003 4279972431
-0.20400739 0.096351773 0.61800003 4280363605
-0.20325918 0.096507676 0.61900002 4281876844
-0.20283414 0.096819505 0.62100005 4286471535
-0.20175238 0.096819505 0.62100005 4291208631
-0.2006706 0.096819505 0.62100005 4294037680
-0.19958881 0.096819505 0.62100005 4294892989
-0.19850703 0.096819505 0.62100005 4294498531
-0.22122967 0.096955374 0.61500001 4292851897
-0.22015832 0.096955374 0.61500001 4293247687
-0.21873076 0.09679772 0.61400002 4294300375
-0.21766119 0.09679772 0.61400002 4294564830
-0.2165916 0.09679772 0.61400002 4294696416
-0.21552201 0.09679772 0.61400002 4294762734
-0.21445242 0.09679772 0.61400002 4294367976
-0.21373035 0.096955374 0.61500001 4293384417
-0.21265902 0.096955374 0.61500001 4290555062
-0.21193175 0.097113028 0.61600006 4288453549
-0.21085869 0.097113028 0.61600006 4284111468
-0.20978561 0.097113028 0.61600006 4281421674
-0.20871253 0.097113028 0.61600006 4280368985
-0.20797653 0.097270682 0.61700004 4281219165
-0.20690171 0.097270682 0.61700004 4280955994
-0.20582691 0.097270682 0.61700004 4279708211
-0.20508394 0.097428329 0.61800003 4279905591
-0.20400739 0.097428329 0.61800003 4282529872
-0.20325918 0.097585976 0.61900002 4283121752
-0.20283414 0.097901285 0.62100005 4289489775
-0.20175238 0.097901285 0.62100005 4293700527
-0.2006706 0.097901285 0.62100005 4294759131
-0.22122967 0.0980267 0.61500001 4294168778
-0.21980035 0.097867317 0.61400002 4294301659
-0.21873076 0.097867317 0.61400002 4294432988
-0.21766119 0.097867317 0.61400002 4294302174
-0.2165916 0.097867317 0.61400002 4293973209
-0.21552201 0.097867317 0.61400002 4293907414
-0.21445242 0.097867317 0.61400002 4292788933
-0.21373035 0.0980267 0.61500001 4292723891
-0.21265902 0.0980267 0.61500001 4291145116
-0.21193175 0.098186105 0.61600006 4289044140
-0.21085869 0.098186105 0.61600006 4285031023
-0.20978561 0.098186105 0.61600006 4281421437
-0.20871253 0.098186105 0.61600006 4278526545
-0.20797653 0.098345496 0.61700004 4279638862
-0.20690171 0.098345496 0.61700004 4280823392
-0.20582691 0.098345496 0.61700004 4285091417
-0.20508394 0.098504886 0.61800003 4289039254
-0.20400739 0.098504886 0.61800003 4291341725
-0.20325918 0.098664276 0.61900002 4291210139
-0.20283414 0.098983072 0.62100005 4291273372
-0.20207725 0.099142455 0.62200004 4291667874
-0.22193953 0.0989369 0.61400002 4293577422
-0.22086994 0.0989369 0.61400002 4294695646
-0.21980035 0.0989369 0.61400002 4294500068
-0.21873076 0.0989369 0.61400002 4294302433
-0.21766119 0.0989369 0.61400002 4294237664
-0.2165916 0.0989369 0.61400002 4293645527
-0.21552201 0.0989369 0.61400002 4293184722
-0.21445242 0.0989369 0.61400002 4292263620
-0.21373035 0.099098034 0.61500001 4291933626
-0.21265902 0.099098034 0.61500001 4291144110
-0.21193175 0.099259175 0.61600006 4289503148
-0.21085869 0.099259175 0.61600006 4285884533
-0.20978561 0.099259175 0.61600006 4282666830
-0.20871253 0.099259175 0.61600006 4278916629
-0.20797653 0.099420302 0.61700004 4280816417
-0.20690171 0.099420302 0.61700004 4282724414
-0.20582691 0.099420302 0.61700004 4289621878
-0.20508394 0.099581435 0.61800003 4292780199
-0.20400739 0.099581435 0.61800003 4293574101
-0.20325918 0.099742576 0.61900002 4292982221
-0.20218089 0.099742576 0.61900002 4291405222
-0.20002429 0.099742576 0.61900002 4292520101
-0.198946 0.099742576 0.61900002 4294691269
-0.22264592 0.099843614 0.61300004 4294235084
-0.22157808 0.099843614 0.61300004 4294499805
-0.22086994 0.10000648 0.61400002 4294499805
-0.21980035 0.10000648 0.61400002 4294368732
-0.21837454 0.099843614 0.61300004 4293645010
-0.21730669 0.099843614 0.61300004 4293447630
-0.2165916 0.10000648 0.61400002 4292197564
-0.21552201 0.10000648 0.61400002 4291999671
-0.21445242 0.10000648 0.61400002 4290618018
-0.21373035 0.10016937 0.61500001 4290484896
-0.21265902 0.10016937 0.61500001 4288971658
-0.21193175 0.10033225 0.61600006 4288513921
-0.21085869 0.10033225 0.61600006 4285948250
-0.21012618 0.10049512 0.61700004 4286410035
-0.20905136 0.10049512 0.61700004 4287462723
-0.20797653 0.10049512 0.61700004 4291605622
-0.20690171 0.10049512 0.61700004 4293645204
-0.20582691 0.10049512 0.61700004 4293774294
-0.20508394 0.100658 0.61800003 4293774294
-0.20400739 0.100658 0.61800003 4293642191
-0.20325918 0.10082088 0.61900002 4292260538
-0.20218089 0.10082088 0.61900002 4291075246
-0.20175238 0.10114663 0.62100005 4289957022
-0.20002429 0.10082088 0.61900002 4290942372
-0.198946 0.10082088 0.61900002 4293442249
-0.22368152 0.1004176 0.61000001 4292854215
-0.22261891 0.1004176 0.61000001 4293576916
-0.22155629 0.1004176 0.61000001 4294498018
-0.22121662 0.10074684 0.61200005 4294631655
-0.22015052 0.10074684 0.61200005 4294302433
-0.21944237 0.10091146 0.61300004 4293973722
-0.21837454 0.10091146 0.61300004 4293578964
-0.21730669 0.10091146 0.61300004 4292921554
-0.21623884 0.10091146 0.61300004 4292000452
-0.21552201 0.10107607 0.61400002 4291407800
-0.21445242 0.10107607 0.61400002 4290223269
-0.21338283 0.10107607 0.61400002 4289434008
-0.21265902 0.10124069 0.61500001 4287591804
-0.2115877 0.10124069 0.61500001 4287590518
-0.21085869 0.10140532 0.61600006 4287196016
-0.21012618 0.10156994 0.61700004 4288114025
-0.20905136 0.10156994 0.61700004 4291271833
-0.20797653 0.10156994 0.61700004 4293639360
-0.20690171 0.10156994 0.61700004 4294889684
-0.20582691 0.10156994 0.61700004 4294038486
-0.20508394 0.10173455 0.61800003 4293643728
-0.20400739 0.10173455 0.61800003 4293314775
-0.20325918 0.10189917 0.61900002 4292327880
-0.2011026 0.10189917 0.61900002 4289366677
-0.20002429 0.10189917 0.61900002 4290745477
-0.22474414 0.10148022 0.61000001 4293314766
-0.22368152 0.10148022 0.61000001 4294038232
-0.22261891 0.10148022 0.61000001 4294104809
-0.22155629 0.10148022 0.61000001 4294301931
-0.22085513 0.10164658 0.611 4294236381
-0.22015052 0.10181294 0.61200005 4293183436
-0.21944237 0.10197931 0.61300004 4292853961
-0.21837454 0.10197931 0.61300004 4291669686
-0.21730669 0.10197931 0.61300004 4291339971
-0.21623884 0.10197931 0.61300004 4289958318
-0.21517099 0.10197931 0.61300004 4289103008
-0.21410315 0.10197931 0.61300004 4288247699
-0.21338283 0.10214566 0.61400002 4287721616
-0.21231323 0.10214566 0.61400002 4286668928
-0.2115877 0.10231203 0.61500001 4288641393
-0.21085869 0.10247839 0.61600006 4291273370
-0.21012618 0.10264475 0.61700004 4293312946
-0.20905136 0.10264475 0.61700004 4293905340
-0.20797653 0.10264475 0.61700004 4293773518
-0.20690171 0.10264475 0.61700004 4293576138
-0.2061605 0.10281111 0.61800003 4293379523
-0.20508394 0.10281111 0.61800003 4293511365
-0.20400739 0.10281111 0.61800003 4293445582
-0.20077771 0.10281111 0.61800003 4289300382
-0.19970116 0.10281111 0.61800003 4290418075
-0.22474414 0.10254284 0.61000001 4293775314
-0.22368152 0.10254284 0.61000001 4294104279
-0.22261891 0.10254284 0.61000001 4294433512
-0.22155629 0.10254284 0.61000001 4294170084
-0.22085513 0.10271094 0.611 4293907164
-0.21979077 0.10271094 0.611 4293051855
-0.2190844 0.10287905 0.61200005 4292461001
-0.21801829 0.10287905 0.61200005 4291079348
-0.21695219 0.10287905 0.61200005 4291142829
-0.21623884 0.10304715 0.61300004 4289234831
-0.21517099 0.10304715 0.61300004 4289036935
-0.21410315 0.10304715 0.61300004 4287984247
-0.21338283 0.10321525 0.61400002 4286997616
-0.21231323 0.10321525 0.61400002 4287063665
-0.21124366 0.10321525 0.61400002 4290479500
-0.21085869 0.10355146 0.61600006 4293506235
-0.21012618 0.10371956 0.61700004 4293706700
-0.20905136 0.10371956 0.61700004 4293772750
-0.20797653 0.10371956 0.61700004 4293510343
-0.20723705 0.10388766 0.61800003 4293247172
-0.2061605 0.10388766 0.61800003 4293445572
-0.20508394 0.10388766 0.61800003 4293642695
-0.20400739 0.10388766 0.61800003 4293577683
-0.20077771 0.10388766 0.61800003 4288972425
-0.2254366 0.10343561 0.60900003 4294497738
-0.22437574 0.10343561 0.60900003 4294170322
-0.22368152 0.10360546 0.61000001 4294170322
-0.22261891 0.10360546 0.61000001 4294037982
-0.22155629 0.10360546 0.61000001 4293051087
-0.22049367 0.10360546 0.61000001 4292590538
-0.21943106 0.10360546 0.61000001 4291340471
-0.21872641 0.1037753 0.611 4290945462
-0.21766205 0.1037753 0.611 4289892773
-0.21659768 0.1037753 0.611 4288709517
-0.21623884 0.10411499 0.61300004 4287656829
-0.21517099 0.10411499 0.61300004 4287721857
-0.21410315 0.10411499 0.61300004 4287787650
-0.21338283 0.10428484 0.61400002 4289956992
-0.21231323 0.10428484 0.61400002 4292654505
-0.21124366 0.10428484 0.61400002 4293048775
-0.21085869 0.10462453 0.61600006 4293311947
-0.21012618 0.10479438 0.61700004 4293114554
-0.2254366 0.10449649 0.60900003 4294432990
-0.22437574 0.10449649 0.60900003 4294696416
-0.22331484 0.10449649 0.60900003 4294235865
-0.22261891 0.10466808 0.61000001 4293643991
-0.22155629 0.10466808 0.61000001 4292591304
-0.22049367 0.10466808 0.61000001 4291934405
-0.21943106 0.10466808 0.61000001 4290750131
-0.21872641 0.10483966 0.611 4290682537
-0.21766205 0.10483966 0.611 4289432726
-0.21659768 0.10483966 0.611 4288185462
-0.21588609 0.10501126 0.61200005 4286803809
-0.21481998 0.10501126 0.61200005 4287260524
-0.21375388 0.10501126 0.61200005 4289036935
-0.22500981 0.10486405 0.60500002 4294105059
-0.2254366 0.10555737 0.60900003 4293644508
-0.22437574 0.10555737 0.60900003 4293511638
-0.22331484 0.10555737 0.60900003 4292590536
-0.22225396 0.10555737 0.60900003 4292129470
-0.22155629 0.1057307 0.61000001 4291010988
-0.22049367 0.1057307 0.61000001 4290288563
-0.21979077 0.10590402 0.611 4289235874
-0.21872641 0.10590402 0.611 4287985810
-0.21766205 0.10590402 0.611 4286604157
-0.21659768 0.10590402 0.611 4287720039
-0.21588609 0.10607737 0.61200005 4289233535
-0.21446896 0.10590402 0.611 4291207575
-0.22711763 0.10591797 0.60500002 4294105313
-0.22606373 0.10591797 0.60500002 4294039520
-0.22500981 0.10591797 0.60500002 4294040033
-0.22469626 0.10626812 0.60700005 4293250517
-0.22363886 0.10626812 0.60700005 4292986316
-0.22331484 0.10661825 0.60900003 4292065214
-0.22225396 0.10661825 0.60900003 4291604409
-0.22155629 0.10679331 0.61000001 4290288805
-0.22049367 0.10679331 0.61000001 4289632156
-0.21979077 0.10696839 0.611 4287987075
-0.21872641 0.10696839 0.611 4287591533
-0.21766205 0.10696839 0.611 4286999653
-0.21659768 0.10696839 0.611 4288179298
-0.22779439 0.10679507 0.60400003 4294039517
-0.22674222 0.10679507 0.60400003 4293842908
-0.22569008 0.10679507 0.60400003 4293316308
-0.2246379 0.10679507 0.60400003 4293184461
-0.22395588 0.10697187 0.60500002 4292131772
-0.22290199 0.10697187 0.60500002 4291867065
-0.22221477 0.10714868 0.60600001 4290682791
-0.22152407 0.1073255 0.60700005 4290089634
-0.22119309 0.10767913 0.60900003 4288642188
-0.22049367 0.10785594 0.61000001 4287854208
-0.21979077 0.10803275 0.611 4286735727
-0.21872641 0.10803275 0.611 4287919222
-0.21766205 0.10803275 0.611 4290748321
-0.21659768 0.10803275 0.611 4292786591
-0.22989875 0.10784724 0.60400003 4294234582
-0.22884658 0.10784724 0.60400003 4294368230
-0.22741728 0.10766868 0.60300004 4294039266
-0.22636682 0.10766868 0.60300004 4293776859
-0.22569008 0.10784724 0.60400003 4293184722
-0.2246379 0.10784724 0.60400003 4292593618
-0.22395588 0.10802578 0.60500002 4291738309
-0.22290199 0.10802578 0.60500002 4291014070
-0.22184807 0.10802578 0.60500002 4289566624
-0.22115912 0.10820434 0.60600001 4289170572
-0.22119309 0.10874001 0.60900003 4287723126
-0.22049367 0.10891856 0.61000001 4287523694
-0.21979077 0.10909711 0.611 4287984244
-0.2190844 0.10927568 0.61200005 4289232779
-0.21801829 0.10927568 0.61200005 4292456636
-0.21695219 0.10927568 0.61200005 4293116101
-0.23228355 0.10853881 0.60200006 4293117121
-0.23123486 0.10853881 0.60200006 4293972430
-0.23056853 0.1087191 0.60300004 4294038232
-0.22951812 0.1087191 0.60300004 4294104025
-0.22884658 0.1088994 0.60400003 4293972957
-0.22741728 0.1087191 0.60300004 4293249234
-0.22636682 0.1087191 0.60300004 4292591304
-0.22569008 0.1088994 0.60400003 4291407030
-0.2246379 0.1088994 0.60400003 4291011522
-0.22395588 0.10907969 0.60500002 4290024371
-0.22290199 0.10907969 0.60500002 4288644257
-0.22184807 0.10907969 0.60500002 4287262604
-0.22115912 0.10925999 0.60600001 4287261819
-0.22046667 0.1094403 0.60700005 4286735475
-0.22049367 0.10998118 0.61000001 4288508542
-0.21979077 0.11016147 0.611 4292192950
-0.21801829 0.11034178 0.61200005 4292919489
-0.23333222 0.10958749 0.60200006 4292920773
-0.23228355 0.10958749 0.60200006 4293774544
-0.23123486 0.10958749 0.60200006 4294235095
-0.23018616 0.10958749 0.60200006 4294498783
-0.22951812 0.10976953 0.60300004 4294038232
-0.22846769 0.10976953 0.60300004 4293710555
-0.22741728 0.10976953 0.60300004 4292789453
-0.22636682 0.10976953 0.60300004 4292197314
-0.22569008 0.10995157 0.60400003 4290815661
-0.2246379 0.10995157 0.60400003 4290683057
-0.22395588 0.11013361 0.60500002 4289235611
-0.22290199 0.11013361 0.60500002 4288119676
-0.22184807 0.11013361 0.60500002 4286475108
-0.22115912 0.11031564 0.60600001 4286603364
-0.22046667 0.11049769 0.60700005 4287392624
-0.22049367 0.1110438 0.61000001 4290939790
-0.21979077 0.11122584 0.611 4294032060
-0.23438092 0.11063617 0.60200006 4293380542
-0.23333222 0.11063617 0.60200006 4293906886
-0.23228355 0.11063617 0.60200006 4293972439
-0.23123486 0.11063617 0.60200006 4294038232
-0.23018616 0.11063617 0.60200006 4293972439
-0.22951812 0.11081996 0.60300004 4293117130
-0.22846769 0.11081996 0.60300004 4292393927
-0.22741728 0.11081996 0.60300004 4291209653
-0.22636682 0.11081996 0.60300004 4290683561
-0.22531641 0.11081996 0.60300004 4289038479
-0.2246379 0.11100373 0.60400003 4288117911
-0.22395588 0.11118752 0.60500002 4286670465
-0.22290199 0.11118752 0.60500002 4287064176
-0.22184807 0.11118752 0.60500002 4288116864
-0.22079417 0.11118752 0.60500002 4290419340
-0.22046667 0.11155508 0.60700005 4293182646
-0.23569262 0.11131381 0.60000002 4292788169
-0.23464744 0.11131381 0.60000002 4293380307
-0.23438092 0.11168487 0.60200006 4293841108
-0.23333222 0.11168487 0.60200006 4293972437
-0.23228355 0.11168487 0.60200006 4294171104
-0.23123486 0.11168487 0.60200006 4293578967
-0.23018616 0.11168487 0.60200006 4293512919
-0.22951812 0.11187039 0.60300004 4292460231
-0.22846769 0.11187039 0.60300004 4291736513
-0.22741728 0.11187039 0.60300004 4290815411
-0.22636682 0.11187039 0.60300004 4290026912
-0.22531641 0.11187039 0.60300004 4288184708
-0.22426598 0.11187039 0.60300004 4287855475
-0.22358572 0.11205591 0.60400003 4286605408
-0.22290199 0.11224142 0.60500002 4287653472
-0.22184807 0.11224142 0.60500002 4290087556
-0.22079417 0.11224142 0.60500002 4292389296
-0.23673783 0.11235901 0.60000002 4293313982
-0.23569262 0.11235901 0.60000002 4293775316
-0.23464744 0.11235901 0.60000002 4294038232
-0.23399155 0.11254627 0.60100001 4294169570
-0.23333222 0.11273354 0.60200006 4293840606
-0.23228355 0.11273354 0.60200006 4293380820
-0.23123486 0.11273354 0.60200006 4292459718
-0.23018616 0.11273354 0.60200006 4292129985
-0.22951812 0.11292081 0.60300004 4290879918
-0.22846769 0.11292081 0.60300004 4290091181
-0.22741728 0.11292081 0.60300004 4288709528
-0.22636682 0.11292081 0.60300004 4287591563
-0.22531641 0.11292081 0.60300004 4286275959
-0.22426598 0.11292081 0.60300004 4287984474
-0.22358572 0.11310807 0.60400003 4290089593
-0.22290199 0.11329533 0.60500002 4291866273
-0.22184807 0.11329533 0.60500002 4293247926
-0.22079417 0.11329533 0.60500002 4293116619
-0.23778301 0.11340421 0.60000002 4292853444
-0.23673783 0.11340421 0.60000002 4293774546
-0.23569262 0.11340421 0.60000002 4294103516
-0.23464744 0.11340421 0.60000002 4294234845
-0.23399155 0.11359322 0.60100001 4294564578
-0.23294462 0.11359322 0.60100001 4293709269
-0.23228355 0.11378223 0.60200006 4292986316
-0.23123486 0.11378223 0.60200006 4292065214
-0.23018616 0.11378223 0.60200006 4291604411
-0.22951812 0.11397124 0.60300004 4290288551
-0.22846769 0.11397124 0.60300004 4289565078
-0.22741728 0.11397124 0.60300004 4287459702
-0.22636682 0.11397124 0.60300004 4287523943
-0.22531641 0.11397124 0.60300004 4287589737
-0.22426598 0.11397124 0.60300004 4288575589
-0.22358572 0.11416024 0.60400003 4291667860
-0.22253357 0.11416024 0.60400003 4292982980
-0.22148138 0.11416024 0.60400003 4293377738
-0.23738672 0.11425867 0.59900004 4293840860
-0.23634326 0.11425867 0.59900004 4294103775
-0.23569262 0.11444941 0.60000002 4293907418
-0.23464744 0.11444941 0.60000002 4293381074
-0.23360223 0.11444941 0.60000002 4293380038
-0.23255701 0.11444941 0.60000002 4292129972
-0.23189768 0.11464016 0.60100001 4291603639
-0.23085074 0.11464016 0.60100001 4290419621
-0.2298038 0.11464016 0.60100001 4289301156
-0.22951812 0.11502166 0.60300004 4288116626
-0.22846769 0.11502166 0.60300004 4287656829
-0.22741728 0.11502166 0.60300004 4286406762
-0.22636682 0.11502166 0.60300004 4288181111
-0.22531641 0.11502166 0.60300004 4291536553
-0.22426598 0.11502166 0.60300004 4292984224
-0.22358572 0.1152124 0.60400003 4293313189
-0.22253357 0.1152124 0.60400003 4292918987
-0.22148138 0.1152124 0.60400003 4292590023
-0.23947364 0.11530213 0.59900004 4292722376
-0.23843017 0.11530213 0.59900004 4293577429
-0.23738672 0.11530213 0.59900004 4294301922
-0.23634326 0.11530213 0.59900004 4293972957
-0.23569262 0.11549461 0.60000002 4293710807
-0.23464744 0.11549461 0.60000002 4293052620
-0.23360223 0.11549461 0.60000002 4292724173
-0.23255701 0.11549461 0.60000002 4291474106
-0.23151183 0.11549461 0.60000002 4290947762
-0.23046662 0.11549461 0.60000002 4289237144
-0.2298038 0.11568709 0.60100001 4288644228
-0.22951812 0.1160721 0.60300004 4287459954
-0.22846769 0.1160721 0.60300004 4287064930
-0.22741728 0.1160721 0.60300004 4287064930
-0.22636682 0.1160721 0.60300004 4290152338
-0.22531641 0.1160721 0.60300004 4293376195
-0.22426598 0.1160721 0.60300004 4293247687
-0.22358572 0.11626458 0.60400003 4292984515
-0.24011557 0.11615135 0.59800005 4293578183
-0.23907386 0.11615135 0.59800005 4293775580
-0.23843017 0.11634558 0.59900004 4293907166
-0.23738672 0.11634558 0.59900004 4293841369
-0.23634326 0.11634558 0.59900004 4293052109
-0.23569262 0.11653981 0.60000002 4292591810
-0.23464744 0.11653981 0.60000002 4291473073
-0.23360223 0.11653981 0.60000002 4290815422
-0.23255701 0.11653981 0.60000002 4289499562
-0.23151183 0.11653981 0.60000002 4288512669
-0.23046662 0.11653981 0.60000002 4286999174
-0.2298038 0.11673404 0.60100001 4287063926
-0.22951812 0.11712252 0.60300004 4287524477
-0.22846769 0.11712252 0.60300004 4289694836
-0.22741728 0.11712252 0.60300004 4292458141
-0.22636682 0.11712252 0.60300004 4293116878
-0.22531641 0.11712252 0.60300004 4292919756
-0.22426598 0.11712252 0.60300004 4292918987
-0.24138896 0.11680111 0.59600002 4292526274
-0.24035072 0.11680111 0.59600002 4293249483
-0.24011557 0.11719307 0.59800005 4293710034
-0.23907386 0.11719307 0.59800005 4294302437
-0.23843017 0.11738904 0.59900004 4293841886
-0.23738672 0.11738904 0.59900004 4293644760
-0.23634326 0.11738904 0.59900004 4292789451
-0.23529981 0.11738904 0.59900004 4292328900
-0.23464744 0.11758501 0.60000002 4291012783
-0.23360223 0.11758501 0.60000002 4290552232
-0.23255701 0.11758501 0.60000002 4288907663
-0.23151183 0.11758501 0.60000002 4287988347
-0.23046662 0.11758501 0.60000002 4286343265
-0.22942144 0.11758501 0.60000002 4287324775
-0.22951812 0.11817294 0.60300004 4289429894
-0.22779439 0.11836892 0.60400003 4294033603
-0.22636682 0.11817294 0.60300004 4293380057
-0.22531641 0.11817294 0.60300004 4292853713
-0.24283396 0.11803705 0.597 4293052361
-0.24138896 0.11783934 0.59600002 4293710034
-0.24035072 0.11783934 0.59600002 4293709521
-0.23971403 0.11803705 0.597 4293709521
-0.23907386 0.11823479 0.59800005 4293709531
-0.23803213 0.11823479 0.59800005 4292854478
-0.23738672 0.1184325 0.59900004 4292393925
-0.23634326 0.1184325 0.59900004 4290880685
-0.23529981 0.1184325 0.59900004 4290484911
-0.23425636 0.1184325 0.59900004 4289366429
-0.23360223 0.11863022 0.60000002 4287920514
-0.23255701 0.11863022 0.60000002 4286604911
-0.23151183 0.11863022 0.60000002 4287459686
-0.23046662 0.11863022 0.60000002 4288841339
-0.22942144 0.11863022 0.60000002 4290945432
-0.24409343 0.11867812 0.59500003 4292393925
-0.24305694 0.11867812 0.59500003 4292788683
-0.24202044 0.11867812 0.59500003 4293643991
-0.24138896 0.11887758 0.59600002 4293841371
-0.24035072 0.11887758 0.59600002 4294236381
-0.2393125 0.11887758 0.59600002 4293643987
-0.23907386 0.1192765 0.59800005 4293447126
-0.23803213 0.1192765 0.59800005 4292526024
-0.23699042 0.1192765 0.59800005 4291868862
-0.2359487 0.1192765 0.59800005 4290158500
-0.23529981 0.11947595 0.59900004 4290288031
-0.23425636 0.11947595 0.59900004 4288445827
-0.2332129 0.11947595 0.59900004 4287788906
-0.23216943 0.11947595 0.59900004 4287393891
-0.23112598 0.11947595 0.59900004 4287983722
-0.24471793 0.11951341 0.59400004 4292984515
-0.24368319 0.11951341 0.59400004 4293775818
-0.24305694 0.11971461 0.59500003 4294038734
-0.24202044 0.11971461 0.59500003 4293841884
-0.24138896 0.11991581 0.59600002 4293644762
-0.24035072 0.11991581 0.59600002 4293710034
-0.2393125 0.11991581 0.59600002 4292459968
-0.23867406 0.120117 0.597 4292129985
-0.23763408 0.120117 0.597 4290879918
-0.23699042 0.12031822 0.59800005 4289960100
-0.2359487 0.12031822 0.59800005 4288578703
-0.234907 0.12031822 0.59800005 4287721618
-0.23425636 0.12051941 0.59900004 4286866309
-0.2332129 0.12051941 0.59900004 4288051571
-0.23216943 0.12051941 0.59900004 4290420119
-0.25031236 0.1207511 0.59500003 4292983995
-0.24927586 0.1207511 0.59500003 4292852666
-0.24865659 0.12095403 0.59600002 4292656581
-0.24616639 0.1207511 0.59500003 4292655548
-0.24471793 0.12054816 0.59400004 4292984769
-0.24368319 0.12054816 0.59400004 4294170587
-0.24305694 0.1207511 0.59500003 4294302174
-0.24242719 0.12095403 0.59600002 4294039520
-0.24138896 0.12095403 0.59600002 4293381333
-0.24035072 0.12095403 0.59600002 4293184722
-0.2393125 0.12095403 0.59600002 4292000704
-0.23827426 0.12095403 0.59600002 4291670969
-0.23763408 0.12115698 0.597 4289828765
-0.23659411 0.12115698 0.597 4289171333
-0.2359487 0.12135994 0.59800005 4287394922
-0.234907 0.12135994 0.59800005 4287326571
-0.23425636 0.12156287 0.59900004 4287326571
-0.25280952 0.12199227 0.59600002 4291798972
-0.25177127 0.12199227 0.59600002 4291733178
-0.25031236 0.12178759 0.59500003 4292326322
-0.24927586 0.12178759 0.59500003 4292721079
-0.24823937 0.12178759 0.59500003 4292722361
-0.24720289 0.12178759 0.59500003 4292459188
-0.24616639 0.12178759 0.59500003 4292656320
-0.24512993 0.12178759 0.59500003 4292919235
-0.24409343 0.12178759 0.59500003 4293512392
-0.24346544 0.12199227 0.59600002 4293709771
-0.24242719 0.12199227 0.59600002 4293250254
-0.24138896 0.12199227 0.59600002 4292065723
-0.24035072 0.12199227 0.59600002 4291867833
-0.2393125 0.12199227 0.59600002 4290288801
-0.23827426 0.12199227 0.59600002 4289499814
-0.23723604 0.12199227 0.59600002 4288052368
-0.23619778 0.12199227 0.59600002 4287789180
-0.25280952 0.1230305 0.59600002 4291997883
-0.25177127 0.1230305 0.59600002 4291340210
-0.25031236 0.12282407 0.59500003 4291864485
-0.24927586 0.12282407 0.59500003 4292325036
-0.2478222 0.12261766 0.59400004 4293116350
-0.24678743 0.12261766 0.59400004 4292918972
-0.24575269 0.12261766 0.59400004 4292328132
-0.24471793 0.12261766 0.59400004 4292459718
-0.24409343 0.12282407 0.59500003 4292854726
-0.24305694 0.12282407 0.59500003 4293052361
-0.24202044 0.12282407 0.59500003 4292986577
-0.24138896 0.1230305 0.59600002 4292131268
-0.24035072 0.1230305 0.59600002 4291080112
-0.2393125 0.1230305 0.59600002 4289369750
-0.23827426 0.1230305 0.59600002 4288909699
-0.23723604 0.1230305 0.59600002 4287528046
-0.23619778 0.1230305 0.59600002 4287196012
-0.25384775 0.12406873 0.59600002 4292392369
-0.25280952 0.12406873 0.59600002 4292195246
-0.25134885 0.12386057 0.59500003 4291339938
-0.25031236 0.12386057 0.59500003 4291602083
-0.24885693 0.1236524 0.59400004 4291733669
-0.2478222 0.1236524 0.59400004 4292655538
-0.24678743 0.1236524 0.59400004 4293181882
-0.24575269 0.1236524 0.59400004 4292985021
-0.24471793 0.1236524 0.59400004 4291339940
-0.24368319 0.1236524 0.59400004 4291010725
-0.24305694 0.12386057 0.59500003 4291142311
-0.24202044 0.12386057 0.59500003 4290683059
-0.24098396 0.12386057 0.59500003 4290156715
-0.23994747 0.12386057 0.59500003 4289237128
-0.23891097 0.12386057 0.59500003 4287329131
-0.23827426 0.12406873 0.59600002 4287592560
-0.23763408 0.1242769 0.597 4288513406
-0.23659411 0.1242769 0.597 4290418824
-0.23555413 0.1242769 0.597 4292195235
-0.254886 0.12510696 0.59600002 4291142563
-0.25384775 0.12510696 0.59600002 4292261044
-0.25280952 0.12510696 0.59600002 4292591290
-0.25134885 0.12489706 0.59500003 4291735981
-0.25031236 0.12489706 0.59500003 4291733417
-0.24885693 0.12468715 0.59400004 4291667624
-0.2478222 0.12468715 0.59400004 4292391347
-0.24678743 0.12468715 0.59400004 4293707206
-0.24575269 0.12468715 0.59400004 4293512912
-0.24471793 0.12468715 0.59400004 4290880935
-0.24368319 0.12468715 0.59400004 4290354319
-0.24305694 0.12489706 0.59500003 4290288270
-0.24202044 0.12489706 0.59500003 4289829797
-0.24098396 0.12489706 0.59500003 4289237660
-0.23994747 0.12489706 0.59500003 4288580216
-0.23891097 0.12489706 0.59500003 4287198563
-0.23827426 0.12510696 0.59600002 4288246640
-0.23763408 0.12531687 0.597 4290286223
-0.23659411 0.12531687 0.597 4291863472
-0.254886 0.1261452 0.59600002 4291405233
-0.25299594 0.1257219 0.59400004 4291931577
-0.25196117 0.1257219 0.59400004 4292523946
-0.25092643 0.1257219 0.59400004 4292655788
-0.24989167 0.1257219 0.59400004 4292524218
-0.24843799 0.12551025 0.59300005 4292260790
-0.24740498 0.12551025 0.59300005 4292457923
-0.24637197 0.12551025 0.59300005 4293641941
-0.24575269 0.1257219 0.59400004 4293184461
-0.24471793 0.1257219 0.59400004 4290223775
-0.24368319 0.1257219 0.59400004 4288840585
-0.24305694 0.12593354 0.59500003 4288445827
-0.24202044 0.12593354 0.59500003 4288511885
-0.24098396 0.12593354 0.59500003 4287656577
-0.23994747 0.12593354 0.59500003 4288971892
-0.23891097 0.12593354 0.59500003 4289761664
-0.23787448 0.12593354 0.59500003 4291273897
-0.23763408 0.12635686 0.597 4292523964
-0.26554701 0.12206195 0.57200003 4291669934
-0.2645506 0.12206195 0.57200003 4291735979
-0.26401493 0.12227535 0.57300001 4291143842
-0.26255774 0.12206195 0.57200003 4291012009
-0.26156133 0.12206195 0.57200003 4290551458
-0.2565313 0.12697004 0.59500003 4291801524
-0.25506541 0.12675665 0.59400004 4291275180
-0.25403067 0.12675665 0.59400004 4291404981
-0.25299594 0.12675665 0.59400004 4291470774
-0.25196117 0.12675665 0.59400004 4292130226
-0.25092643 0.12675665 0.59400004 4292919485
-0.24989167 0.12675665 0.59400004 4292854478
-0.24843799 0.12654325 0.59300005 4292393927
-0.24740498 0.12654325 0.59300005 4292656581
-0.24637197 0.12654325 0.59300005 4293182925
-0.24575269 0.12675665 0.59400004 4292921032
-0.24471793 0.12675665 0.59400004 4289368466
-0.24368319 0.12675665 0.59400004 4289036670
-0.24305694 0.12697004 0.59500003 4290155150
-0.24202044 0.12697004 0.59500003 4289697681
-0.24098396 0.12697004 0.59500003 4288710530
-0.23994747 0.12697004 0.59500003 4289561982
-0.23891097 0.12697004 0.59500003 4290877842
-0.23787448 0.12697004 0.59500003 4292783293
-0.23723604 0.12718344 0.59600002 4293309637
-0.23619778 0.12718344 0.59600002 4292918987
-0.26654345 0.12305838 0.57200003 4290485916
-0.26508278 0.12284324 0.57100004 4290880674
-0.26408809 0.12284324 0.57100004 4291011490
-0.26355419 0.12305838 0.57200003 4291077283
-0.26255774 0.12305838 0.57200003 4291012261
-0.26156133 0.12305838 0.57200003 4290420123
-0.26056489 0.12305838 0.57200003 4290420651
-0.2565313 0.12800653 0.59500003 4292064169
-0.25506541 0.1277914 0.59400004 4291471776
-0.25403067 0.1277914 0.59400004 4291470524
-0.25299594 0.1277914 0.59400004 4291141560
-0.25196117 0.1277914 0.59400004 4291998124
-0.25092643 0.1277914 0.59400004 4293116348
-0.24947099 0.12757626 0.59300005 4292854213
-0.24801902 0.1273611 0.59200001 4291275180
-0.24698773 0.1273611 0.59200001 4291077033
-0.24595648 0.1273611 0.59200001 4290879911
-0.24492523 0.1273611 0.59200001 4290352795
-0.24430595 0.12757626 0.59300005 4288642177
-0.24368319 0.1277914 0.59400004 4289890193
-0.24264845 0.1277914 0.59400004 4292587706
-0.24161369 0.1277914 0.59400004 4292523964
-0.24098396 0.12800653 0.59500003 4292392378
-0.23954421 0.1277914 0.59400004 4292392891
-0.23850945 0.1277914 0.59400004 4292458684
-0.23747471 0.1277914 0.59400004 4292588739
-0.23723604 0.12822166 0.59600002 4292588739
-0.26863733 0.12318729 0.56800002 4290750381
-0.26764789 0.12318729 0.56800002 4290553258
-0.26607746 0.12383793 0.57100004 4290484383
-0.26508278 0.12383793 0.57100004 4290944934
-0.26408809 0.12383793 0.57100004 4290683559
-0.26309341 0.12383793 0.57100004 4290749352
-0.26255774 0.1240548 0.57200003 4291276464
-0.26156133 0.1240548 0.57200003 4291078828
-0.26010939 0.12383793 0.57100004 4290553517
-0.25756779 0.12904303 0.59500003 4292457890
-0.2565313 0.12904303 0.59500003 4292460211
-0.25549483 0.12904303 0.59500003 4291933866
-0.25445834 0.12904303 0.59500003 4291472310
-0.25299594 0.12882614 0.59400004 4291274930
-0.25196117 0.12882614 0.59400004 4291864998
-0.25092643 0.12882614 0.59400004 4293378494
-0.24947099 0.12860927 0.59300005 4292789451
-0.24801902 0.12839238 0.59200001 4290420903
-0.24698773 0.12839238 0.59200001 4290616971
-0.24595648 0.12839238 0.59200001 4290682764
-0.24492523 0.12839238 0.59200001 4289695628
-0.24430595 0.12860927 0.59300005 4289564042
-0.24368319 0.12882614 0.59400004 4290547094
-0.24264845 0.12882614 0.59400004 4292718263
-0.24161369 0.12882614 0.59400004 4292918976
-0.24098396 0.12904303 0.59500003 4292787134
-0.23914093 0.12860927 0.59300005 4292722624
-0.2381079 0.12860927 0.59300005 4292459709
-0.23747471 0.12882614 0.59400004 4292523964
-0.27109268 0.12439536 0.56900001 4290353828
-0.26962677 0.12417674 0.56800002 4290419621
-0.26863733 0.12417674 0.56800002 4290485414
-0.26764789 0.12417674 0.56800002 4290287779
-0.26665843 0.12417674 0.56800002 4290551458
-0.26660442 0.12461399 0.57000005 4290222236
-0.2656115 0.12461399 0.57000005 4290287520
-0.26508278 0.12483261 0.57100004 4290353313
-0.26408809 0.12483261 0.57100004 4290287783
-0.26309341 0.12483261 0.57100004 4290485162
-0.26255774 0.12505123 0.57200003 4291274917
-0.26110408 0.12483261 0.57100004 4291603882
-0.26010939 0.12483261 0.57100004 4291275176
-0.2565313 0.13007951 0.59500003 4292852395
-0.25506541 0.12986089 0.59400004 4292918445
-0.25403067 0.12986089 0.59400004 4292524972
-0.25257 0.12964228 0.59300005 4291866786
-0.251537 0.12964228 0.59300005 4291866023
-0.25008154 0.12942363 0.59200001 4291668387
-0.24905027 0.12942363 0.59200001 4291274676
-0.24801902 0.12942363 0.59200001 4289037714
-0.24698773 0.12942363 0.59200001 4289235081
-0.24554102 0.12920502 0.59100002 4291208872
-0.24264845 0.12986089 0.59400004 4291075226
-0.24202044 0.13007951 0.59500003 4292127141
-0.24098396 0.13007951 0.59500003 4292324777
-0.23914093 0.12964228 0.59300005 4292325549
-0.27208388 0.12538655 0.56900001 4290289055
-0.27109268 0.12538655 0.56900001 4290353061
-0.26962677 0.12516621 0.56800002 4290484390
-0.26863733 0.12516621 0.56800002 4290419873
-0.26764789 0.12516621 0.56800002 4290485666
-0.26665843 0.12516621 0.56800002 4290617764
-0.26613668 0.12538655 0.56900001 4290091420
-0.2656115 0.12560692 0.57000005 4290090657
-0.26508278 0.1258273 0.57100004 4290090657
-0.26408809 0.1258273 0.57100004 4290221986
-0.26355419 0.12604764 0.57200003 4290090657
-0.26255774 0.12604764 0.57200003 4291207836
-0.26110408 0.1258273 0.57100004 4291866023
-0.26010939 0.1258273 0.57100004 4291997620
-0.25756779 0.131116 0.59500003 4292061348
-0.25610018 0.13089564 0.59400004 4292917427
-0.25463602 0.13067527 0.59300005 4293377978
-0.25360301 0.13067527 0.59300005 4293379536
-0.25214407 0.1304549 0.59200001 4291997883
-0.25111282 0.1304549 0.59200001 4291538866
-0.24965911 0.13023455 0.59100002 4291078315
-0.24862958 0.13023455 0.59100002 4290487209
-0.24718112 0.13001418 0.59000003 4288447626
-0.24615334 0.13001418 0.59000003 4289233773
-0.24554102 0.13023455 0.59100002 4291667858
-0.27208388 0.12637776 0.56900001 4290485146
-0.27109268 0.12637776 0.56900001 4290419367
-0.27010149 0.12637776 0.56900001 4289958816
-0.26863733 0.12615566 0.56800002 4290484896
-0.26764789 0.12615566 0.56800002 4290748069
-0.26665843 0.12615566 0.56800002 4290551708
-0.26613668 0.12637776 0.56900001 4290025363
-0.26607746 0.12682198 0.57100004 4289829029
-0.26508278 0.12682198 0.57100004 4289434271
-0.26408809 0.12682198 0.57100004 4289630882
-0.26355419 0.12704407 0.57200003 4289367711
-0.26255774 0.12704407 0.57200003 4290681744
-0.26156133 0.12704407 0.57200003 4291537053
-0.26010939 0.12682198 0.57100004 4291733921
-0.25820711 0.12637776 0.56900001 4291141784
-0.25713491 0.1319304 0.59400004 4290944934
-0.25566903 0.13170828 0.59300005 4292588708
-0.2542066 0.13148618 0.59200001 4293246894
-0.25317532 0.13148618 0.59200001 4292722111
-0.25214407 0.13148618 0.59200001 4290484892
-0.25111282 0.13148618 0.59200001 4290353315
-0.24965911 0.13126406 0.59100002 4290353315
-0.24862958 0.13126406 0.59100002 4290025617
-0.24718112 0.13104197 0.59000003 4288380536
-0.24615334 0.13104197 0.59000003 4289496719
-0.24554102 0.13126406 0.59100002 4291141543
-0.2445115 0.13126406 0.59100002 4291997091
-0.24348196 0.13126406 0.59100002 4291997091
-0.27259517 0.1271451 0.56800002 4291274926
-0.2716057 0.1271451 0.56800002 4290485666
-0.27061623 0.1271451 0.56800002 4290551208
-0.26962677 0.1271451 0.56800002 4290090657
-0.26863733 0.1271451 0.56800002 4290418336
-0.26764789 0.1271451 0.56800002 4290615971
-0.26712787 0.12736896 0.56900001 4290485914
-0.26660442 0.12759282 0.57000005 4290420121
-0.26607746 0.12781665 0.57100004 4290159012
-0.26508278 0.12781665 0.57100004 4289830047
-0.26408809 0.12781665 0.57100004 4289895072
-0.26355419 0.12804051 0.57200003 4289368728
-0.26209873 0.12781665 0.57100004 4290417041
-0.26110408 0.12781665 0.57100004 4291074972
-0.26010939 0.12781665 0.57100004 4291733921
-0.25626913 0.13251743 0.59200001 4290485412
-0.25523788 0.13251743 0.59200001 4291339427
-0.2542066 0.13251743 0.59200001 4293050044
-0.25317532 0.13251743 0.59200001 4292329665
-0.25214407 0.13251743 0.59200001 4289632152
-0.25068864 0.1322936 0.59100002 4290090640
-0.24965911 0.1322936 0.59100002 4290551191
