# .PCD v0.7 - Point Cloud Data file format
VERSION 0.7
FIELDS x y z rgba
SIZE 4 4 4 4
TYPE F F F U
COUNT 1 1 1 1
WIDTH 1006
HEIGHT 1
VIEWPOINT 0 0 0 1 0 0 0
POINTS 1006
DATA ascii
-0.12429955 -0.016532453 0.70300001 4285303937
-0.12307493 -0.016532453 0.70300001 4285566853
-0.12618352 -0.017120378 0.72800004 4285106833
-0.12474377 -0.017096862 0.72700006 4284119938
-0.12313763 -0.017049827 0.72500002 4283266680
-0.12187468 -0.017049827 0.72500002 4283661438
-0.12094446 -0.017096862 0.72700006 4283661438
-0.11967804 -0.017096862 0.72700006 4283069045
-0.11841159 -0.017096862 0.72700006 4284053863
-0.2207306 -0.015721552 0.72200006 4293514968
-0.22038479 -0.015786877 0.72500002 4293252052
-0.21821515 -0.015721552 0.72200006 4293186007
-0.21665692 -0.015699776 0.72100002 4293054421
-0.21480344 -0.015656227 0.71900004 4293054419
-0.21325392 -0.015634451 0.71800005 4293251799
-0.21200317 -0.015634451 0.71800005 4292988878
-0.21075241 -0.015634451 0.71800005 4292199362
-0.20950165 -0.015634451 0.71800005 4292263611
-0.20825091 -0.015634451 0.71800005 4291605424
-0.20700015 -0.015634451 0.71800005 4291736761
-0.20574939 -0.015634451 0.71800005 4291999932
-0.20449863 -0.015634451 0.71800005 4291606458
-0.20353095 -0.015656227 0.71900004 4291211700
-0.20284112 -0.015699776 0.72100002 4291341755
-0.20158513 -0.015699776 0.72100002 4291407548
-0.20032915 -0.015699776 0.72100002 4291407800
-0.19852096 -0.015656227 0.71900004 4291407800
-0.19726846 -0.015656227 0.71900004 4291539381
-0.1965612 -0.015699776 0.72100002 4291670967
-0.19530521 -0.015699776 0.72100002 4291671229
-0.19404924 -0.015699776 0.72100002 4292329415
-0.19279325 -0.015699776 0.72100002 4292395712
-0.19153726 -0.015699776 0.72100002 4292263870
-0.19028129 -0.015699776 0.72100002 4292001465
-0.1892875 -0.015721552 0.72200006 4292133308
-0.18802977 -0.015721552 0.72200006 4292067790
-0.18728942 -0.015765101 0.72400004 4291870411
-0.18628514 -0.015786877 0.72500002 4291409078
-0.18553261 -0.015830427 0.72700006 4290948527
-0.18426618 -0.015830427 0.72700006 4291079862
-0.18299973 -0.015830427 0.72700006 4291672255
-0.18123335 -0.015786877 0.72500002 4291540917
-0.17972216 -0.015765101 0.72400004 4291540917
-0.17796798 -0.015721552 0.72200006 4291342240
-0.17671025 -0.015721552 0.72200006 4289631623
-0.17520951 -0.015699776 0.72100002 4290486416
-0.17395353 -0.015699776 0.72100002 4291275932
-0.17269754 -0.015699776 0.72100002 4290882217
-0.17167935 -0.015721552 0.72200006 4290619301
-0.17042163 -0.015721552 0.72200006 4290553767
-0.16892959 -0.015699776 0.72100002 4290685610
-0.16767362 -0.015699776 0.72100002 4290751651
-0.16664846 -0.015721552 0.72200006 4290685858
-0.16345102 -0.015656227 0.71900004 4289699494
-0.16197293 -0.015634451 0.71800005 4289568406
-0.16005062 -0.015569126 0.71500003 4288976268
-0.15836088 -0.015525577 0.71300006 4287795331
-0.15689847 -0.015503802 0.71200001 4285755492
-0.15500231 -0.015438477 0.70900005 4283261551
-0.15333346 -0.015394927 0.70700002 4281945691
-0.15188673 -0.015373153 0.70600003 4281356632
-0.15044349 -0.015351377 0.70500004 4281422425
-0.14858042 -0.015286052 0.70200002 4281750093
-0.14735754 -0.015286052 0.70200002 4281881936
-0.14571832 -0.015242503 0.70000005 4283328346
-0.14449891 -0.015242503 0.70000005 4284644206
-0.14327952 -0.015242503 0.70000005 4284448108
-0.14206012 -0.015242503 0.70000005 4284316522
-0.14063951 -0.015220728 0.69900006 4283858288
-0.13942187 -0.015220728 0.69900006 4283858288
-0.1382042 -0.015220728 0.69900006 4283858038
-0.13698654 -0.015220728 0.69900006 4283791989
-0.13576889 -0.015220728 0.69900006 4283464825
-0.13455123 -0.015220728 0.69900006 4283464825
-0.13333356 -0.015220728 0.69900006 4283595389
-0.13230492 -0.015242503 0.70000005 4283595389
-0.13108552 -0.015242503 0.70000005 4283530366
-0.12986611 -0.015242503 0.70000005 4283727744
-0.12901428 -0.015286052 0.70200002 4284186746
-0.12779139 -0.015286052 0.70200002 4284120953
-0.12656851 -0.015286052 0.70200002 4283990396
-0.12534562 -0.015286052 0.70200002 4284450947
-0.12429955 -0.015307827 0.70300001 4285106815
-0.12307493 -0.015307827 0.70300001 4286093710
-0.12313763 -0.015786877 0.72500002 4284252290
-0.12187468 -0.015786877 0.72500002 4284186497
-0.11967804 -0.015830427 0.72700006 4283463793
-0.22042486 -0.014443794 0.72100002 4293514457
-0.21821515 -0.014463828 0.72200006 4293449177
-0.21665692 -0.014443794 0.72100002 4293317848
-0.21480344 -0.014403729 0.71900004 4293120214
-0.21325392 -0.014383697 0.71800005 4292857043
-0.21200317 -0.014383697 0.71800005 4292790729
-0.21075241 -0.014383697 0.71800005 4292198849
-0.20950165 -0.014383697 0.71800005 4291671483
-0.20825091 -0.014383697 0.71800005 4291737276
-0.20700015 -0.014383697 0.71800005 4291868603
-0.20574939 -0.014383697 0.71800005 4291802810
-0.20449863 -0.014383697 0.71800005 4291474106
-0.20353095 -0.014403729 0.71900004 4291342520
-0.20284112 -0.014443794 0.72100002 4291276475
-0.20158513 -0.014443794 0.72100002 4291210682
-0.19977345 -0.014403729 0.71900004 4291079350
-0.19824485 -0.014383697 0.71800005 4291276473
-0.1969941 -0.014383697 0.71800005 4291604913
-0.19574335 -0.014383697 0.71800005 4291670706
-0.19530521 -0.014443794 0.72100002 4291605174
-0.19404924 -0.014443794 0.72100002 4292329154
-0.19279325 -0.014443794 0.72100002 4292067776
-0.19074032 -0.014383697 0.71800005 4291870398
-0.18948956 -0.014383697 0.71800005 4292132284
-0.18981183 -0.014503893 0.72400004 4292461505
-0.18855062 -0.014503893 0.72400004 4292658380
-0.1875481 -0.014523927 0.72500002 4292000450
-0.18628514 -0.014523927 0.72500002 4291737528
-0.18578781 -0.014584026 0.72800004 4292395458
-0.18451962 -0.014584026 0.72800004 4292264903
-0.18299973 -0.014563993 0.72700006 4292067524
-0.18123335 -0.014523927 0.72500002 4291540665
-0.17972216 -0.014503893 0.72400004 4291474871
-0.17796798 -0.014463828 0.72200006 4291014309
-0.17646548 -0.014443794 0.72100002 4290290330
-0.17472349 -0.014403729 0.71900004 4290552213
-0.17347099 -0.014403729 0.71900004 4290880922
-0.17221849 -0.014403729 0.71900004 4290357156
-0.17144156 -0.014443794 0.72100002 4289962654
-0.17018558 -0.014443794 0.72100002 4288516751
-0.16892959 -0.014443794 0.72100002 4289635488
-0.16767362 -0.014443794 0.72100002 4290095015
-0.16664846 -0.014463828 0.72200006 4290029222
-0.16539073 -0.014463828 0.72200006 4289501861
-0.16390567 -0.014443794 0.72100002 4289501861
-0.16197293 -0.014383697 0.71800005 4289436560
-0.16027448 -0.01434363 0.71600002 4288976009
-0.15836088 -0.014283531 0.71300006 4288057997
-0.15522093 -0.014223432 0.71000004 4283918950
-0.15333346 -0.014163332 0.70700002 4282339918
-0.15188673 -0.014143299 0.70600003 4281422931
-0.15065688 -0.014143299 0.70600003 4281093710
-0.14879206 -0.0140832 0.70300001 4281027149
-0.14756745 -0.0140832 0.70300001 4281224785
-0.14613464 -0.014063166 0.70200002 4282013517
-0.14449891 -0.014023101 0.70000005 4283460963
-0.14327952 -0.014023101 0.70000005 4283791459
-0.14206012 -0.014023101 0.70000005 4283923045
-0.14063951 -0.014003069 0.69900006 4283924592
-0.13942187 -0.014003069 0.69900006 4283858799
-0.1382042 -0.014003069 0.69900006 4283661427
-0.13698654 -0.014003069 0.69900006 4283661427
-0.13576889 -0.014003069 0.69900006 4283595381
-0.13455123 -0.014003069 0.69900006 4283595381
-0.13333356 -0.014003069 0.69900006 4283595381
-0.13230492 -0.014023101 0.70000005 4283595381
-0.13108552 -0.014023101 0.70000005 4283661438
-0.12986611 -0.014023101 0.70000005 4283793024
-0.12901428 -0.014063166 0.70200002 4283793528
-0.12779139 -0.014063166 0.70200002 4283793528
-0.12656851 -0.014063166 0.70200002 4283924094
-0.12534562 -0.014063166 0.70200002 4284450438
-0.12429955 -0.0140832 0.70300001 4284909693
-0.12307493 -0.0140832 0.70300001 4285896588
-0.1218503 -0.0140832 0.70300001 4286289810
-0.21821515 -0.013206104 0.72200006 4293448664
-0.21665692 -0.013187813 0.72100002 4293448664
-0.21480344 -0.01315123 0.71900004 4293382105
-0.21355094 -0.01315123 0.71900004 4292592333
-0.21200317 -0.01313294 0.71800005 4292592834
-0.21075241 -0.01313294 0.71800005 4292395712
-0.20950165 -0.01313294 0.71800005 4291868360
-0.20825091 -0.01313294 0.71800005 4291868360
-0.20700015 -0.01313294 0.71800005 4291803069
-0.20574939 -0.01313294 0.71800005 4291671483
-0.20449863 -0.01313294 0.71800005 4291474106
-0.20353095 -0.01315123 0.71900004 4291474106
-0.20284112 -0.013187813 0.72100002 4291342270
-0.20158513 -0.013187813 0.72100002 4291342270
-0.19977345 -0.01315123 0.71900004 4291408061
-0.19824485 -0.01313294 0.71800005 4291342268
-0.19644536 -0.013096357 0.71600002 4291407532
-0.19519809 -0.013096357 0.71600002 4291604911
-0.19449259 -0.01313294 0.71800005 4291737015
-0.19324182 -0.01313294 0.71800005 4292197566
-0.19145627 -0.013096357 0.71600002 4292000952
-0.190209 -0.013096357 0.71600002 4291869366
-0.18948956 -0.01313294 0.71800005 4291935159
-0.18981183 -0.013242685 0.72400004 4292198331
-0.18855062 -0.013242685 0.72400004 4292001465
-0.1875481 -0.013260976 0.72500002 4291212206
-0.18628514 -0.013260976 0.72500002 4291737276
-0.18578781 -0.01331585 0.72800004 4293184722
-0.18451962 -0.01331585 0.72800004 4293119949
-0.18299973 -0.013297559 0.72700006 4292593605
-0.18123335 -0.013260976 0.72500002 4291672001
-0.1792257 -0.013206104 0.72200006 4291474621
-0.17796798 -0.013206104 0.72200006 4291869368
-0.17646548 -0.013187813 0.72100002 4292395712
-0.17472349 -0.01315123 0.71900004 4292001202
-0.17322972 -0.01313294 0.71800005 4291409065
-0.17197897 -0.01313294 0.71800005 4291540403
-0.170966 -0.01315123 0.71900004 4291540403
-0.1697135 -0.01315123 0.71900004 4290488756
-0.16846099 -0.01315123 0.71900004 4290028205
-0.16720849 -0.01315123 0.71900004 4290160043
-0.16641763 -0.013187813 0.72100002 4290357421
-0.16516164 -0.013187813 0.72100002 4289961898
-0.16390567 -0.013187813 0.72100002 4289501348
-0.16197293 -0.01313294 0.71800005 4288911246
-0.16027448 -0.013096357 0.71600002 4287726971
-0.15522093 -0.012986612 0.71000004 4283787364
-0.15376723 -0.01296832 0.70900005 4282339918
-0.15188673 -0.012913447 0.70600003 4280700244
-0.15065688 -0.012913447 0.70600003 4280239694
-0.14921539 -0.012895157 0.70500004 4280895829
-0.14756745 -0.012858574 0.70300001 4280830036
-0.14613464 -0.012840283 0.70200002 4280698950
-0.14491177 -0.012840283 0.70200002 4280698950
-0.14327952 -0.012803702 0.70000005 4282144842
-0.14206012 -0.012803702 0.70000005 4283723617
-0.14063951 -0.012785411 0.69900006 4284316005
-0.13942187 -0.012785411 0.69900006 4284644969
-0.1382042 -0.012785411 0.69900006 4283988841
-0.13698654 -0.012785411 0.69900006 4283923047
-0.13576889 -0.012785411 0.69900006 4283595379
-0.13455123 -0.012785411 0.69900006 4283595379
-0.13333356 -0.012785411 0.69900006 4283595381
-0.13230492 -0.012803702 0.70000005 4283529588
-0.13108552 -0.012803702 0.70000005 4283398780
-0.12986611 -0.012803702 0.70000005 4283530366
-0.12864672 -0.012803702 0.70000005 4283858551
-0.12779139 -0.012840283 0.70200002 4283924344
-0.12656851 -0.012840283 0.70200002 4283989637
-0.12534562 -0.012840283 0.70200002 4284713104
-0.12412275 -0.012840283 0.70200002 4285435766
-0.12289985 -0.012840283 0.70200002 4285764988
-0.12167697 -0.012840283 0.70200002 4286025857
-0.21821515 -0.01194838 0.72200006 4293316821
-0.21665692 -0.01193183 0.72100002 4293448664
-0.21480344 -0.011898733 0.71900004 4293447899
-0.21355094 -0.011898733 0.71900004 4292461003
-0.21200317 -0.011882184 0.71800005 4292526276
-0.21075241 -0.011882184 0.71800005 4292592069
-0.20950165 -0.011882184 0.71800005 4292329154
-0.20825091 -0.011882184 0.71800005 4292065725
-0.20700015 -0.011882184 0.71800005 4291868349
-0.20603594 -0.011898733 0.71900004 4291670969
-0.20478344 -0.011898733 0.71900004 4291670715
-0.20353095 -0.011898733 0.71900004 4291604922
-0.20227845 -0.011898733 0.71900004 4291340982
-0.20102595 -0.011898733 0.71900004 4291670204
-0.19949561 -0.011882184 0.71800005 4291737024
-0.19824485 -0.011882184 0.71800005 4291539901
-0.19644536 -0.011849085 0.71600002 4291342509
-0.19519809 -0.011849085 0.71600002 4291671217
-0.19449259 -0.011882184 0.71800005 4292131770
-0.19270355 -0.011849085 0.71600002 4292131770
-0.19145627 -0.011849085 0.71600002 4292131507
-0.190209 -0.011849085 0.71600002 4291934128
-0.18948956 -0.011882184 0.71800005 4291408563
-0.18981183 -0.011981477 0.72400004 4291934907
-0.18881105 -0.011998027 0.72500002 4291673016
-0.1875481 -0.011998027 0.72500002 4291080879
-0.17573124 -0.011882184 0.71800005 4292722626
-0.1744805 -0.011882184 0.71800005 4292263357
-0.17322972 -0.011882184 0.71800005 4291868855
-0.17197897 -0.011882184 0.71800005 4292263357
-0.170966 -0.011898733 0.71900004 4292789957
-0.16947746 -0.011882184 0.71800005 4292329663
-0.1682267 -0.011882184 0.71800005 4290750631
-0.16697595 -0.011882184 0.71800005 4290817198
-0.16595601 -0.011898733 0.71900004 4291869629
-0.16470352 -0.011898733 0.71900004 4291606971
-0.16390567 -0.01193183 0.72100002 4289370009
-0.16197293 -0.011882184 0.71800005 4288517244
-0.16027448 -0.011849085 0.71600002 4288056693
-0.15274729 -0.011749791 0.71000004 4281093226
-0.15087028 -0.011700144 0.70700002 4280829797
-0.14942704 -0.011683595 0.70600003 4280501839
-0.14798728 -0.011667046 0.70500004 4280501839
-0.14613464 -0.011617399 0.70200002 4280238919
-0.14491177 -0.011617399 0.70200002 4279909697
-0.14327952 -0.011584301 0.70000005 4280829757
-0.14206012 -0.011584301 0.70000005 4282474838
-0.14063951 -0.011567753 0.69900006 4284575833
-0.13942187 -0.011567753 0.69900006 4285102177
-0.1382042 -0.011567753 0.69900006 4284185713
-0.13698654 -0.011567753 0.69900006 4283922797
-0.13576889 -0.011567753 0.69900006 4283464043
-0.13455123 -0.011567753 0.69900006 4283529836
-0.13333356 -0.011567753 0.69900006 4283595379
-0.13230492 -0.011584301 0.70000005 4283529586
-0.13108552 -0.011584301 0.70000005 4283465077
-0.12986611 -0.011584301 0.70000005 4283465077
-0.12864672 -0.011584301 0.70000005 4283792504
-0.12742731 -0.011584301 0.70000005 4283989883
-0.12620792 -0.011584301 0.70000005 4284120453
-0.12498852 -0.011584301 0.70000005 4285041555
-0.12376911 -0.011584301 0.70000005 4285633411
-0.12254972 -0.011584301 0.70000005 4285567618
-0.12133031 -0.011584301 0.70000005 4286025607
-0.21821515 -0.010690656 0.72200006 4293448664
-0.21665692 -0.010675848 0.72100002 4293580250
-0.21540093 -0.010675848 0.72100002 4293316825
-0.21355094 -0.010646234 0.71900004 4292198345
-0.21200317 -0.010631428 0.71800005 4292395206
-0.21075241 -0.010631428 0.71800005 4292395206
-0.20950165 -0.010631428 0.71800005 4292329663
-0.20825091 -0.010631428 0.71800005 4291869368
-0.20700015 -0.010631428 0.71800005 4291868864
-0.20574939 -0.010631428 0.71800005 4291539899
-0.20478344 -0.010646234 0.71900004 4291670715
-0.20353095 -0.010646234 0.71900004 4291670715
-0.20227845 -0.010646234 0.71900004 4291670969
-0.20102595 -0.010646234 0.71900004 4292197314
-0.19949561 -0.010631428 0.71800005 4291935420
-0.19824485 -0.010631428 0.71800005 4291409076
-0.1969941 -0.010631428 0.71800005 4291407798
-0.19574335 -0.010631428 0.71800005 4291605176
-0.19449259 -0.010631428 0.71800005 4291868080
-0.19270355 -0.010601813 0.71600002 4291605165
-0.19145627 -0.010601813 0.71600002 4291604645
-0.190209 -0.010601813 0.71600002 4291802024
-0.18948956 -0.010631428 0.71800005 4291869364
-0.1882388 -0.010631428 0.71800005 4292001206
-0.18728942 -0.010720269 0.72400004 4291013557
-0.18602821 -0.010720269 0.72400004 4291868866
-0.17898355 -0.010601813 0.71600002 4291539381
-0.17773628 -0.010601813 0.71600002 4291605174
-0.17648901 -0.010601813 0.71600002 4291868603
-0.17524172 -0.010601813 0.71600002 4292197312
-0.17399447 -0.010601813 0.71600002 4291935157
-0.17274718 -0.010601813 0.71600002 4291474606
-0.17149992 -0.010601813 0.71600002 4292131770
-0.17072821 -0.010631428 0.71800005 4292592321
-0.16900538 -0.010601813 0.71600002 4292000934
-0.16775809 -0.010601813 0.71600002 4290685074
-0.16651084 -0.010601813 0.71600002 4290883250
-0.1657252 -0.010631428 0.71800005 4292133317
-0.16447444 -0.010631428 0.71800005 4291542961
-0.16413301 -0.010690656 0.72200006 4288977291
-0.16287528 -0.010690656 0.72200006 4288909458
-0.16161756 -0.010690656 0.72200006 4291409849
-0.15969352 -0.010646234 0.71900004 4291278247
-0.15844102 -0.010646234 0.71900004 4288712319
-0.15006199 -0.010498164 0.70900005 4280632382
-0.14819719 -0.010453743 0.70600003 4280895298
-0.14675917 -0.010438936 0.70500004 4279909199
-0.14511819 -0.010409322 0.70300001 4279514442
-0.14368889 -0.010394515 0.70200002 4279909197
-0.14206012 -0.010364901 0.70000005 4280238419
-0.14084072 -0.010364901 0.70000005 4282734383
-0.13942187 -0.010350095 0.69900006 4284313415
-0.1382042 -0.010350095 0.69900006 4284184687
-0.13698654 -0.010350095 0.69900006 4284316272
-0.13576889 -0.010350095 0.69900006 4283923047
-0.13455123 -0.010350095 0.69900006 4283857254
-0.13333356 -0.010350095 0.69900006 4283529586
-0.13211592 -0.010350095 0.69900006 4283595379
-0.13089827 -0.010350095 0.69900006 4283595379
-0.12968059 -0.010350095 0.69900006 4283661173
-0.12846294 -0.010350095 0.69900006 4284120442
-0.12742731 -0.010364901 0.70000005 4284712579
-0.12620792 -0.010364901 0.70000005 4285172612
-0.12498852 -0.010364901 0.70000005 4285567114
-0.12376911 -0.010364901 0.70000005 4285105789
-0.12254972 -0.010364901 0.70000005 4284447858
-0.21665692 -0.0094198659 0.72100002 4293514457
-0.21540093 -0.0094198659 0.72100002 4293119701
-0.21355094 -0.0093937367 0.71900004 4292329928
-0.21229844 -0.0093937367 0.71900004 4292592585
-0.21075241 -0.0093806712 0.71800005 4292724171
-0.20950165 -0.0093806712 0.71800005 4292330430
-0.20825091 -0.0093806712 0.71800005 4291540915
-0.20700015 -0.0093806712 0.71800005 4291737278
-0.20574939 -0.0093806712 0.71800005 4291474106
-0.20478344 -0.0093937367 0.71900004 4291604915
-0.20409709 -0.0094198659 0.72100002 4291604915
-0.20284112 -0.0094198659 0.72100002 4291605174
-0.20158513 -0.0094198659 0.72100002 4292065725
-0.19949561 -0.0093806712 0.71800005 4291672768
-0.19824485 -0.0093806712 0.71800005 4291212217
-0.1969941 -0.0093806712 0.71800005 4291408052
-0.19574335 -0.0093806712 0.71800005 4291605174
-0.19476345 -0.0093937367 0.71900004 4291605424
-0.19324182 -0.0093806712 0.71800005 4291342509
-0.19145627 -0.0093545411 0.71600002 4291275682
-0.190209 -0.0093545411 0.71600002 4292262577
-0.19028129 -0.0094198659 0.72100002 4292001477
-0.18902531 -0.0094198659 0.72100002 4291672768
-0.1799791 -0.0093414756 0.71500003 4291408815
-0.17873359 -0.0093414756 0.71500003 4291407280
-0.17748804 -0.0093414756 0.71500003 4291867831
-0.17624252 -0.0093414756 0.71500003 4291935170
-0.17499699 -0.0093414756 0.71500003 4291869377
-0.17375146 -0.0093414756 0.71500003 4291803319
-0.17250593 -0.0093414756 0.71500003 4291540403
-0.1712604 -0.0093414756 0.71500003 4291606712
-0.17025264 -0.0093545411 0.71600002 4291606712
-0.16900538 -0.0093545411 0.71600002 4291080877
-0.16775809 -0.0093545411 0.71600002 4290357410
-0.16651084 -0.0093545411 0.71600002 4290556338
-0.16526355 -0.0093545411 0.71600002 4291872198
-0.16447444 -0.0093806712 0.71800005 4291938239
-0.16322368 -0.0093806712 0.71800005 4287990659
-0.16197293 -0.0093806712 0.71800005 4289037927
-0.1613937 -0.0094198659 0.72100002 4293248679
-0.16013773 -0.0094198659 0.72100002 4292592866
-0.15888174 -0.0094198659 0.72100002 4289105838
-0.15762576 -0.0094198659 0.72100002 4288382605
-0.14389357 -0.0091846958 0.70300001 4279578949
-0.14206012 -0.0091455011 0.70000005 4279776585
-0.14084072 -0.0091455011 0.70000005 4280107053
-0.13942187 -0.0091324365 0.69900006 4281620292
-0.1382042 -0.0091324365 0.69900006 4283327313
-0.13698654 -0.0091324365 0.69900006 4284116828
-0.13576889 -0.0091324365 0.69900006 4284513651
-0.13455123 -0.0091324365 0.69900006 4284316272
-0.13333356 -0.0091324365 0.69900006 4283726697
-0.13211592 -0.0091324365 0.69900006 4283726697
-0.13089827 -0.0091324365 0.69900006 4283791989
-0.12968059 -0.0091324365 0.69900006 4283858038
-0.12846294 -0.0091324365 0.69900006 4284252026
-0.12742731 -0.0091455011 0.70000005 4284712577
-0.12620792 -0.0091455011 0.70000005 4285369744
-0.12498852 -0.0091455011 0.70000005 4285172108
-0.12376911 -0.0091455011 0.70000005 4284514414
-0.12254972 -0.0091455011 0.70000005 4283790948
-0.12133031 -0.0091455011 0.70000005 4283067491
-0.21695742 -0.0081752073 0.72200006 4293251028
-0.21540093 -0.0081638834 0.72100002 4293054158
-0.21414495 -0.0081638834 0.72100002 4292659400
-0.21288897 -0.0081638834 0.72100002 4292856776
-0.21163298 -0.0081638834 0.72100002 4292593605
-0.20979345 -0.0081412373 0.71900004 4292330158
-0.20854095 -0.0081412373 0.71900004 4291211420
-0.20786503 -0.0081638834 0.72100002 4291342268
-0.20660906 -0.0081638834 0.72100002 4291408061
-0.20535307 -0.0081638834 0.72100002 4291473325
-0.20409709 -0.0081638834 0.72100002 4291473325
-0.20312247 -0.0081752073 0.72200006 4291538866
-0.20158513 -0.0081638834 0.72100002 4291802037
-0.19977345 -0.0081412373 0.71900004 4291933876
-0.19852096 -0.0081412373 0.71900004 4291539118
-0.19726846 -0.0081412373 0.71900004 4291539383
-0.19601595 -0.0081412373 0.71900004 4291605176
-0.19476345 -0.0081412373 0.71900004 4291670958
-0.19351096 -0.0081412373 0.71900004 4291539372
-0.19225848 -0.0081412373 0.71900004 4291604661
-0.19100598 -0.0081412373 0.71900004 4292394177
-0.19028129 -0.0081638834 0.72100002 4292263361
-0.18122463 -0.0080959452 0.71500003 4292591538
-0.1799791 -0.0080959452 0.71500003 4291670436
-0.17873359 -0.0080959452 0.71500003 4291474108
-0.17748804 -0.0080959452 0.71500003 4291934659
-0.17624252 -0.0080959452 0.71500003 4292066759
-0.17499699 -0.0080959452 0.71500003 4291737794
-0.17375146 -0.0080959452 0.71500003 4291737274
-0.17250593 -0.0080959452 0.71500003 4291671481
-0.1712604 -0.0080959452 0.71500003 4291737267
-0.17025264 -0.0081072692 0.71600002 4291539631
-0.16876934 -0.0080959452 0.71500003 4291211182
-0.1675238 -0.0080959452 0.71500003 4290487715
-0.16627827 -0.0080959452 0.71500003 4290883752
-0.16503274 -0.0080959452 0.71500003 4292199612
-0.16378722 -0.0080959452 0.71500003 4291806121
-0.16254167 -0.0080959452 0.71500003 4287529576
-0.16287528 -0.0081752073 0.72200006 4289167738
-0.16161756 -0.0081752073 0.72200006 4293773247
-0.16035983 -0.0081752073 0.72200006 4292919758
-0.15910211 -0.0081752073 0.72200006 4289827230
-0.15784438 -0.0081752073 0.72200006 4286674831
-0.15636978 -0.0081638834 0.72100002 4285621886
-0.14246601 -0.0079487469 0.70200002 4279053375
-0.14084072 -0.0079261009 0.70000005 4279645244
-0.13962132 -0.0079261009 0.70000005 4279579451
-0.1382042 -0.0079147778 0.69900006 4281093415
-0.13698654 -0.0079147778 0.69900006 4283067461
-0.13576889 -0.0079147778 0.69900006 4284249198
-0.13455123 -0.0079147778 0.69900006 4284775542
-0.13333356 -0.0079147778 0.69900006 4284185193
-0.13211592 -0.0079147778 0.69900006 4284316522
-0.13089827 -0.0079147778 0.69900006 4284251256
-0.12968059 -0.0079147778 0.69900006 4284448892
-0.12846294 -0.0079147778 0.69900006 4284776569
-0.12742731 -0.0079261009 0.70000005 4285237120
-0.12620792 -0.0079261009 0.70000005 4285105289
-0.12498852 -0.0079261009 0.70000005 4283920758
-0.12376911 -0.0079261009 0.70000005 4281818969
-0.12237465 -0.0079147778 0.69900006 4280108350
-0.2175584 -0.0069366447 0.72400004 4293053904
-0.2156997 -0.0069174832 0.72200006 4292856270
-0.21444198 -0.0069174832 0.72200006 4292988113
-0.21288897 -0.0069079017 0.72100002 4293054419
-0.21163298 -0.0069079017 0.72100002 4292199110
-0.21037701 -0.0069079017 0.72100002 4291672753
-0.20912102 -0.0069079017 0.72100002 4290949029
-0.20786503 -0.0069079017 0.72100002 4291210682
-0.20660906 -0.0069079017 0.72100002 4291737026
-0.20535307 -0.0069079017 0.72100002 4291737526
-0.20409709 -0.0069079017 0.72100002 4291342768
-0.20284112 -0.0069079017 0.72100002 4291735729
-0.20158513 -0.0069079017 0.72100002 4292130487
-0.19977345 -0.0068887398 0.71900004 4292064444
-0.19852096 -0.0068887398 0.71900004 4291735479
-0.19726846 -0.0068887398 0.71900004 4291670454
-0.19601595 -0.0068887398 0.71900004 4291801783
-0.19530521 -0.0069079017 0.72100002 4291801776
-0.19351096 -0.0068887398 0.71900004 4291669934
-0.19225848 -0.0068887398 0.71900004 4291801011
-0.19100598 -0.0068887398 0.71900004 4292392891
-0.18975347 -0.0068887398 0.71900004 4292064960
-0.1892875 -0.0069174832 0.72200006 4291472823
-0.18122463 -0.0068504158 0.71500003 4292065975
-0.1799791 -0.0068504158 0.71500003 4291539631
-0.17873359 -0.0068504158 0.71500003 4291474871
-0.17748804 -0.0068504158 0.71500003 4292001216
-0.17624252 -0.0068504158 0.71500003 4292133065
-0.17499699 -0.0068504158 0.71500003 4291540928
-0.17375146 -0.0068504158 0.71500003 4291408311
-0.17250593 -0.0068504158 0.71500003 4291671483
-0.1712604 -0.0068504158 0.71500003 4291999419
-0.17001486 -0.0068504158 0.71500003 4291801783
-0.16876934 -0.0068504158 0.71500003 4291276716
-0.1670552 -0.0068312539 0.71300006 4290684322
-0.16581316 -0.0068312539 0.71300006 4290947762
-0.16457112 -0.0068312539 0.71300006 4291342520
-0.16332906 -0.0068312539 0.71300006 4290685869
-0.16208702 -0.0068312539 0.71300006 4287856770
-0.16287528 -0.0069174832 0.72200006 4288841857
-0.16161756 -0.0069174832 0.72200006 4293052609
-0.16035983 -0.0069174832 0.72200006 4292591833
-0.15910211 -0.0069174832 0.72200006 4287525772
-0.15784438 -0.0069174832 0.72200006 4286737773
-0.15658666 -0.0069174832 0.72200006 4282592814
-0.15511379 -0.0069079017 0.72100002 4281089351
-0.14124312 -0.0067258626 0.70200002 4278462253
-0.13962132 -0.0067067011 0.70000005 4278462253
-0.13840191 -0.0067067011 0.70000005 4280235296
-0.13698654 -0.0066971201 0.69900006 4282208829
-0.13576889 -0.0066971201 0.69900006 4283719763
-0.13455123 -0.0066971201 0.69900006 4284837987
-0.13333356 -0.0066971201 0.69900006 4284710264
-0.13211592 -0.0066971201 0.69900006 4284710264
-0.13089827 -0.0066971201 0.69900006 4284644990
-0.12968059 -0.0066971201 0.69900006 4284973698
-0.12846294 -0.0066971201 0.69900006 4285629827
-0.12742731 -0.0067067011 0.70000005 4285498498
-0.12620792 -0.0067067011 0.70000005 4284513401
-0.12498852 -0.0067067011 0.70000005 4283460713
-0.12376911 -0.0067067011 0.70000005 4281228628
-0.12237465 -0.0066971201 0.69900006 4279649596
-0.21629719 -0.0056754365 0.72400004 4293119951
-0.21503599 -0.0056754365 0.72400004 4293054158
-0.21318425 -0.005659759 0.72200006 4292725706
-0.21163298 -0.0056519196 0.72100002 4290883502
-0.21037701 -0.0056519196 0.72100002 4290947764
-0.20912102 -0.0056519196 0.72100002 4291013557
-0.20815335 -0.005659759 0.72200006 4291671229
-0.20660906 -0.0056519196 0.72100002 4292000450
-0.20535307 -0.0056519196 0.72100002 4291803319
-0.20409709 -0.0056519196 0.72100002 4291211182
-0.20284112 -0.0056519196 0.72100002 4291604663
-0.20158513 -0.0056519196 0.72100002 4292131007
-0.19977345 -0.0056362418 0.71900004 4292065214
-0.19852096 -0.0056362418 0.71900004 4291670456
-0.19726846 -0.0056362418 0.71900004 4291604915
-0.1965612 -0.0056519196 0.72100002 4291604915
-0.19530521 -0.0056519196 0.72100002 4291669934
-0.19351096 -0.0056362418 0.71900004 4291669934
-0.19225848 -0.0056362418 0.71900004 4291669938
-0.19100598 -0.0056362418 0.71900004 4291801524
-0.18975347 -0.0056362418 0.71900004 4291867315
-0.18902531 -0.0056519196 0.72100002 4291340971
-0.18119416 -0.0055656908 0.71000004 4292591036
-0.18046424 -0.0055813682 0.71200001 4292065716
-0.17922394 -0.0055813682 0.71200001 4291144614
-0.17823362 -0.0055892081 0.71300006 4291079098
-0.17748804 -0.0056048855 0.71500003 4292000200
-0.17624252 -0.0056048855 0.71500003 4292132535
-0.17450748 -0.0055892081 0.71300006 4291277227
-0.17326544 -0.0055892081 0.71300006 4291341755
-0.17250593 -0.0056048855 0.71500003 4291407548
-0.1712604 -0.0056048855 0.71500003 4291539131
-0.17001486 -0.0056048855 0.71500003 4291341753
-0.16829726 -0.0055892081 0.71300006 4290420651
-0.1668209 -0.0055813682 0.71200001 4290223271
-0.1655806 -0.0055813682 0.71200001 4290224557
-0.16457112 -0.0055892081 0.71300006 4289698213
-0.16332906 -0.0055892081 0.71300006 4288844199
-0.16208702 -0.0055892081 0.71300006 4287791510
-0.16161756 -0.005659759 0.72200006 4294102996
-0.16035983 -0.005659759 0.72200006 4292787667
-0.15910211 -0.005659759 0.72200006 4287195262
-0.15784438 -0.005659759 0.72200006 4283256920
-0.15658666 -0.005659759 0.72200006 4280822579
-0.15511379 -0.0056519196 0.72100002 4279188039
-0.15343103 -0.0056362418 0.71900004 4279846225
-0.15196687 -0.0056284028 0.71800005 4279645778
-0.15029629 -0.0056127245 0.71600002 4279645778
-0.14842452 -0.0055892081 0.71300006 4278989131
-0.14697604 -0.0055813682 0.71200001 4278528580
-0.14532636 -0.0055656908 0.71000004 4278396479
-0.14002024 -0.0055029788 0.70200002 4278195998
-0.13840191 -0.0054873005 0.70000005 4278198582
-0.13718252 -0.0054873005 0.70000005 4278728010
-0.13576889 -0.0054794615 0.69900006 4281027120
-0.13455123 -0.0054794615 0.69900006 4283000910
-0.13333356 -0.0054794615 0.69900006 4284314238
-0.13211592 -0.0054794615 0.69900006 4285432718
-0.13089827 -0.0054794615 0.69900006 4285629568
-0.12968059 -0.0054794615 0.69900006 4285695361
-0.12846294 -0.0054794615 0.69900006 4285038208
-0.12742731 -0.0054873005 0.70000005 4283393640
-0.12620792 -0.0054873005 0.70000005 4280898895
-0.12534562 -0.0055029788 0.70200002 4279780671
-0.12376911 -0.0054873005 0.70000005 4279913826
-0.12254972 -0.0054873005 0.70000005 4280505964
-0.1241567 -0.0057303095 0.73100001 4282081877
-0.1228833 -0.0057303095 0.73100001 4282871393
-0.12194262 -0.0057459874 0.73300004 4284771917
-0.12066574 -0.0057459874 0.73300004 4285429847
-0.11971461 -0.0057616658 0.73500001 4289300832
-0.21629719 -0.0044142287 0.72400004 4293119951
-0.21503599 -0.0044142287 0.72400004 4292922315
-0.21318425 -0.0044020345 0.72200006 4291870659
-0.21192653 -0.0044020345 0.72200006 4290489006
-0.2106688 -0.0044020345 0.72200006 4290684072
-0.20941108 -0.0044020345 0.72200006 4291276210
-0.20815335 -0.0044020345 0.72200006 4292065727
-0.20660906 -0.0043959371 0.72100002 4292131520
-0.20478344 -0.0043837437 0.71900004 4291869375
-0.20353095 -0.0043837437 0.71900004 4291080116
-0.20227845 -0.0043837437 0.71900004 4291275960
-0.20158513 -0.0043959371 0.72100002 4291868353
-0.19977345 -0.0043837437 0.71900004 4291802810
-0.19852096 -0.0043837437 0.71900004 4291408052
-0.19726846 -0.0043837437 0.71900004 4291539120
-0.1965612 -0.0043959371 0.72100002 4291473327
-0.19530521 -0.0043959371 0.72100002 4291275428
-0.19351096 -0.0043837437 0.71900004 4291407270
-0.19225848 -0.0043837437 0.71900004 4291473327
-0.19100598 -0.0043837437 0.71900004 4291604913
-0.18975347 -0.0043837437 0.71900004 4291867833
-0.18850097 -0.0043837437 0.71900004 4291407282
-0.18724848 -0.0043837437 0.71900004 4291406514
-0.18243097 -0.0043288707 0.71000004 4291933113
-0.17872052 -0.0043288707 0.71000004 4291209385
-0.17823362 -0.0043471614 0.71300006 4291012772
-0.17748804 -0.0043593552 0.71500003 4292065716
-0.17624252 -0.0043593552 0.71500003 4292067259
-0.17450748 -0.0043471614 0.71300006 4291212206
-0.17326544 -0.0043471614 0.71300006 4291276212
-0.1720234 -0.0043471614 0.71300006 4291342005
-0.17078134 -0.0043471614 0.71300006 4291276725
-0.1695393 -0.0043471614 0.71300006 4290947760
-0.1680612 -0.0043410645 0.71200001 4290288285
-0.1663523 -0.0043288707 0.71000004 4290880422
-0.16511549 -0.0043288707 0.71000004 4290619315
-0.1643403 -0.0043410645 0.71200001 4289698213
-0.16332906 -0.0043471614 0.71300006 4288778144
-0.16208702 -0.0043471614 0.71300006 4288251544
-0.16197293 -0.0043776468 0.71800005 4291204756
-0.16094601 -0.0043837437 0.71900004 4293836733
-0.16013773 -0.0043959371 0.72100002 4292459205
-0.15888174 -0.0043959371 0.72100002 4285550683
-0.15762576 -0.0043959371 0.72100002 4282207031
-0.15636978 -0.0043959371 0.72100002 4281286185
-0.15511379 -0.0043959371 0.72100002 4280436295
-0.15343103 -0.0043837437 0.71900004 4280436295
-0.15196687 -0.0043776468 0.71800005 4280370000
-0.15029629 -0.0043654526 0.71600002 4280041036
-0.14884086 -0.0043593552 0.71500003 4280170825
-0.14718248 -0.0043471614 0.71300006 4279118137
-0.14573574 -0.0043410645 0.71200001 4279379249
-0.14408955 -0.0043288707 0.71000004 4278984491
-0.14285272 -0.0043288707 0.71000004 4278198304
-0.14161591 -0.0043288707 0.71000004 4278197019
-0.13718252 -0.0042679007 0.70000005 4278201659
-0.13596311 -0.0042679007 0.70000005 4278204454
-0.13455123 -0.0042618038 0.69900006 4279916100
-0.13333356 -0.0042618038 0.69900006 4283327063
-0.13211592 -0.0042618038 0.69900006 4285695611
-0.13108552 -0.0042679007 0.70000005 4285893256
-0.12968059 -0.0042618038 0.69900006 4285432705
-0.12846294 -0.0042618038 0.69900006 4283922044
-0.12742731 -0.0042679007 0.70000005 4282145633
-0.12620792 -0.0042679007 0.70000005 4279915332
-0.12398686 -0.0044508106 0.73000002 4282213981
-0.1228833 -0.0044569075 0.73100001 4282871654
-0.1216099 -0.0044569075 0.73100001 4283461202
-0.12066574 -0.0044691018 0.73300004 4284250461
-0.11938886 -0.0044691018 0.73300004 4286609215
-0.11843424 -0.0044812951 0.73500001 4289964658
-0.21659595 -0.0031573751 0.72500002 4291736761
-0.21503599 -0.0031530203 0.72400004 4291276210
-0.21318425 -0.0031443106 0.72200006 4291539383
-0.21192653 -0.0031443106 0.72200006 4291605176
-0.2106688 -0.0031443106 0.72200006 4291671735
-0.20941108 -0.0031443106 0.72200006 4292395458
-0.20815335 -0.0031443106 0.72200006 4292329656
-0.20660906 -0.0031399552 0.72100002 4292000434
-0.20478344 -0.0031312455 0.71900004 4291672514
-0.20353095 -0.0031312455 0.71900004 4290949048
-0.20227845 -0.0031312455 0.71900004 4291277247
-0.20158513 -0.0031399552 0.72100002 4291671749
-0.19977345 -0.0031312455 0.71900004 4291538866
-0.19852096 -0.0031312455 0.71900004 4291144364
-0.19781718 -0.0031399552 0.72100002 4291406764
-0.1965612 -0.0031399552 0.72100002 4291472814
-0.19476345 -0.0031312455 0.71900004 4291340960
-0.19351096 -0.0031312455 0.71900004 4291472289
-0.19225848 -0.0031312455 0.71900004 4291340971
-0.19100598 -0.0031312455 0.71900004 4291340971
-0.18896173 -0.0031181804 0.71600002 4291538870
-0.18745229 -0.0031138253 0.71500003 4291407028
-0.18620674 -0.0031138253 0.71500003 4291406764
-0.18496123 -0.0031138253 0.71500003 4292130487
-0.17872052 -0.0030920503 0.71000004 4291012263
-0.17823362 -0.0031051154 0.71300006 4291274147
-0.17748804 -0.0031138253 0.71500003 4292261042
-0.17624252 -0.0031138253 0.71500003 4292065966
-0.17426273 -0.00310076 0.71200001 4291473829
-0.17302243 -0.00310076 0.71200001 4291144623
-0.17178212 -0.00310076 0.71200001 4291210416
-0.17054181 -0.00310076 0.71200001 4291211184
-0.16930151 -0.00310076 0.71200001 4290948012
-0.16758913 -0.0030920503 0.71000004 4291210920
-0.1663523 -0.0030920503 0.71000004 4291737264
-0.16511549 -0.0030920503 0.71000004 4290817207
-0.16387866 -0.0030920503 0.71000004 4289961898
-0.16332906 -0.0031051154 0.71300006 4288713129
-0.16254167 -0.0031138253 0.71500003 4288186784
-0.16197293 -0.0031268904 0.71800005 4290485133
-0.16094601 -0.0031312455 0.71900004 4292064421
-0.16013773 -0.0031399552 0.72100002 4290948984
-0.15888174 -0.0031399552 0.72100002 4283185667
-0.15762576 -0.0031399552 0.72100002 4279909697
-0.15636978 -0.0031399552 0.72100002 4281094228
-0.15468353 -0.0031312455 0.71900004 4281028185
-0.15321764 -0.0031268904 0.71800005 4281093978
-0.15196687 -0.0031268904 0.71800005 4281421142
-0.15029629 -0.0031181804 0.71600002 4281355349
-0.14904901 -0.0031181804 0.71600002 4281158992
-0.14759532 -0.0031138253 0.71500003 4281027149
-0.14573574 -0.00310076 0.71200001 4280764743
-0.14449543 -0.00310076 0.71200001 4280698950
-0.14285272 -0.0030920503 0.71000004 4280370750
-0.14161591 -0.0030920503 0.71000004 4279383855
-0.13596311 -0.0030485005 0.70000005 4278267968
-0.13474372 -0.0030485005 0.70000005 4278267968
-0.13333356 -0.0030441454 0.69900006 4280764956
-0.13211592 -0.0030441454 0.69900006 4283659848
-0.13108552 -0.0030485005 0.70000005 4284116328
-0.12968059 -0.0030441454 0.69900006 4283129177
-0.12846294 -0.0030441454 0.69900006 4281093978
-0.12742731 -0.0030485005 0.70000005 4280238669
-0.12765901 -0.0031443106 0.72200006 4280569440
-0.12675141 -0.0031530203 0.72400004 4281490542
-0.12566353 -0.0031573751 0.72500002 4281687130
-0.12474377 -0.0031660853 0.72700006 4282542439
-0.12398686 -0.0031791502 0.73000002 4282673759
-0.1228833 -0.0031835053 0.73100001 4283265896
-0.1216099 -0.0031835053 0.73100001 4283462498
-0.12066574 -0.0031922155 0.73300004 4283791207
-0.11938886 -0.0031922155 0.73300004 4284970087
-0.11811198 -0.0031922155 0.73300004 4285891188
-0.11715387 -0.0032009254 0.73500001 4289304177
-0.21629719 -0.0018918123 0.72400004 4291605176
-0.21503599 -0.0018918123 0.72400004 4291736763
-0.21318425 -0.0018865862 0.72200006 4292131257
-0.21192653 -0.0018865862 0.72200006 4292328380
-0.2106688 -0.0018865862 0.72200006 4292197817
-0.20941108 -0.0018865862 0.72200006 4292592319
-0.20815335 -0.0018865862 0.72200006 4292461517
-0.20660906 -0.0018839733 0.72100002 4292329930
-0.20535307 -0.0018839733 0.72100002 4291870148
-0.20409709 -0.0018839733 0.72100002 4291540926
-0.20284112 -0.0018839733 0.72100002 4291606208
-0.20158513 -0.0018839733 0.72100002 4291606208
-0.20032915 -0.0018839733 0.72100002 4291341484
-0.19907317 -0.0018839733 0.72100002 4290880933
-0.19781718 -0.0018839733 0.72100002 4291208874
-0.1965612 -0.0018839733 0.72100002 4291274667
-0.19476345 -0.0018787471 0.71900004 4291209124
-0.19351096 -0.0018787471 0.71900004 4291209124
-0.19225848 -0.0018787471 0.71900004 4291209383
-0.19100598 -0.0018787471 0.71900004 4291407018
-0.18896173 -0.0018709081 0.71600002 4291472821
-0.18745229 -0.0018682951 0.71500003 4291407028
-0.18620674 -0.0018682951 0.71500003 4291603378
-0.18496123 -0.0018682951 0.71500003 4292129722
-0.18397263 -0.0018709081 0.71600002 4291802810
-0.18195976 -0.0018630693 0.71300006 4291868603
-0.18046424 -0.0018604563 0.71200001 4291867317
-0.17922394 -0.0018604563 0.71200001 4291209387
-0.17823362 -0.0018630693 0.71300006 4291471276
-0.17748804 -0.0018682951 0.71500003 4292392378
-0.17624252 -0.0018682951 0.71500003 4292065977
-0.17426273 -0.0018604563 0.71200001 4290881704
-0.17302243 -0.0018604563 0.71200001 4291077535
-0.17178212 -0.0018604563 0.71200001 4291274915
-0.17054181 -0.0018604563 0.71200001 4291078578
-0.16882595 -0.0018552302 0.71000004 4291276214
-0.16758913 -0.0018552302 0.71000004 4291211198
-0.1663523 -0.0018552302 0.71000004 4291211198
-0.16511549 -0.0018552302 0.71000004 4290555316
-0.16387866 -0.0018552302 0.71000004 4290160558
-0.16332906 -0.0018630693 0.71300006 4288977834
-0.16254167 -0.0018682951 0.71500003 4288846247
-0.16219851 -0.0018787471 0.71900004 4289567643
-0.16094601 -0.0018787471 0.71900004 4289304470
-0.16013773 -0.0018839733 0.72100002 4287531641
-0.15888174 -0.0018839733 0.72100002 4281939236
-0.15718852 -0.0018787471 0.71900004 4279716159
-0.15571915 -0.0018761343 0.71800005 4280834383
-0.15446839 -0.0018761343 0.71800005 4281093976
-0.15321764 -0.0018761343 0.71800005 4281093976
-0.15196687 -0.0018761343 0.71800005 4281093976
-0.15029629 -0.0018709081 0.71600002 4281093976
-0.14904901 -0.0018709081 0.71600002 4280962390
-0.14759532 -0.0018682951 0.71500003 4280699474
-0.14573574 -0.0018604563 0.71200001 4280568395
-0.14449543 -0.0018604563 0.71200001 4280502602
-0.14285272 -0.0018552302 0.71000004 4280305991
-0.14161591 -0.0018552302 0.71000004 4279845440
-0.14018136 -0.0018526172 0.70900005 4279581248
-0.13894629 -0.0018526172 0.70900005 4279449919
-0.13512869 -0.0018343261 0.70200002 4279319095
-0.13352431 -0.0018291002 0.70000005 4279646754
-0.13230492 -0.0018291002 0.70000005 4282607440
-0.13108552 -0.0018291002 0.70000005 4283196771
-0.12873816 -0.0018839733 0.72100002 4281092935
-0.12748219 -0.0018839733 0.72100002 4280832087
-0.12640128 -0.0018865862 0.72200006 4281621346
-0.1254902 -0.0018918123 0.72400004 4281687384
-0.12474377 -0.0018996514 0.72700006 4282542437
-0.12364718 -0.0019022641 0.72800004 4282805094
-0.1227152 -0.0019074902 0.73000002 4283463280
-0.1216099 -0.0019101031 0.73100001 4283331944
-0.12066574 -0.0019153293 0.73300004 4283726445
-0.11938886 -0.0019153293 0.73300004 4283923047
-0.11811198 -0.0019153293 0.73300004 4284185963
-0.11715387 -0.001920555 0.73500001 4285891136
-0.21629719 -0.00063060404 0.72400004 4293184724
-0.21503599 -0.00063060404 0.72400004 4293184724
-0.21318425 -0.00062886212 0.72200006 4293250254
-0.21192653 -0.00062886212 0.72200006 4293381583
-0.2106688 -0.00062886212 0.72200006 4293119181
-0.20941108 -0.00062886212 0.72200006 4293448402
-0.20815335 -0.00062886212 0.72200006 4293251801
-0.20689563 -0.00062886212 0.72200006 4292330699
-0.20535307 -0.00062799104 0.72100002 4292066507
-0.20409709 -0.00062799104 0.72100002 4292000714
-0.20312247 -0.00062886212 0.72200006 4291606723
-0.20158513 -0.00062799104 0.72100002 4291146172
-0.20032915 -0.00062799104 0.72100002 4290749604
-0.19907317 -0.00062799104 0.72100002 4290420382
-0.19781718 -0.00062799104 0.72100002 4290814375
-0.1965612 -0.00062799104 0.72100002 4290880424
-0.19476345 -0.00062624906 0.71900004 4290880674
-0.19351096 -0.00062624906 0.71900004 4290354330
-0.19225848 -0.00062624906 0.71900004 4290881185
-0.19100598 -0.00062624906 0.71900004 4292131509
-0.18896173 -0.00062363606 0.71600002 4292065210
-0.18745229 -0.00062276504 0.71500003 4291604915
-0.18620674 -0.00062276504 0.71500003 4291801020
-0.18496123 -0.00062276504 0.71500003 4291932863
-0.18397263 -0.00062363606 0.71600002 4291999923
-0.18195976 -0.00062102306 0.71300006 4292262838
-0.18071772 -0.00062102306 0.71300006 4291275962
-0.17947568 -0.00062102306 0.71300006 4291012533
-0.17873359 -0.00062276504 0.71500003 4291340723
-0.17773628 -0.00062363606 0.71600002 4292064190
-0.17648901 -0.00062363606 0.71600002 4291736763
-0.17426273 -0.00062015204 0.71200001 4290420903
-0.17302243 -0.00062015204 0.71200001 4290749084
-0.17178212 -0.00062015204 0.71200001 4291143842
-0.17054181 -0.00062015204 0.71200001 4291340471
-0.16882595 -0.00061841006 0.71000004 4292458953
-0.16758913 -0.00061841006 0.71000004 4292197312
-0.1663523 -0.00061841006 0.71000004 4291078830
-0.16511549 -0.00061841006 0.71000004 4290817457
-0.16387866 -0.00061841006 0.71000004 4291146422
-0.16332906 -0.00062102306 0.71300006 4289699503
-0.16254167 -0.00062276504 0.71500003 4289699503
-0.16197293 -0.0006253781 0.71800005 4289635234
-0.16072217 -0.0006253781 0.71800005 4287924360
-0.15969352 -0.00062624906 0.71900004 4286744910
-0.15844102 -0.00062624906 0.71900004 4281876484
-0.15718852 -0.00062624906 0.71900004 4280832337
-0.15528539 -0.00062363606 0.71600002 4281621852
-0.1540381 -0.00062363606 0.71600002 4282144864
-0.15257743 -0.00062276504 0.71500003 4282210658
-0.15133192 -0.00062276504 0.71500003 4282211160
-0.15008637 -0.00062276504 0.71500003 4282276953
-0.14884086 -0.00062276504 0.71500003 4281554781
-0.14759532 -0.00062276504 0.71500003 4281094230
-0.14573574 -0.00062015204 0.71200001 4281489238
-0.14449543 -0.00062015204 0.71200001 4281555031
-0.14325511 -0.00062015204 0.71200001 4281751377
-0.14201482 -0.00062015204 0.71200001 4281685584
-0.14037909 -0.00061841006 0.71000004 4281751377
-0.13894629 -0.0006175391 0.70900005 4281751377
-0.13771121 -0.0006175391 0.70900005 4281619791
-0.13589865 -0.00061492604 0.70600003 4281422411
-0.13466881 -0.00061492604 0.70600003 4281225033
-0.13343896 -0.00061492604 0.70600003 4281225033
-0.13220911 -0.00061492604 0.70600003 4280896846
-0.12873816 -0.00062799104 0.72100002 4282145366
-0.12748219 -0.00062799104 0.72100002 4282014812
-0.12640128 -0.00062886212 0.72200006 4282344033
-0.12514356 -0.00062886212 0.72200006 4282737756
-0.12474377 -0.0006332171 0.72700006 4282935135
-0.12347733 -0.0006332171 0.72700006 4282869605
-0.122379 -0.00063408806 0.72800004 4283790707
-0.12144355 -0.00063583005 0.73000002 4283397996
-0.12017188 -0.00063583005 0.73000002 4283858547
-0.1190631 -0.00063670106 0.73100001 4283858036
-0.11778969 -0.00063670106 0.73100001 4284252794
-0.11683508 -0.0006384431 0.73300004 4286284136
-0.21377479 0.00063060404 0.72400004 4293381583
-0.21251357 0.00063060404 0.72400004 4293250254
-0.21125236 0.00063060404 0.72400004 4293053134
-0.20999116 0.00063060404 0.72400004 4293448148
-0.20901825 0.00063147506 0.72500002 4293186521
-0.20746875 0.00063060404 0.72400004 4292660176
-0.2056379 0.00062886212 0.72200006 4292724425
-0.20438018 0.00062886212 0.72200006 4292461253
-0.20312247 0.00062886212 0.72200006 4292329928
-0.20158513 0.00062799104 0.72100002 4291145655
-0.20032915 0.00062799104 0.72100002 4291076779
-0.19907317 0.00062799104 0.72100002 4291142829
-0.19781718 0.00062799104 0.72100002 4291012274
-0.1965612 0.00062799104 0.72100002 4290946225
-0.19530521 0.00062799104 0.72100002 4290618279
-0.19404924 0.00062799104 0.72100002 4290421157
-0.19225848 0.00062624906 0.71900004 4290880672
-0.19100598 0.00062624906 0.71900004 4292328118
-0.18896173 0.00062363606 0.71600002 4292328398
-0.18771446 0.00062363606 0.71600002 4291670467
-0.18646717 0.00062363606 0.71600002 4291932338
-0.18521991 0.00062363606 0.71600002 4292261560
-0.18448654 0.0006253781 0.71800005 4292263359
-0.18247017 0.00062276504 0.71500003 4292131772
-0.18122463 0.00062276504 0.71500003 4291078830
-0.18023083 0.00062363606 0.71600002 4290815659
-0.1794835 0.0006253781 0.71800005 4291144110
-0.17846096 0.00063060404 0.72400004 4291408315
-0.17719975 0.00063060404 0.72400004 4290487213
-0.17593855 0.00063060404 0.72400004 4290749102
-0.1741948 0.00062886212 0.72200006 4291012274
-0.16882595 0.00061841006 0.71000004 4292459718
-0.16758913 0.00061841006 0.71000004 4292263622
-0.1663523 0.00061841006 0.71000004 4290947762
-0.16511549 0.00061841006 0.71000004 4290948264
-0.16387866 0.00061841006 0.71000004 4291277229
-0.16332906 0.00062102306 0.71300006 4289962666
-0.16254167 0.00062276504 0.71500003 4289962666
-0.16197293 0.0006253781 0.71800005 4289636011
-0.16072217 0.0006253781 0.71800005 4286215032
-0.15947141 0.0006253781 0.71800005 4284575319
-0.15777993 0.00062363606 0.71600002 4282535736
-0.15653265 0.00062363606 0.71600002 4281817433
-0.1550685 0.00062276504 0.71500003 4282014812
-0.15382297 0.00062276504 0.71500003 4282145114
-0.15215066 0.00062102306 0.71300006 4282145114
-0.15090862 0.00062102306 0.71300006 4281883482
-0.14966656 0.00062102306 0.71300006 4281883482
-0.14842452 0.00062102306 0.71300006 4281752674
-0.14718248 0.00062102306 0.71300006 4281423452
-0.14594042 0.00062102306 0.71300006 4281489238
-0.14408955 0.00061841006 0.71000004 4281555031
-0.14285272 0.00061841006 0.71000004 4281555029
-0.14161591 0.00061841006 0.71000004 4281555029
-0.14018136 0.0006175391 0.70900005 4281555281
-0.13894629 0.0006175391 0.70900005 4281621074
-0.13771121 0.0006175391 0.70900005 4281555029
-0.13609116 0.00061579706 0.70700002 4281489236
-0.13485956 0.00061579706 0.70700002 4281291089
-0.13362797 0.00061579706 0.70700002 4281225296
-0.13239637 0.00061579706 0.70700002 4280568395
-0.13153583 0.0006175391 0.70900005 4280766030
-0.12999415 0.00062799104 0.72100002 4282212454
-0.12873816 0.00062799104 0.72100002 4282015332
-0.12748219 0.00062799104 0.72100002 4282409052
-0.12640128 0.00062886212 0.72200006 4282409052
-0.12514356 0.00062886212 0.72200006 4282803549
-0.12440059 0.00063147506 0.72500002 4283066464
-0.12347733 0.0006332171 0.72700006 4282804062
-0.12221089 0.0006332171 0.72700006 4283593835
-0.12111082 0.00063408806 0.72800004 4283463532
-0.12017188 0.00063583005 0.73000002 4283726447
-0.1190631 0.00063670106 0.73100001 4283397737
-0.11778969 0.00063670106 0.73100001 4283924081
-0.11683508 0.0006384431 0.73300004 4286873457
-0.11555819 0.0006384431 0.73300004 4292137153
-0.21154416 0.0018944253 0.72500002 4293052882
-0.20901825 0.0018944253 0.72500002 4293120210
-0.20746875 0.0018918123 0.72400004 4293120210
-0.2056379 0.0018865862 0.72200006 4293186259
-0.20438018 0.0018865862 0.72200006 4293317846
-0.20312247 0.0018865862 0.72200006 4293317848
-0.20186473 0.0018865862 0.72200006 4293186005
-0.20032915 0.0018839733 0.72100002 4293250778
-0.19907317 0.0018839733 0.72100002 4293119449
-0.19809157 0.0018865862 0.72200006 4293054158
-0.19683383 0.0018865862 0.72200006 4292330178
