# .PCD v0.7 - Point Cloud Data file format
VERSION 0.7
FIELDS x y z rgba
SIZE 4 4 4 4
TYPE F F F U
COUNT 1 1 1 1
WIDTH 1006
HEIGHT 1
VIEWPOINT 0 0 0 1 0 0 0
POINTS 1006
DATA ascii
0.060509246 -0.052701604 0.74700004 4293120462
0.061810523 -0.052701604 0.74700004 4292199360
0.063280769 -0.052842703 0.74900001 4290685901
0.064585529 -0.052842703 0.74900001 4289172661
0.065890282 -0.052842703 0.74900001 4289501568
0.067195043 -0.052842703 0.74900001 4290817428
0.072058715 -0.053548217 0.75900006 4285693798
0.073574245 -0.053689316 0.76100004 4286680693
0.074899912 -0.053689316 0.76100004 4284049298
0.076225579 -0.053689316 0.76100004 4282272887
0.077551231 -0.053689316 0.76100004 4281293390
0.078876898 -0.053689316 0.76100004 4281885527
0.080202557 -0.053689316 0.76100004 4282672212
0.081528224 -0.053689316 0.76100004 4282869592
0.082853884 -0.053689316 0.76100004 4283262566
0.084179543 -0.053689316 0.76100004 4284117619
0.085280493 -0.053548217 0.75900006 4284574820
0.086374469 -0.05340711 0.75700003 4285364079
0.087693162 -0.05340711 0.75700003 4287266668
0.089011855 -0.05340711 0.75700003 4289898645
0.090330549 -0.05340711 0.75700003 4292661376
0.091649242 -0.05340711 0.75700003 4294174615
0.0084469598 -0.051331524 0.74600005 4294967295
0.009746491 -0.051331524 0.74600005 4294967295
0.011046024 -0.051331524 0.74600005 4294967038
0.012345555 -0.051331524 0.74600005 4293911009
0.013645088 -0.051331524 0.74600005 4292922821
0.014944619 -0.051331524 0.74600005 4291475119
0.016200602 -0.0511939 0.74400002 4291340440
0.017496651 -0.0511939 0.74400002 4291932833
0.018843215 -0.051331524 0.74600005 4292262838
0.020142749 -0.051331524 0.74600005 4292131509
0.021471024 -0.05140033 0.74700004 4292394425
0.022772297 -0.05140033 0.74700004 4293315527
0.024073573 -0.05140033 0.74700004 4293577670
0.025374847 -0.05140033 0.74700004 4293511877
0.02667612 -0.05140033 0.74700004 4293511879
0.027977394 -0.05140033 0.74700004 4294104016
0.029239476 -0.051331524 0.74600005 4294038482
0.030457132 -0.0511939 0.74400002 4293775566
0.031710502 -0.051125091 0.74300003 4293511625
0.032915968 -0.050987478 0.74100006 4293577418
0.034206789 -0.050987478 0.74100006 4294169037
0.035497613 -0.050987478 0.74100006 4294563795
0.036788434 -0.050987478 0.74100006 4294104792
0.037976474 -0.050849855 0.73900002 4293512912
0.039263815 -0.050849855 0.73900002 4293447628
0.040551152 -0.050849855 0.73900002 4294040021
0.041951723 -0.050987478 0.74100006 4293776328
0.046318911 -0.051537946 0.74900001 4293777363
0.047750838 -0.051675566 0.75100005 4293250517
0.049124405 -0.051744372 0.75200003 4292855759
0.050434388 -0.051744372 0.75200003 4292723391
0.051744372 -0.051744372 0.75200003 4292920771
0.052983809 -0.051675566 0.75100005 4293052359
0.05414746 -0.051537946 0.74900001 4293841875
0.05545222 -0.051537946 0.74900001 4293973463
0.056756977 -0.051537946 0.74900001 4293973463
0.058061738 -0.051537946 0.74900001 4293382866
0.059366498 -0.051537946 0.74900001 4293317073
0.060671248 -0.051537946 0.74900001 4292924112
0.061976008 -0.051537946 0.74900001 4291937217
0.063280769 -0.051537946 0.74900001 4291804352
0.064585529 -0.051537946 0.74900001 4289764769
0.065890282 -0.051537946 0.74900001 4289633410
0.067195043 -0.051537946 0.74900001 4290093961
0.072058715 -0.052226041 0.75900006 4286541916
0.073574245 -0.052363656 0.76100004 4287002467
0.074899912 -0.052363656 0.76100004 4284117610
0.076225579 -0.052363656 0.76100004 4281946441
0.077551231 -0.052363656 0.76100004 4280308000
0.078876898 -0.052363656 0.76100004 4281294895
0.080202557 -0.052363656 0.76100004 4282473762
0.08131396 -0.052226041 0.75900006 4283131435
0.08263614 -0.052226041 0.75900006 4283722822
0.083958313 -0.052226041 0.75900006 4283854665
0.085280493 -0.052226041 0.75900006 4285624114
0.086374469 -0.052088417 0.75700003 4287532111
0.087693162 -0.052088417 0.75700003 4289895311
0.089011855 -0.052088417 0.75700003 4291211170
-0.0045056837 -0.049562518 0.73900002 4294966264
-0.0032183453 -0.049562518 0.73900002 4294967294
-0.0019310071 -0.049562518 0.73900002 4294967293
-0.00064366905 -0.049562518 0.73900002 4294967295
0.00064541108 -0.049696654 0.74100006 4294967295
0.0019414593 -0.049830787 0.74300003 4294967295
0.0032357653 -0.049830787 0.74300003 4294967295
0.0045361686 -0.049897853 0.74400002 4294967295
0.005855734 -0.050099056 0.74700004 4294967295
0.0071474267 -0.05003199 0.74600005 4294966266
0.0084243128 -0.049897853 0.74400002 4294964719
0.0097203609 -0.049897853 0.74400002 4294699749
0.011016409 -0.049897853 0.74400002 4294040019
0.012345555 -0.05003199 0.74600005 4291342507
0.013645088 -0.05003199 0.74600005 4291932331
0.014944619 -0.05003199 0.74600005 4292195246
0.016244153 -0.05003199 0.74600005 4292326833
0.017543685 -0.05003199 0.74600005 4293445570
0.018843215 -0.05003199 0.74600005 4293315531
0.020142749 -0.05003199 0.74600005 4293052359
0.021471024 -0.050099056 0.74700004 4293380036
0.022772297 -0.050099056 0.74700004 4293511879
0.024041345 -0.05003199 0.74600005 4293511879
0.025340877 -0.05003199 0.74600005 4294038223
0.02664041 -0.05003199 0.74600005 4293710025
0.027865034 -0.049897853 0.74400002 4293972941
0.029161081 -0.049897853 0.74400002 4293907927
0.030416194 -0.049830787 0.74300003 4294302685
0.031625144 -0.049696654 0.74100006 4293512912
0.032915968 -0.049696654 0.74100006 4293315277
0.034206789 -0.049696654 0.74100006 4293643980
0.035497613 -0.049696654 0.74100006 4294038482
0.036788434 -0.049696654 0.74100006 4293972943
0.037976474 -0.049562518 0.73900002 4293709771
0.039263815 -0.049562518 0.73900002 4293645012
0.040551152 -0.049562518 0.73900002 4294434527
0.041951723 -0.049696654 0.74100006 4294302410
0.047750838 -0.050367322 0.75100005 4293711327
0.049059082 -0.050367322 0.75100005 4292790481
0.050367322 -0.050367322 0.75100005 4292789432
0.051675566 -0.050367322 0.75100005 4293315777
0.052983809 -0.050367322 0.75100005 4293052107
0.054292049 -0.050367322 0.75100005 4293512658
0.05545222 -0.050233185 0.74900001 4293710555
0.056756977 -0.050233185 0.74900001 4294762986
0.058061738 -0.050233185 0.74900001 4294173406
0.059366498 -0.050233185 0.74900001 4293515220
0.060671248 -0.050233185 0.74900001 4292858573
0.061976008 -0.050233185 0.74900001 4292858573
0.063111797 -0.050099056 0.74700004 4293515222
0.064413071 -0.050099056 0.74700004 4293975773
0.065714344 -0.050099056 0.74700004 4293645773
0.067015618 -0.050099056 0.74700004 4293317064
0.073380888 -0.05090386 0.75900006 4289109685
0.074899912 -0.051037993 0.76100004 4289307789
0.076225579 -0.051037993 0.76100004 4289570960
0.077551231 -0.051037993 0.76100004 4290359707
0.078876898 -0.051037993 0.76100004 4290886051
0.080202557 -0.051037993 0.76100004 4291543454
0.08131396 -0.05090386 0.75900006 4292267176
0.08263614 -0.05090386 0.75900006 4292660667
0.083958313 -0.05090386 0.75900006 4292989376
0.085280493 -0.05090386 0.75900006 4294964649
0.086602673 -0.05090386 0.75900006 4294967220
0.087924846 -0.05090386 0.75900006 4294967295
-0.010942374 -0.04827518 0.73900002 4294964981
-0.009655036 -0.04827518 0.73900002 4294964976
-0.0083676977 -0.04827518 0.73900002 4294965233
-0.0070803599 -0.04827518 0.73900002 4294965237
-0.0057930215 -0.04827518 0.73900002 4294966522
-0.0045056837 -0.04827518 0.73900002 4294967295
-0.0032183453 -0.04827518 0.73900002 4294967295
-0.0019310071 -0.04827518 0.73900002 4294967295
-0.00064366905 -0.04827518 0.73900002 4294967295
0.00064541108 -0.048405834 0.74100006 4294967295
0.0019362331 -0.048405834 0.74100006 4294967295
0.0032270555 -0.048405834 0.74100006 4294967295
0.0045300713 -0.048536479 0.74300003 4294967295
0.0058322162 -0.048601806 0.74400002 4294966527
0.0071282643 -0.048601806 0.74400002 4294833399
0.0084243128 -0.048601806 0.74400002 4293779162
0.0097203609 -0.048601806 0.74400002 4293647319
0.011016409 -0.048601806 0.74400002 4292527282
0.012345555 -0.048732456 0.74600005 4292593075
0.013645088 -0.048732456 0.74600005 4293051857
0.014944619 -0.048732456 0.74600005 4292788429
0.016244153 -0.048732456 0.74600005 4293049527
0.017543685 -0.048732456 0.74600005 4293707456
0.018843215 -0.048732456 0.74600005 4293772995
0.02016975 -0.048797779 0.74700004 4293772995
0.021471024 -0.048797779 0.74700004 4293773249
0.022741813 -0.048732456 0.74600005 4293707456
0.024041345 -0.048732456 0.74600005 4293380036
0.025272937 -0.048601806 0.74400002 4293906380
0.026568986 -0.048601806 0.74400002 4293513160
0.027865034 -0.048601806 0.74400002 4293776332
0.029161081 -0.048601806 0.74400002 4293579730
0.030416194 -0.048536479 0.74300003 4293777365
0.031625144 -0.048405834 0.74100006 4293448400
0.032915968 -0.048405834 0.74100006 4293119179
0.034206789 -0.048405834 0.74100006 4293117121
0.035497613 -0.048405834 0.74100006 4293774794
0.036788434 -0.048405834 0.74100006 4293841108
0.037976474 -0.04827518 0.73900002 4293841108
0.039263815 -0.04827518 0.73900002 4293972691
0.040551152 -0.04827518 0.73900002 4294433242
0.041951723 -0.048405834 0.74100006 4294302924
0.043242544 -0.048405834 0.74100006 4294302924
0.047750838 -0.049059082 0.75100005 4293975267
0.049059082 -0.049059082 0.75100005 4293054421
0.050367322 -0.049059082 0.75100005 4292855228
0.051675566 -0.049059082 0.75100005 4292921021
0.052983809 -0.049059082 0.75100005 4292986566
0.054292049 -0.049059082 0.75100005 4293447117
0.05545222 -0.048928428 0.74900001 4293447376
0.056756977 -0.048928428 0.74900001 4294829029
0.058061738 -0.048928428 0.74900001 4294568173
0.059366498 -0.048928428 0.74900001 4293318107
0.060509246 -0.048797779 0.74700004 4293252050
0.061810523 -0.048797779 0.74700004 4293186257
0.063111797 -0.048797779 0.74700004 4294235082
0.064326845 -0.048732456 0.74600005 4294959833
0.077551231 -0.049712334 0.76100004 4292856513
0.078876898 -0.049712334 0.76100004 4293119429
0.07999178 -0.04958168 0.75900006 4293513923
0.08131396 -0.04958168 0.75900006 4293974474
0.08263614 -0.04958168 0.75900006 4294827734
0.083958313 -0.04958168 0.75900006 4294964203
0.085280493 -0.04958168 0.75900006 4294967294
-0.010942374 -0.046987843 0.73900002 4294967295
-0.009655036 -0.046987843 0.73900002 4294967295
-0.0083676977 -0.046987843 0.73900002 4294967295
-0.0070803599 -0.046987843 0.73900002 4294967295
-0.0057930215 -0.046987843 0.73900002 4294967295
-0.0045056837 -0.046987843 0.73900002 4294967295
-0.0032183453 -0.046987843 0.73900002 4294967295
-0.0019310071 -0.046987843 0.73900002 4294967295
-0.00064366905 -0.046987843 0.73900002 4294967295
0.00064541108 -0.047115009 0.74100006 4294966015
0.0019362331 -0.047115009 0.74100006 4294635765
0.0032270555 -0.047115009 0.74100006 4293711598
0.0045300713 -0.047242172 0.74300003 4293316840
0.0058322162 -0.047305755 0.74400002 4291801565
0.0071282643 -0.047305755 0.74400002 4291209428
0.0084243128 -0.047305755 0.74400002 4291013528
0.0097203609 -0.047305755 0.74400002 4290552977
0.011016409 -0.047305755 0.74400002 4291274637
0.012345555 -0.047432926 0.74600005 4294961616
0.013645088 -0.047432926 0.74600005 4294963709
0.014944619 -0.047432926 0.74600005 4294435309
0.016244153 -0.047432926 0.74600005 4293841360
0.017543685 -0.047432926 0.74600005 4293577931
0.018843215 -0.047432926 0.74600005 4293643715
0.020142749 -0.047432926 0.74600005 4293775044
0.021442281 -0.047432926 0.74600005 4293840578
0.022741813 -0.047432926 0.74600005 4293708992
0.023976889 -0.047305755 0.74400002 4293314763
0.025272937 -0.047305755 0.74400002 4293841108
0.026568986 -0.047305755 0.74400002 4293513162
0.027865034 -0.047305755 0.74400002 4293776078
0.029161081 -0.047305755 0.74400002 4293776078
0.030457132 -0.047305755 0.74400002 4293907920
0.031710502 -0.047242172 0.74300003 4293579470
0.033004805 -0.047242172 0.74300003 4293579470
0.034299113 -0.047242172 0.74300003 4293578183
0.03559342 -0.047242172 0.74300003 4293710025
0.036887724 -0.047242172 0.74300003 4294038232
0.037976474 -0.046987843 0.73900002 4294038232
0.039263815 -0.046987843 0.73900002 4293710032
0.040551152 -0.046987843 0.73900002 4292920773
0.041838486 -0.046987843 0.73900002 4293248970
0.043125827 -0.046987843 0.73900002 4294432988
0.044413164 -0.046987843 0.73900002 4294171871
0.049059082 -0.047750838 0.75100005 4294172382
0.050367322 -0.047750838 0.75100005 4293447378
0.051744372 -0.047814421 0.75200003 4292986827
0.053054359 -0.047814421 0.75200003 4293052620
0.054292049 -0.047750838 0.75100005 4293710807
0.055600289 -0.047750838 0.75100005 4292988365
0.056605428 -0.047496505 0.74700004 4294303968
0.057906698 -0.047496505 0.74700004 4294305006
0.059207976 -0.047496505 0.74700004 4293778406
0.060509246 -0.047496505 0.74700004 4294567912
0.061810523 -0.047496505 0.74700004 4294966012
0.063111797 -0.047496505 0.74700004 4294966771
0.078876898 -0.048386667 0.76100004 4294967295
0.07999178 -0.048259504 0.75900006 4294967295
-0.014804387 -0.045700502 0.73900002 4294965751
-0.01351705 -0.045700502 0.73900002 4294966008
-0.012229712 -0.045700502 0.73900002 4294966526
-0.010942374 -0.045700502 0.73900002 4294967295
-0.009655036 -0.045700502 0.73900002 4294967295
-0.0083676977 -0.045700502 0.73900002 4294967295
-0.0070803599 -0.045700502 0.73900002 4294967295
-0.0057930215 -0.045700502 0.73900002 4294967295
-0.0045056837 -0.045700502 0.73900002 4294967295
-0.0032183453 -0.045700502 0.73900002 4294967295
-0.0019362331 -0.045824189 0.74100006 4294967295
-0.00064541108 -0.045824189 0.74100006 4294967295
0.00064541108 -0.045824189 0.74100006 4294701558
0.0019362331 -0.045824189 0.74100006 4293977836
0.0032270555 -0.045824189 0.74100006 4292726738
0.0045300713 -0.045947868 0.74300003 4291739843
0.0058243778 -0.045947868 0.74300003 4290752164
0.0071282643 -0.046009708 0.74400002 4290291613
0.0084243128 -0.046009708 0.74400002 4288516210
0.0097203609 -0.046009708 0.74400002 4289305470
0.011016409 -0.046009708 0.74400002 4290026871
0.012345555 -0.046133392 0.74600005 4294964173
0.013645088 -0.046133392 0.74600005 4294967295
0.014944619 -0.046133392 0.74600005 4294108141
0.016244153 -0.046133392 0.74600005 4293644239
0.017543685 -0.046133392 0.74600005 4293381324
0.018843215 -0.046133392 0.74600005 4293644489
0.020142749 -0.046133392 0.74600005 4293644489
0.021442281 -0.046133392 0.74600005 4293775044
0.022741813 -0.046133392 0.74600005 4293643715
0.023976889 -0.046009708 0.74400002 4293380036
0.025272937 -0.046009708 0.74400002 4293446085
0.026568986 -0.046009708 0.74400002 4293511363
0.027865034 -0.046009708 0.74400002 4294103244
0.029161081 -0.046009708 0.74400002 4293841871
0.030457132 -0.046009708 0.74400002 4293841871
0.031710502 -0.045947868 0.74300003 4293709771
0.033004805 -0.045947868 0.74300003 4293709771
0.034299113 -0.045947868 0.74300003 4293775564
0.03559342 -0.045947868 0.74300003 4293775564
0.036887724 -0.045947868 0.74300003 4293908953
0.037976474 -0.045700502 0.73900002 4293842904
0.039263815 -0.045700502 0.73900002 4293579470
0.040551152 -0.045700502 0.73900002 4292921284
0.041838486 -0.045700502 0.73900002 4293248189
0.043125827 -0.045700502 0.73900002 4294432463
0.044413164 -0.045700502 0.73900002 4294040283
0.053054359 -0.046504438 0.75200003 4293117121
0.054292049 -0.046442598 0.75100005 4293577672
0.055600289 -0.046442598 0.75100005 4292856513
-0.017355548 -0.044353064 0.73800004 4294967290
-0.016069952 -0.044353064 0.73800004 4294967295
-0.014804387 -0.044413164 0.73900002 4294967295
-0.01351705 -0.044413164 0.73900002 4294967295
-0.012229712 -0.044413164 0.73900002 4294967295
-0.010942374 -0.044413164 0.73900002 4294967295
-0.009655036 -0.044413164 0.73900002 4294967295
-0.0083676977 -0.044413164 0.73900002 4294967295
-0.0070803599 -0.044413164 0.73900002 4294967295
-0.0057930215 -0.044413164 0.73900002 4294967039
-0.0045056837 -0.044413164 0.73900002 4294240504
-0.0032183453 -0.044413164 0.73900002 4293911795
-0.0019362331 -0.044533368 0.74100006 4292922349
-0.00064541108 -0.044533368 0.74100006 4292527591
0.00064541108 -0.044533368 0.74100006 4291077845
0.0019362331 -0.044533368 0.74100006 4290485707
0.0032270555 -0.044533368 0.74100006 4289959833
0.0045300713 -0.044653561 0.74300003 4289104525
0.0058243778 -0.044653561 0.74300003 4290484601
0.0071186838 -0.044653561 0.74300003 4291603339
0.0084129898 -0.044653561 0.74300003 4292657322
0.0097203609 -0.044713661 0.74400002 4294499526
0.011016409 -0.044713661 0.74400002 4294764519
0.013645088 -0.044833858 0.74600005 4294965500
0.014944619 -0.044833858 0.74600005 4293910498
0.016244153 -0.044833858 0.74600005 4293250515
0.017543685 -0.044833858 0.74600005 4293053136
0.018843215 -0.044833858 0.74600005 4293645523
0.020142749 -0.044833858 0.74600005 4293843158
0.021442281 -0.044833858 0.74600005 4294104781
0.022741813 -0.044833858 0.74600005 4294170574
0.023976889 -0.044713661 0.74400002 4294038221
0.025272937 -0.044713661 0.74400002 4293643463
0.026568986 -0.044713661 0.74400002 4293643980
0.027865034 -0.044713661 0.74400002 4293841360
0.029121889 -0.044653561 0.74300003 4293775564
0.030416194 -0.044653561 0.74300003 4293775564
0.031710502 -0.044653561 0.74300003 4293710025
0.033004805 -0.044653561 0.74300003 4293710025
0.034299113 -0.044653561 0.74300003 4293709773
0.035641324 -0.044713661 0.74400002 4293709773
0.036887724 -0.044653561 0.74300003 4293973713
0.038079254 -0.044533368 0.74100006 4294170835
0.039263815 -0.044413164 0.73900002 4293776078
0.040551152 -0.044413164 0.73900002 4293513162
0.041838486 -0.044413164 0.73900002 4293447115
0.04306747 -0.044353064 0.73800004 4294236631
-0.021212338 -0.04306747 0.73800004 4294964981
-0.01992674 -0.04306747 0.73800004 4294966521
-0.018641144 -0.04306747 0.73800004 4294967292
-0.017355548 -0.04306747 0.73800004 4294967295
-0.016069952 -0.04306747 0.73800004 4294967295
-0.014804387 -0.043125827 0.73900002 4294967295
-0.01351705 -0.043125827 0.73900002 4294967295
-0.012229712 -0.043125827 0.73900002 4294967295
-0.010942374 -0.043125827 0.73900002 4294967295
-0.009655036 -0.043125827 0.73900002 4294967295
-0.0083676977 -0.043125827 0.73900002 4294967295
-0.0070803599 -0.043125827 0.73900002 4294967295
-0.0057930215 -0.043125827 0.73900002 4294966271
-0.0045056837 -0.043125827 0.73900002 4293845737
-0.0032183453 -0.043125827 0.73900002 4293253599
-0.0019362331 -0.043242544 0.74100006 4292068555
-0.00064541108 -0.043242544 0.74100006 4291081660
0.00064541108 -0.043242544 0.74100006 4290290581
0.0019362331 -0.043242544 0.74100006 4289895824
0.0032270555 -0.043242544 0.74100006 4289038970
0.0045300713 -0.043359257 0.74300003 4289565314
0.0058243778 -0.043359257 0.74300003 4291337339
0.0071186838 -0.043359257 0.74300003 4292916114
0.0084129898 -0.043359257 0.74300003 4294955469
0.0097203609 -0.04341761 0.74400002 4294963693
0.011016409 -0.04341761 0.74400002 4294967295
0.013645088 -0.043534327 0.74600005 4294965499
0.014944619 -0.043534327 0.74600005 4293911011
0.016244153 -0.043534327 0.74600005 4293580765
0.017543685 -0.043534327 0.74600005 4292988372
0.018843215 -0.043534327 0.74600005 4293514959
0.020142749 -0.043534327 0.74600005 4293712081
0.021442281 -0.043534327 0.74600005 4294104781
0.022741813 -0.043534327 0.74600005 4294302161
0.023976889 -0.04341761 0.74400002 4294301140
0.025272937 -0.04341761 0.74400002 4294104018
0.026533276 -0.043359257 0.74300003 4293775568
0.027827581 -0.043359257 0.74300003 4293775568
0.029121889 -0.043359257 0.74300003 4293841362
0.030416194 -0.043359257 0.74300003 4293775568
0.031710502 -0.043359257 0.74300003 4293775044
0.033004805 -0.043359257 0.74300003 4293775044
0.034299113 -0.043359257 0.74300003 4293774796
0.035641324 -0.04341761 0.74400002 4293643467
0.036937371 -0.04341761 0.74400002 4293577933
0.038182031 -0.043359257 0.74300003 4294038484
0.039370079 -0.043242544 0.74100006 4293841612
0.040551152 -0.043125827 0.73900002 4293710025
0.041838486 -0.043125827 0.73900002 4293512390
-0.022436963 -0.041668646 0.73600006 4294967295
-0.021212338 -0.041781873 0.73800004 4294967295
-0.01992674 -0.041781873 0.73800004 4294967295
-0.018641144 -0.041781873 0.73800004 4294967295
-0.017355548 -0.041781873 0.73800004 4294967295
-0.016069952 -0.041781873 0.73800004 4294967295
-0.014784356 -0.041781873 0.73800004 4294967295
-0.01351705 -0.041838486 0.73900002 4294967295
-0.012229712 -0.041838486 0.73900002 4294898940
-0.010942374 -0.041838486 0.73900002 4294372596
-0.009655036 -0.041838486 0.73900002 4293448941
-0.0083676977 -0.041838486 0.73900002 4293119975
-0.0070803599 -0.041838486 0.73900002 4291933655
-0.0057930215 -0.041838486 0.73900002 4291736020
-0.0045056837 -0.041838486 0.73900002 4290288326
-0.0032183453 -0.041838486 0.73900002 4289433017
-0.0019362331 -0.041951723 0.74100006 4289891476
-0.00064541108 -0.041951723 0.74100006 4289825683
0.00064541108 -0.041951723 0.74100006 4291010697
0.0019362331 -0.041951723 0.74100006 4292984488
0.0032270555 -0.041951723 0.74100006 4294960554
0.0045300713 -0.04206495 0.74300003 4294963895
0.0058243778 -0.04206495 0.74300003 4294966262
0.0071186838 -0.04206495 0.74300003 4294967295
0.0084129898 -0.04206495 0.74300003 4294967295
0.0097203609 -0.042121563 0.74400002 4294967295
0.014944619 -0.042234793 0.74600005 4294370275
0.017543685 -0.042234793 0.74600005 4293250526
0.018843215 -0.042234793 0.74600005 4293250504
0.020142749 -0.042234793 0.74600005 4293645262
0.021442281 -0.042234793 0.74600005 4293972941
0.022741813 -0.042234793 0.74600005 4294565078
0.023976889 -0.042121563 0.74400002 4294302163
0.025272937 -0.042121563 0.74400002 4294038734
0.026533276 -0.04206495 0.74300003 4293709521
0.027827581 -0.04206495 0.74300003 4293775314
0.029121889 -0.04206495 0.74300003 4293972439
0.030416194 -0.04206495 0.74300003 4293775316
0.031753179 -0.042121563 0.74400002 4293183166
0.033049226 -0.042121563 0.74400002 4293117373
0.034345273 -0.042121563 0.74400002 4293445579
0.035737135 -0.042234793 0.74600005 4293840337
0.037036669 -0.042234793 0.74600005 4293709521
0.038336199 -0.042234793 0.74600005 4293841108
-0.025001187 -0.040386535 0.73600006 4294967295
-0.023719076 -0.040386535 0.73600006 4294967295
-0.022436963 -0.040386535 0.73600006 4294967295
-0.021212338 -0.040496279 0.73800004 4294967295
-0.01992674 -0.040496279 0.73800004 4294967295
-0.018641144 -0.040496279 0.73800004 4294967295
-0.017355548 -0.040496279 0.73800004 4294967295
-0.016069952 -0.040496279 0.73800004 4294967295
-0.014784356 -0.040496279 0.73800004 4294967295
-0.01349876 -0.040496279 0.73800004 4294967295
-0.012213163 -0.040496279 0.73800004 4294503664
-0.010927567 -0.040496279 0.73800004 4294174699
-0.009655036 -0.040551152 0.73900002 4292990169
-0.0083676977 -0.040551152 0.73900002 4292069067
-0.0070803599 -0.040551152 0.73900002 4290950322
-0.0057930215 -0.040551152 0.73900002 4290161062
-0.0045056837 -0.040551152 0.73900002 4289368976
-0.0032183453 -0.040551152 0.73900002 4288908681
-0.0019362331 -0.040660899 0.74100006 4289495928
-0.00064541108 -0.040660899 0.74100006 4291535254
0.00064715307 -0.040770642 0.74300003 4292785828
0.0019414593 -0.040770642 0.74300003 4294298810
0.0032357653 -0.040770642 0.74300003 4294962665
0.0045300713 -0.040770642 0.74300003 4294967292
0.0058243778 -0.040770642 0.74300003 4294967295
0.0070995223 -0.040660899 0.74100006 4294967295
0.0083903437 -0.040660899 0.74100006 4294967295
0.02016975 -0.040990133 0.74700004 4294102994
0.021471024 -0.040990133 0.74700004 4293972414
0.022741813 -0.040935263 0.74600005 4294367172
0.023976889 -0.040825516 0.74400002 4294105815
0.025272937 -0.040825516 0.74400002 4293973972
0.026533276 -0.040770642 0.74300003 4293643215
0.027827581 -0.040770642 0.74300003 4293774544
0.029121889 -0.040770642 0.74300003 4293775316
0.030416194 -0.040770642 0.74300003 4293841110
0.031753179 -0.040825516 0.74400002 4292921023
0.03313807 -0.040935263 0.74600005 4292592058
0.034483764 -0.040990133 0.74700004 4292987079
0.035785038 -0.040990133 0.74700004 4293645010
0.037086312 -0.040990133 0.74700004 4293906382
0.038387585 -0.040990133 0.74700004 4293774796
-0.027453052 -0.038945027 0.73300004 4294967295
-0.026247587 -0.039051287 0.73500001 4294967295
-0.024967218 -0.039051287 0.73500001 4294967295
-0.023719076 -0.039104421 0.73600006 4294967295
-0.022436963 -0.039104421 0.73600006 4294967295
-0.021212338 -0.039210681 0.73800004 4294967295
-0.01992674 -0.039210681 0.73800004 4294967295
-0.018641144 -0.039210681 0.73800004 4294965498
-0.017355548 -0.039210681 0.73800004 4294370549
-0.016069952 -0.039210681 0.73800004 4294107121
-0.014784356 -0.039210681 0.73800004 4293052634
-0.01349876 -0.039210681 0.73800004 4292394960
-0.012213163 -0.039210681 0.73800004 4291209424
-0.010927567 -0.039210681 0.73800004 4290748873
-0.009655036 -0.039263815 0.73900002 4289960354
-0.0083563756 -0.039210681 0.73800004 4288841616
-0.0070707784 -0.039210681 0.73800004 4289628293
-0.0057930215 -0.039263815 0.73900002 4290680981
-0.0045056837 -0.039263815 0.73900002 4292325781
-0.0032183453 -0.039263815 0.73900002 4294496693
-0.0019414593 -0.039476339 0.74300003 4294965192
-0.00064715307 -0.039476339 0.74300003 4294967254
0.00064715307 -0.039476339 0.74300003 4294967295
0.0019414593 -0.039476339 0.74300003 4294967295
0.0032357653 -0.039476339 0.74300003 4294967295
0.0045178775 -0.039370079 0.74100006 4294967038
0.0058086999 -0.039370079 0.74100006 4294966268
0.0070995223 -0.039370079 0.74100006 4294966011
0.021442281 -0.039635733 0.74600005 4293905851
0.022680841 -0.039529469 0.74400002 4294432195
0.023976889 -0.039529469 0.74400002 4294302422
0.025272937 -0.039529469 0.74400002 4294302422
0.026533276 -0.039476339 0.74300003 4293775828
0.027827581 -0.039476339 0.74300003 4293381070
0.029121889 -0.039476339 0.74300003 4293446863
0.030416194 -0.039476339 0.74300003 4293512912
0.031753179 -0.039529469 0.74400002 4292986314
0.03313807 -0.039635733 0.74600005 4292525763
0.034576092 -0.039795119 0.74900001 4292789705
0.035880849 -0.039795119 0.74900001 4293578964
0.037185606 -0.039795119 0.74900001 4293315017
-0.036391255 -0.037668142 0.73300004 4293580000
-0.03501856 -0.037565362 0.73100001 4292858071
-0.033745155 -0.037565362 0.73100001 4292726742
-0.032471754 -0.037565362 0.73100001 4294764260
-0.031198351 -0.037565362 0.73100001 4294967295
-0.029924948 -0.037565362 0.73100001 4294967295
-0.028651547 -0.037565362 0.73100001 4294967295
-0.027453052 -0.037668142 0.73300004 4294967295
-0.026247587 -0.03777092 0.73500001 4294967295
-0.024967218 -0.03777092 0.73500001 4294967295
-0.023719076 -0.03782231 0.73600006 4294967295
-0.022436963 -0.03782231 0.73600006 4294967295
-0.021212338 -0.037925087 0.73800004 4294967295
-0.01992674 -0.037925087 0.73800004 4294964986
-0.018641144 -0.037925087 0.73800004 4294964729
-0.017355548 -0.037925087 0.73800004 4293844964
-0.016069952 -0.037925087 0.73800004 4293582049
-0.014784356 -0.037925087 0.73800004 4292135112
-0.01349876 -0.037925087 0.73800004 4290885301
-0.012213163 -0.037925087 0.73800004 4290160545
-0.010942374 -0.037976474 0.73900002 4289699994
-0.009655036 -0.037976474 0.73900002 4288841857
-0.0083563756 -0.037925087 0.73800004 4288776064
-0.0070707784 -0.037925087 0.73800004 4290611572
-0.0057930215 -0.037976474 0.73900002 4292125067
-0.0045056837 -0.037976474 0.73900002 4294820798
-0.0032183453 -0.037976474 0.73900002 4294959580
-0.0019414593 -0.038182031 0.74300003 4294967295
-0.00064715307 -0.038182031 0.74300003 4294967295
0.00064802408 -0.038233418 0.74400002 4294967295
0.0019440722 -0.038233418 0.74400002 4294967295
0.0032357653 -0.038182031 0.74300003 4294966268
0.0045178775 -0.038079254 0.74100006 4294966268
0.021442281 -0.038336199 0.74600005 4293314232
0.022680841 -0.038233418 0.74400002 4294301127
0.023976889 -0.038233418 0.74400002 4294302422
0.025272937 -0.038233418 0.74400002 4294434264
0.026568986 -0.038233418 0.74400002 4294236377
0.027865034 -0.038233418 0.74400002 4293249481
0.029161081 -0.038233418 0.74400002 4293511373
0.030457132 -0.038233418 0.74400002 4293774544
0.031838536 -0.038336199 0.74600005 4293183938
0.03313807 -0.038336199 0.74600005 4292723387
0.034576092 -0.038490366 0.74900001 4292855230
0.035880849 -0.038490366 0.74900001 4293776332
-0.048824783 -0.03614302 0.72800004 4294967295
-0.047556605 -0.03614302 0.72800004 4294967295
-0.038945027 -0.036391255 0.73300004 4290425806
-0.037668142 -0.036391255 0.73300004 4290228695
-0.036391255 -0.036391255 0.73300004 4289768144
-0.03501856 -0.036291961 0.73100001 4289507784
-0.033745155 -0.036291961 0.73100001 4288981440
-0.032471754 -0.036291961 0.73100001 4292198106
-0.031198351 -0.036291961 0.73100001 4294967295
-0.029924948 -0.036291961 0.73100001 4294967295
-0.028651547 -0.036291961 0.73100001 4294967295
-0.027453052 -0.036391255 0.73300004 4294967295
-0.026247587 -0.036490548 0.73500001 4294967292
-0.025001187 -0.036540199 0.73600006 4294766847
-0.023719076 -0.036540199 0.73600006 4294306297
-0.022436963 -0.036540199 0.73600006 4293513966
-0.021212338 -0.036639489 0.73800004 4293053415
-0.01992674 -0.036639489 0.73800004 4292130001
-0.018641144 -0.036639489 0.73800004 4291866829
-0.017355548 -0.036639489 0.73800004 4290484413
-0.016069952 -0.036639489 0.73800004 4289957812
-0.014784356 -0.036639489 0.73800004 4289695115
-0.01349876 -0.036639489 0.73800004 4289234820
-0.012213163 -0.036639489 0.73800004 4290747776
-0.010942374 -0.036689136 0.73900002 4292392600
-0.009655036 -0.036689136 0.73900002 4294366629
-0.0083676977 -0.036689136 0.73900002 4294963135
-0.0070803599 -0.036689136 0.73900002 4294966262
-0.0058086999 -0.036788434 0.74100006 4294967295
0.022680841 -0.036937371 0.74400002 4294170826
0.023976889 -0.036937371 0.74400002 4294171606
0.025340877 -0.037036669 0.74600005 4294500570
0.026568986 -0.036937371 0.74400002 4293973713
0.027865034 -0.036937371 0.74400002 4292920769
0.029161081 -0.036937371 0.74400002 4293315029
0.030457132 -0.036937371 0.74400002 4294959854
0.031838536 -0.037036669 0.74600005 4294829018
0.03313807 -0.037036669 0.74600005 4294631638
0.034576092 -0.037185606 0.74900001 4294829018
-0.052773893 -0.034970652 0.73000002 4294967295
-0.051502235 -0.034970652 0.73000002 4294967295
-0.050092958 -0.034874842 0.72800004 4294967295
-0.048824783 -0.034874842 0.72800004 4294967295
-0.047556605 -0.034874842 0.72800004 4293716730
-0.046288431 -0.034874842 0.72800004 4293256179
-0.045020252 -0.034874842 0.72800004 4292402413
-0.043872274 -0.034970652 0.73000002 4291744483
-0.042600613 -0.034970652 0.73000002 4287807958
-0.041385569 -0.03501856 0.73100001 4286689476
-0.040112168 -0.03501856 0.73100001 4286689226
-0.038838763 -0.03501856 0.73100001 4287347157
-0.037668142 -0.03511437 0.73300004 4287543516
-0.036391255 -0.03511437 0.73300004 4287609309
-0.03501856 -0.03501856 0.73100001 4287674838
-0.033745155 -0.03501856 0.73100001 4286687687
-0.032471754 -0.03501856 0.73100001 4291015354
-0.031198351 -0.03501856 0.73100001 4294965759
-0.029924948 -0.03501856 0.73100001 4294967295
-0.028729938 -0.03511437 0.73300004 4294967295
-0.027527958 -0.035210177 0.73500001 4294967295
-0.0262833 -0.035258085 0.73600006 4294967039
-0.025001187 -0.035258085 0.73600006 4294240754
-0.023719076 -0.035258085 0.73600006 4293846252
-0.022497933 -0.035353892 0.73800004 4292858071
-0.021212338 -0.035353892 0.73800004 4292266191
-0.01992674 -0.035353892 0.73800004 4291475123
-0.018641144 -0.035353892 0.73800004 4290225057
-0.017355548 -0.035353892 0.73800004 4289892494
-0.016069952 -0.035353892 0.73800004 4289497736
-0.014784356 -0.035353892 0.73800004 4289167726
-0.01349876 -0.035353892 0.73800004 4290615172
-0.012213163 -0.035353892 0.73800004 4292257685
-0.010942374 -0.035401799 0.73900002 4293507752
-0.009655036 -0.035401799 0.73900002 4294957526
-0.0083676977 -0.035401799 0.73900002 4294967036
-0.0070803599 -0.035401799 0.73900002 4294967295
0.024041345 -0.035737135 0.74600005 4294171354
0.025340877 -0.035737135 0.74600005 4294302939
0.026568986 -0.035641324 0.74400002 4293775037
0.027865034 -0.035641324 0.74400002 4292919728
0.029161081 -0.035641324 0.74400002 4293052107
0.030457132 -0.035641324 0.74400002 4294960617
0.031838536 -0.035737135 0.74600005 4294961123
0.03313807 -0.035737135 0.74600005 4294961380
0.034437601 -0.035737135 0.74600005 4294961893
-0.055317216 -0.033698995 0.73000002 4294967295
-0.054045554 -0.033698995 0.73000002 4294767604
-0.052773893 -0.033698995 0.73000002 4292860386
-0.051502235 -0.033698995 0.73000002 4290952389
-0.050230574 -0.033698995 0.73000002 4289639373
-0.048958916 -0.033698995 0.73000002 4288718271
-0.047687255 -0.033698995 0.73000002 4288522200
-0.046288431 -0.033606671 0.72800004 4288785372
-0.045020252 -0.033606671 0.72800004 4288656854
-0.043872274 -0.033698995 0.73000002 4288854234
-0.042600613 -0.033698995 0.73000002 4288463325
-0.041385569 -0.033745155 0.73100001 4288726241
-0.040112168 -0.033745155 0.73100001 4288595434
-0.038838763 -0.033745155 0.73100001 4288595434
-0.037565362 -0.033745155 0.73100001 4288792551
-0.036291961 -0.033745155 0.73100001 4288792551
-0.03501856 -0.033745155 0.73100001 4288725989
-0.033837482 -0.033837482 0.73300004 4287804887
-0.032471754 -0.033745155 0.73100001 4290625207
-0.031198351 -0.033745155 0.73100001 4290954428
-0.030088698 -0.03392981 0.73500001 4293510621
-0.028808327 -0.03392981 0.73500001 4294694894
-0.027527958 -0.03392981 0.73500001 4293512408
-0.0262833 -0.033975974 0.73600006 4292788429
-0.025001187 -0.033975974 0.73600006 4291275221
-0.023783529 -0.034068298 0.73800004 4290748877
-0.022497933 -0.034068298 0.73800004 4290091935
-0.021212338 -0.034068298 0.73800004 4289236626
-0.01992674 -0.034068298 0.73800004 4289825922
-0.018641144 -0.034068298 0.73800004 4289891715
-0.017355548 -0.034068298 0.73800004 4291206823
-0.016069952 -0.034068298 0.73800004 4293575371
-0.014784356 -0.034068298 0.73800004 4294961334
-0.01349876 -0.034068298 0.73800004 4294967245
-0.012213163 -0.034068298 0.73800004 4294967295
-0.010942374 -0.034114458 0.73900002 4294967295
0.024041345 -0.034437601 0.74600005 4293975006
0.025340877 -0.034437601 0.74600005 4293777626
0.026568986 -0.034345273 0.74400002 4292788919
0.027865034 -0.034345273 0.74400002 4292591540
0.029161081 -0.034345273 0.74400002 4293249754
0.030457132 -0.034345273 0.74400002 4294967039
0.031838536 -0.034437601 0.74600005 4294967295
-0.056588873 -0.032427333 0.73000002 4294967292
-0.055317216 -0.032427333 0.73000002 4294967295
-0.054045554 -0.032427333 0.73000002 4294966522
-0.052629311 -0.032338493 0.72800004 4291747563
-0.051361132 -0.032338493 0.72800004 4288721084
-0.050092958 -0.032338493 0.72800004 4284786636
-0.048958916 -0.032427333 0.73000002 4285312980
-0.047687255 -0.032427333 0.73000002 4286950877
-0.046415593 -0.032427333 0.73000002 4287345635
-0.045143936 -0.032427333 0.73000002 4287608539
-0.043872274 -0.032427333 0.73000002 4288069090
-0.042600613 -0.032427333 0.73000002 4288463587
-0.041328952 -0.032427333 0.73000002 4288660966
-0.040057294 -0.032427333 0.73000002 4288923374
-0.038785636 -0.032427333 0.73000002 4288857581
-0.037565362 -0.032471754 0.73100001 4288857579
-0.036291961 -0.032471754 0.73100001 4288528615
-0.03501856 -0.032471754 0.73100001 4288331487
-0.033837482 -0.032560598 0.73300004 4287476178
-0.032560598 -0.032560598 0.73300004 4287473087
-0.031283714 -0.032560598 0.73300004 4288262347
-0.030088698 -0.032649439 0.73500001 4291015100
-0.028808327 -0.032649439 0.73500001 4291870409
-0.027527958 -0.032649439 0.73500001 4292918983
-0.0262833 -0.032693859 0.73600006 4292129724
-0.025001187 -0.032693859 0.73600006 4290161312
-0.023783529 -0.0327827 0.73800004 4289634968
-0.022497933 -0.0327827 0.73800004 4288449148
-0.021212338 -0.0327827 0.73800004 4288449148
-0.01992674 -0.0327827 0.73800004 4289759086
-0.018641144 -0.0327827 0.73800004 4291929999
-0.017355548 -0.0327827 0.73800004 4293377726
-0.016069952 -0.0327827 0.73800004 4294759379
-0.014804387 -0.032827124 0.73900002 4294963183
-0.01351705 -0.032827124 0.73900002 4294967295
0.027977394 -0.033182491 0.74700004 4293771408
0.029278668 -0.033182491 0.74700004 4294434273
-0.060238369 -0.031070314 0.72800004 4294967036
-0.058970191 -0.031070314 0.72800004 4294967295
-0.057622757 -0.031027636 0.72700006 4294967295
-0.056356318 -0.031027636 0.72700006 4294967295
-0.055165663 -0.031070314 0.72800004 4294967295
-0.053897489 -0.031070314 0.72800004 4294967295
-0.052629311 -0.031070314 0.72800004 4294967295
-0.051361132 -0.031070314 0.72800004 4292927709
-0.050092958 -0.031070314 0.72800004 4288725239
-0.048958916 -0.031155672 0.73000002 4288462068
-0.047687255 -0.031155672 0.73000002 4288529128
-0.046415593 -0.031155672 0.73000002 4288660970
-0.045143936 -0.031155672 0.73000002 4288791784
-0.043872274 -0.031155672 0.73000002 4288857577
-0.042600613 -0.031155672 0.73000002 4288725478
-0.041328952 -0.031155672 0.73000002 4288462049
-0.040057294 -0.031155672 0.73000002 4287805671
-0.038785636 -0.031155672 0.73000002 4287674084
-0.037565362 -0.031198351 0.73100001 4286884834
-0.036291961 -0.031198351 0.73100001 4286161111
-0.03501856 -0.031198351 0.73100001 4285373628
-0.033745155 -0.031198351 0.73100001 4284847284
-0.032560598 -0.031283714 0.73300004 4284516272
-0.031283714 -0.031283714 0.73300004 4283266206
-0.030088698 -0.031369068 0.73500001 4286344355
-0.028808327 -0.031369068 0.73500001 4289699798
-0.027527958 -0.031369068 0.73500001 4290154637
-0.0262833 -0.031411748 0.73600006 4289167742
-0.025001187 -0.031411748 0.73600006 4289827178
-0.023783529 -0.031497106 0.73800004 4291143038
-0.022497933 -0.031497106 0.73800004 4292984728
-0.021212338 -0.031497106 0.73800004 4294826932
-0.01992674 -0.031497106 0.73800004 4294966225
-0.018641144 -0.031497106 0.73800004 4294967262
-0.017355548 -0.031497106 0.73800004 4294967295
-0.016069952 -0.031497106 0.73800004 4294967295
-0.014804387 -0.031539787 0.73900002 4294967039
-0.063778982 -0.029679328 0.72500002 4294966009
-0.062516034 -0.029679328 0.72500002 4294966521
-0.061422057 -0.029761203 0.72700006 4294966778
-0.060155623 -0.029761203 0.72700006 4294967293
-0.058889192 -0.029761203 0.72700006 4294967295
-0.057622757 -0.029761203 0.72700006 4294967295
-0.056356318 -0.029761203 0.72700006 4294967295
-0.055089887 -0.029761203 0.72700006 4294967295
-0.053897489 -0.029802142 0.72800004 4294967295
-0.052629311 -0.029802142 0.72800004 4294967295
-0.051361132 -0.029802142 0.72800004 4292993505
-0.050092958 -0.029802142 0.72800004 4291415781
-0.048958916 -0.029884012 0.73000002 4290034128
-0.047687255 -0.029884012 0.73000002 4288922600
-0.046415593 -0.029884012 0.73000002 4288988649
-0.045143936 -0.029884012 0.73000002 4288988645
-0.043872274 -0.029884012 0.73000002 4288922852
-0.042600613 -0.029884012 0.73000002 4288068829
-0.041328952 -0.029884012 0.73000002 4288003036
-0.040057294 -0.029884012 0.73000002 4286558166
-0.038785636 -0.029884012 0.73000002 4286426579
-0.037513971 -0.029884012 0.73000002 4285834960
-0.036242314 -0.029884012 0.73000002 4285440203
-0.034970652 -0.029884012 0.73000002 4284782007
-0.033745155 -0.029924948 0.73100001 4284058283
-0.032560598 -0.030006822 0.73300004 4282939805
-0.031283714 -0.030006822 0.73300004 4281360773
-0.030088698 -0.030088698 0.73500001 4284639325
-0.028808327 -0.030088698 0.73500001 4287600267
-0.027527958 -0.030088698 0.73500001 4288905587
-0.0262833 -0.030129636 0.73600006 4289366138
-0.025001187 -0.030129636 0.73600006 4290941557
-0.023783529 -0.030211508 0.73800004 4292455052
-0.022497933 -0.030211508 0.73800004 4294822856
-0.02124108 -0.030252445 0.73900002 4294962922
-0.01992674 -0.030211508 0.73800004 4294967295
-0.018641144 -0.030211508 0.73800004 4294967295
-0.065311067 -0.028533963 0.72800004 4294967290
-0.063778982 -0.028416377 0.72500002 4294967295
-0.062516034 -0.028416377 0.72500002 4294967295
-0.061422057 -0.02849477 0.72700006 4294967295
-0.060155623 -0.02849477 0.72700006 4294967295
-0.058889192 -0.02849477 0.72700006 4294967295
-0.057622757 -0.02849477 0.72700006 4294967295
-0.056356318 -0.02849477 0.72700006 4294967295
-0.055089887 -0.02849477 0.72700006 4294967295
-0.053897489 -0.028533963 0.72800004 4294967295
-0.052629311 -0.028533963 0.72800004 4294967295
-0.051361132 -0.028533963 0.72800004 4291414455
-0.050092958 -0.028533963 0.72800004 4289183702
-0.048958916 -0.028612353 0.73000002 4288788945
-0.047687255 -0.028612353 0.73000002 4287805920
-0.046415593 -0.028612353 0.73000002 4287411419
-0.045143936 -0.028612353 0.73000002 4286688207
-0.043872274 -0.028612353 0.73000002 4286490828
-0.042600613 -0.028612353 0.73000002 4285964234
-0.041328952 -0.028612353 0.73000002 4285766855
-0.040057294 -0.028612353 0.73000002 4284320708
-0.038785636 -0.028612353 0.73000002 4284188866
-0.037513971 -0.028612353 0.73000002 4283991471
-0.036242314 -0.028612353 0.73000002 4283662762
-0.034970652 -0.028612353 0.73000002 4283332764
-0.033745155 -0.028651547 0.73100001 4282214283
-0.032560598 -0.028729938 0.73300004 4281882240
-0.031283714 -0.028729938 0.73300004 4280500587
-0.030088698 -0.028808327 0.73500001 4285552000
-0.028808327 -0.028808327 0.73500001 4291736542
-0.027527958 -0.028808327 0.73500001 4294826912
-0.0262833 -0.028847525 0.73600006 4294962866
-0.025001187 -0.028847525 0.73600006 4294965494
-0.023783529 -0.028925914 0.73800004 4294967294
-0.067847423 -0.027265789 0.72800004 4294966007
-0.066579245 -0.027265789 0.72800004 4294967035
-0.065221362 -0.027228335 0.72700006 4294967295
-0.063778982 -0.027153427 0.72500002 4294967295
-0.062516034 -0.027153427 0.72500002 4294967295
-0.061253082 -0.027153427 0.72500002 4294967295
-0.05999013 -0.027153427 0.72500002 4294967295
-0.058727182 -0.027153427 0.72500002 4294967295
-0.057622757 -0.027228335 0.72700006 4294967295
-0.056356318 -0.027228335 0.72700006 4294967295
-0.055089887 -0.027228335 0.72700006 4294967295
-0.053823452 -0.027228335 0.72700006 4294967295
-0.052557018 -0.027228335 0.72700006 4294901247
-0.051290583 -0.027228335 0.72700006 4290427326
-0.050092958 -0.027265789 0.72800004 4287282129
-0.048824783 -0.027265789 0.72800004 4287479508
-0.047556605 -0.027265789 0.72800004 4286494423
-0.046288431 -0.027265789 0.72800004 4286363094
-0.045020252 -0.027265789 0.72800004 4285901255
-0.043872274 -0.027340693 0.73000002 4285703876
-0.042600613 -0.027340693 0.73000002 4285373630
-0.041328952 -0.027340693 0.73000002 4284978872
-0.040057294 -0.027340693 0.73000002 4284452015
-0.038785636 -0.027340693 0.73000002 4283925671
-0.037513971 -0.027340693 0.73000002 4283858338
-0.036242314 -0.027340693 0.73000002 4283003029
-0.034970652 -0.027340693 0.73000002 4282802306
-0.033745155 -0.027378146 0.73100001 4281486446
-0.032649439 -0.027527958 0.73500001 4281877066
-0.031369068 -0.027527958 0.73500001 4284377457
-0.030088698 -0.027527958 0.73500001 4289233274
-0.028808327 -0.027527958 0.73500001 4293444026
-0.027527958 -0.027527958 0.73500001 4294959328
-0.0262833 -0.027565412 0.73600006 4294967295
-0.025001187 -0.027565412 0.73600006 4294967295
-0.023783529 -0.027640317 0.73800004 4294967295
-0.070287094 -0.025961902 0.72700006 4294967295
-0.069020659 -0.025961902 0.72700006 4294967295
-0.067567833 -0.025890477 0.72500002 4294967295
-0.066304877 -0.025890477 0.72500002 4294967295
-0.065041929 -0.025890477 0.72500002 4294967295
-0.063778982 -0.025890477 0.72500002 4294967295
-0.062516034 -0.025890477 0.72500002 4294967295
-0.061253082 -0.025890477 0.72500002 4294967295
-0.05999013 -0.025890477 0.72500002 4294967295
-0.058727182 -0.025890477 0.72500002 4294967295
-0.057464227 -0.025890477 0.72500002 4294967295
-0.056201279 -0.025890477 0.72500002 4294967295
-0.055089887 -0.025961902 0.72700006 4294967294
-0.053823452 -0.025961902 0.72700006 4292464067
-0.052557018 -0.025961902 0.72700006 4289178831
-0.051290583 -0.025961902 0.72700006 4287073711
-0.050024152 -0.025961902 0.72700006 4285374652
-0.048824783 -0.025997611 0.72800004 4285571774
-0.047556605 -0.025997611 0.72800004 4284716995
-0.046288431 -0.025997611 0.72800004 4284585409
-0.045020252 -0.025997611 0.72800004 4284058300
-0.043872274 -0.026069032 0.73000002 4284058300
-0.042600613 -0.026069032 0.73000002 4283596976
-0.041328952 -0.026069032 0.73000002 4283399854
-0.040057294 -0.026069032 0.73000002 4282937758
-0.038785636 -0.026069032 0.73000002 4282740123
-0.037513971 -0.026069032 0.73000002 4282738317
-0.036242314 -0.026069032 0.73000002 4281619580
-0.034970652 -0.026069032 0.73000002 4283718003
-0.033745155 -0.026104743 0.73100001 4287336618
-0.032471754 -0.026104743 0.73100001 4292922488
-0.031369068 -0.026247587 0.73500001 4294965669
-0.030088698 -0.026247587 0.73500001 4294966010
-0.028847525 -0.0262833 0.73600006 4294967295
-0.027565412 -0.0262833 0.73600006 4294967295
-0.0262833 -0.0262833 0.73600006 4294967295
-0.025001187 -0.0262833 0.73600006 4294966779
-0.077671431 -0.024627527 0.72500002 4294967035
-0.076408483 -0.024627527 0.72500002 4294966778
-0.075145528 -0.024627527 0.72500002 4294966523
-0.073882587 -0.024627527 0.72500002 4294966010
-0.072619632 -0.024627527 0.72500002 4294966264
-0.071356684 -0.024627527 0.72500002 4294967295
-0.070287094 -0.024695467 0.72700006 4294967295
-0.069020659 -0.024695467 0.72700006 4294967295
-0.067567833 -0.024627527 0.72500002 4294967295
-0.066304877 -0.024627527 0.72500002 4294967295
-0.065041929 -0.024627527 0.72500002 4294967295
-0.063778982 -0.024627527 0.72500002 4294967295
-0.062516034 -0.024627527 0.72500002 4294967295
-0.061253082 -0.024627527 0.72500002 4294967295
-0.05999013 -0.024627527 0.72500002 4294967295
-0.058727182 -0.024627527 0.72500002 4294967295
-0.057464227 -0.024627527 0.72500002 4294967295
-0.056201279 -0.024627527 0.72500002 4294967295
-0.054938328 -0.024627527 0.72500002 4294965246
-0.053675383 -0.024627527 0.72500002 4290228150
-0.052412432 -0.024627527 0.72500002 4286159798
-0.05114948 -0.024627527 0.72500002 4285699247
-0.050024152 -0.024695467 0.72700006 4284980667
-0.048757717 -0.024695467 0.72700006 4285046460
-0.047556605 -0.024729436 0.72800004 4285109686
-0.046288431 -0.024729436 0.72800004 4284715184
-0.045020252 -0.024729436 0.72800004 4283991977
-0.043752078 -0.024729436 0.72800004 4283663012
-0.042483903 -0.024729436 0.72800004 4283727007
-0.041328952 -0.024797373 0.73000002 4283398041
-0.040057294 -0.024797373 0.73000002 4283263628
-0.038785636 -0.024797373 0.73000002 4282803077
-0.037513971 -0.024797373 0.73000002 4281686379
-0.036242314 -0.024797373 0.73000002 4281160034
-0.034970652 -0.024797373 0.73000002 4285816171
-0.033698995 -0.024797373 0.73000002 4292461265
-0.032471754 -0.024831342 0.73100001 4294760939
-0.031369068 -0.024967218 0.73500001 4294967295
-0.030088698 -0.024967218 0.73500001 4294967295
-0.028847525 -0.025001187 0.73600006 4294967295
-0.027565412 -0.025001187 0.73600006 4294966268
-0.080197334 -0.023364577 0.72500002 4294966780
-0.078934379 -0.023364577 0.72500002 4294966523
-0.077671431 -0.023364577 0.72500002 4294966264
-0.076408483 -0.023364577 0.72500002 4294966521
-0.075145528 -0.023364577 0.72500002 4294967295
-0.073882587 -0.023364577 0.72500002 4294967295
-0.072619632 -0.023364577 0.72500002 4294967295
-0.071356684 -0.023364577 0.72500002 4294967295
-0.070093736 -0.023364577 0.72500002 4294967295
-0.068830781 -0.023364577 0.72500002 4294967295
-0.067567833 -0.023364577 0.72500002 4294967295
-0.066304877 -0.023364577 0.72500002 4294967295
-0.065041929 -0.023364577 0.72500002 4294967295
-0.063691005 -0.023332352 0.72400004 4294966527
-0.062429801 -0.023332352 0.72400004 4294830576
-0.061253082 -0.023364577 0.72500002 4294962418
-0.05999013 -0.023364577 0.72500002 4294963447
-0.058727182 -0.023364577 0.72500002 4294964989
-0.057464227 -0.023364577 0.72500002 4294437106
-0.056201279 -0.023364577 0.72500002 4291213249
-0.054938328 -0.023364577 0.72500002 4287467725
-0.053675383 -0.023364577 0.72500002 4285757363
-0.052412432 -0.023364577 0.72500002 4284123563
-0.05114948 -0.023364577 0.72500002 4284452528
-0.049886528 -0.023364577 0.72500002 4283795893
-0.048757717 -0.023429032 0.72700006 4283598514
-0.047491282 -0.023429032 0.72700006 4283071405
-0.046288431 -0.023461258 0.72800004 4282939818
-0.045020252 -0.023461258 0.72800004 4282938006
-0.043752078 -0.023461258 0.72800004 4282609040
-0.042483903 -0.023461258 0.72800004 4282738315
-0.041215725 -0.023461258 0.72800004 4281817213
-0.040057294 -0.023525711 0.73000002 4282798965
-0.038785636 -0.023525711 0.73000002 4284640913
