# .PCD v0.7 - Point Cloud Data file format
VERSION 0.7
FIELDS x y z rgba
SIZE 4 4 4 4
TYPE F F F U
COUNT 1 1 1 1
WIDTH 1041
HEIGHT 1
VIEWPOINT 0 0 0 1 0 0 0
POINTS 1041
DATA ascii
0.053331338 -0.12225182 0.94200003 4292804715
0.054972298 -0.12225182 0.94200003 4292739178
0.056613263 -0.12225182 0.94200003 4292870251
0.058254231 -0.12225182 0.94200003 4292804714
0.060022358 -0.12251139 0.94400007 4292739167
0.061666805 -0.12251139 0.94400007 4292804704
0.063311256 -0.12251139 0.94400007 4292673644
0.064955704 -0.12251139 0.94400007 4292739182
0.0668118 -0.12290072 0.94700003 4292608109
0.068461478 -0.12290072 0.94700003 4292804720
0.070111156 -0.12290072 0.94700003 4292937321
0.071988158 -0.12329006 0.95000005 4293068907
0.073643059 -0.12329006 0.95000005 4293137768
0.075297959 -0.12329006 0.95000005 4293203561
0.077114865 -0.12354963 0.95200002 4293203561
0.078773245 -0.12354963 0.95200002 4293664112
0.080431633 -0.12354963 0.95200002 4293205887
0.082090013 -0.12354963 0.95200002 4293140094
0.0837484 -0.12354963 0.95200002 4293140837
0.08540678 -0.12354963 0.95200002 4293996146
0.087065168 -0.12354963 0.95200002 4292877438
0.088723555 -0.12354963 0.95200002 4292745852
0.090666749 -0.12393896 0.95500004 4292681592
0.092330366 -0.12393896 0.95500004 4292813178
0.093993977 -0.12393896 0.95500004 4292615797
0.095657587 -0.12393896 0.95500004 4291497572
0.097321197 -0.12393896 0.95500004 4292150387
0.098984808 -0.12393896 0.95500004 4292018801
0.10064842 -0.12393896 0.95500004 4291887211
0.10231203 -0.12393896 0.95500004 4291756138
0.10397564 -0.12393896 0.95500004 4291690596
0.10563924 -0.12393896 0.95500004 4291559522
0.10752757 -0.12419851 0.95700002 4291493975
0.10953697 -0.12458786 0.96000004 4291625049
0.1112093 -0.12458786 0.96000004 4291297373
0.11288162 -0.12458786 0.96000004 4291035225
0.11455393 -0.12458786 0.96000004 4290838607
0.11658946 -0.1249772 0.96300006 4290707533
0.11826701 -0.1249772 0.96300006 4290445391
0.11994456 -0.1249772 0.96300006 4290445391
0.1216221 -0.1249772 0.96300006 4290248783
0.12368375 -0.12536652 0.96600002 4290183246
0.12536652 -0.12536652 0.96600002 4289921103
0.1270493 -0.12536652 0.96600002 4289921103
0.12873207 -0.12536652 0.96600002 4289527891
0.13041483 -0.12536652 0.96600002 4289396818
0.13209762 -0.12536652 0.96600002 4289134671
0.13378039 -0.12536652 0.96600002 4289134671
0.13546315 -0.12536652 0.96600002 4287234125
0.13714594 -0.12536652 0.96600002 4286971976
0.13882869 -0.12536652 0.96600002 4282133579
0.14080238 -0.12562609 0.96800005 4284238698
0.14219424 -0.12536652 0.96600002 4282214523
0.14387701 -0.12536652 0.96600002 4281819766
0.14555979 -0.12536652 0.96600002 4281625464
0.14724256 -0.12536652 0.96600002 4281757051
0.14892533 -0.12536652 0.96600002 4281625462
0.15060811 -0.12536652 0.96600002 4281296754
0.15229088 -0.12536652 0.96600002 4281820275
0.15429245 -0.12562609 0.96800005 4281096808
0.15597871 -0.12562609 0.96800005 4280637813
0.15766495 -0.12562609 0.96800005 4280703606
0.15935121 -0.12562609 0.96800005 4280638065
0.16153656 -0.12601542 0.97100008 4280835701
0.16322803 -0.12601542 0.97100008 4281163380
0.16491953 -0.12601542 0.97100008 4281294966
0.166611 -0.12601542 0.97100008 4281295214
0.16830249 -0.12601542 0.97100008 4281097835
0.16999397 -0.12601542 0.97100008 4281031024
0.17221588 -0.12640476 0.97400004 4280768109
0.17426971 -0.12666433 0.97600007 4280505704
0.1759699 -0.12666433 0.97600007 4280702827
0.17767008 -0.12666433 0.97600007 4280637286
0.17937028 -0.12666433 0.97600007 4280637286
0.18107048 -0.12666433 0.97600007 4280768090
0.18333244 -0.12705365 0.97900003 4280504919
0.18503787 -0.12705365 0.97900003 4280569428
0.18674329 -0.12705365 0.97900003 4280043084
0.18902619 -0.127443 0.98200005 4280042321
0.19073683 -0.127443 0.98200005 4280239444
0.19244747 -0.127443 0.98200005 4279715155
-0.059249781 -0.11612958 0.90700006 4290510906
-0.056213472 -0.11638564 0.90900004 4291166275
-0.05463 -0.11638564 0.90900004 4291297349
-0.052929807 -0.11612958 0.90700006 4291690571
-0.051349815 -0.11612958 0.90700006 4291821645
-0.049769815 -0.11612958 0.90700006 4292149336
-0.048296083 -0.11638564 0.90900004 4292214873
-0.046712603 -0.11638564 0.90900004 4292214869
-0.029552162 -0.11740994 0.91700006 4293001318
-0.027954748 -0.11740994 0.91700006 4292870252
-0.026414821 -0.11766601 0.91900003 4292804715
-0.02481392 -0.11766601 0.91900003 4292870236
-0.023213023 -0.11766601 0.91900003 4292870236
-0.021612126 -0.11766601 0.91900003 4292870242
-0.020011226 -0.11766601 0.91900003 4292935779
-0.018410329 -0.11766601 0.91900003 4292870240
-0.01680943 -0.11766601 0.91900003 4293001315
-0.01525818 -0.11805013 0.92200005 4292739178
-0.013652056 -0.11805013 0.92200005 4292804715
-0.012045931 -0.11805013 0.92200005 4292870246
-0.010439808 -0.11805013 0.92200005 4293066856
-0.0088336831 -0.11805013 0.92200005 4292804718
-0.0072432365 -0.1183062 0.92400002 4292804718
-0.0056336289 -0.1183062 0.92400002 4292804705
-0.0040240199 -0.1183062 0.92400002 4292804705
-0.0024144123 -0.1183062 0.92400002 4292739184
-0.00080480409 -0.1183062 0.92400002 4292608109
0.00080480409 -0.1183062 0.92400002 4292673633
0.0024222513 -0.11869032 0.92700005 4292739170
0.0040370855 -0.11869032 0.92700005 4292673631
0.0056519196 -0.11869032 0.92700005 4292739168
0.0072667538 -0.11869032 0.92700005 4292804707
0.0088815875 -0.11869032 0.92700005 4292935782
0.010496422 -0.11869032 0.92700005 4292739182
0.012137386 -0.11894638 0.92900002 4292673644
0.013755704 -0.11894638 0.92900002 4292870249
0.015374023 -0.11894638 0.92900002 4292870249
0.01699234 -0.11894638 0.92900002 4293001323
0.018670758 -0.1193305 0.93200004 4292870249
0.020294303 -0.1193305 0.93200004 4292870237
0.02196488 -0.11958657 0.93400002 4292935774
0.023667686 -0.11997067 0.93700004 4292739169
0.025353944 -0.12022676 0.93900007 4292739169
0.02698968 -0.12022676 0.93900007 4292739167
0.028625418 -0.12022676 0.93900007 4292804704
0.030261159 -0.12022676 0.93900007 4292739170
0.031896897 -0.12022676 0.93900007 4292739170
0.033461209 -0.11997067 0.93700004 4292804713
0.035093464 -0.11997067 0.93700004 4292804713
0.036725719 -0.11997067 0.93700004 4292739178
0.038439848 -0.12022676 0.93900007 4292542567
0.040075585 -0.12022676 0.93900007 4292542558
0.041711327 -0.12022676 0.93900007 4292542558
0.043347061 -0.12022676 0.93900007 4292608101
0.045126513 -0.12061086 0.94200003 4292608101
0.046767477 -0.12061086 0.94200003 4292608089
0.048408445 -0.12061086 0.94200003 4292804700
0.050049406 -0.12061086 0.94200003 4292804703
0.05169037 -0.12061086 0.94200003 4292739166
0.053331338 -0.12061086 0.94200003 4292739169
0.054972298 -0.12061086 0.94200003 4292739169
0.056613263 -0.12061086 0.94200003 4292739166
0.058254231 -0.12061086 0.94200003 4292870239
0.060022358 -0.12086694 0.94400007 4292739165
0.061666805 -0.12086694 0.94400007 4293001312
0.063311256 -0.12086694 0.94400007 4292739187
0.064955704 -0.12086694 0.94400007 4292804724
0.066600151 -0.12086694 0.94400007 4292805233
0.068461478 -0.12125105 0.94700003 4292871026
0.070111156 -0.12125105 0.94700003 4292872561
0.071760826 -0.12125105 0.94700003 4293333112
0.073410504 -0.12125105 0.94700003 4293204856
0.075297959 -0.12163517 0.95000005 4293336442
0.07695286 -0.12163517 0.95000005 4293207157
0.078773245 -0.12189123 0.95200002 4293075571
0.080431633 -0.12189123 0.95200002 4293075585
0.082090013 -0.12189123 0.95200002 4293009791
0.0837484 -0.12189123 0.95200002 4293140848
0.08540678 -0.12189123 0.95200002 4293140848
0.087065168 -0.12189123 0.95200002 4292681592
0.088723555 -0.12189123 0.95200002 4292615799
0.090381935 -0.12189123 0.95200002 4292551028
0.092040323 -0.12189123 0.95200002 4292419186
0.093698703 -0.12189123 0.95200002 4292153197
0.095657587 -0.12227535 0.95500004 4291692646
0.097321197 -0.12227535 0.95500004 4291889259
0.098984808 -0.12227535 0.95500004 4291955053
0.10064842 -0.12227535 0.95500004 4291362916
0.10231203 -0.12227535 0.95500004 4291231842
0.10397564 -0.12227535 0.95500004 4291166303
0.10563924 -0.12227535 0.95500004 4290904155
0.10752757 -0.12253141 0.95700002 4290773068
0.10919467 -0.12253141 0.95700002 4290838605
0.1112093 -0.12291554 0.96000004 4290904154
0.11288162 -0.12291554 0.96000004 4290576469
0.11455393 -0.12291554 0.96000004 4290379853
0.11658946 -0.12329964 0.96300006 4290379853
0.11826701 -0.12329964 0.96300006 4290183247
0.11994456 -0.12329964 0.96300006 4290052174
0.1216221 -0.12329964 0.96300006 4290052175
0.12368375 -0.12368375 0.96600002 4289790027
0.12536652 -0.12368375 0.96600002 4289790023
0.1270493 -0.12368375 0.96600002 4289790023
0.12873207 -0.12368375 0.96600002 4289396812
0.13041483 -0.12368375 0.96600002 4289265738
0.13209762 -0.12368375 0.96600002 4288938060
0.13378039 -0.12368375 0.96600002 4289069133
0.13546315 -0.12368375 0.96600002 4287037767
0.13714594 -0.12368375 0.96600002 4286971974
0.13882869 -0.12368375 0.96600002 4282461778
0.14080238 -0.12393983 0.96800005 4284172396
0.14219424 -0.12368375 0.96600002 4282016373
0.14387701 -0.12368375 0.96600002 4281818993
0.14555979 -0.12368375 0.96600002 4281361011
0.14724256 -0.12368375 0.96600002 4281426804
0.14892533 -0.12368375 0.96600002 4281231222
0.15060811 -0.12368375 0.96600002 4281297015
0.15260619 -0.12393983 0.96800005 4281361011
0.15429245 -0.12393983 0.96800005 4280834667
0.15597871 -0.12393983 0.96800005 4280768368
0.15766495 -0.12393983 0.96800005 4280834161
0.15984507 -0.12432395 0.97100008 4281031024
0.16153656 -0.12432395 0.97100008 4281425782
0.16322803 -0.12432395 0.97100008 4281295218
0.16491953 -0.12432395 0.97100008 4281295218
0.166611 -0.12432395 0.97100008 4281163380
0.16830249 -0.12432395 0.97100008 4280900208
0.16999397 -0.12432395 0.97100008 4281161579
0.17221588 -0.12470806 0.97400004 4281095786
0.17426971 -0.12496413 0.97600007 4280833382
0.1759699 -0.12496413 0.97600007 4280899175
0.17767008 -0.12496413 0.97600007 4280570975
0.17937028 -0.12496413 0.97600007 4280439389
0.18107048 -0.12496413 0.97600007 4281094491
0.18333244 -0.12534824 0.97900003 4280699733
0.18503787 -0.12534824 0.97900003 4280172876
0.18731554 -0.12573235 0.98200005 4280041290
0.18902619 -0.12573235 0.98200005 4280239171
0.19073683 -0.12573235 0.98200005 4280041792
-0.067149758 -0.11454958 0.90700006 4291362906
-0.065569758 -0.11454958 0.90700006 4291756125
-0.063848659 -0.11429699 0.90500003 4291821662
-0.06227215 -0.11429699 0.90500003 4292149332
-0.060695644 -0.11429699 0.90500003 4292280407
-0.059249781 -0.11454958 0.90700006 4292345954
-0.057669789 -0.11454958 0.90700006 4292345954
-0.056089792 -0.11454958 0.90700006 4292345956
-0.05463 -0.11480217 0.90900004 4292411493
-0.052929807 -0.11454958 0.90700006 4292608109
-0.051349815 -0.11454958 0.90700006 4292477036
-0.049769815 -0.11454958 0.90700006 4292608096
-0.048189823 -0.11454958 0.90700006 4292870244
-0.046712603 -0.11480217 0.90900004 4292739165
-0.045129128 -0.11480217 0.90900004 4292804703
-0.043545648 -0.11480217 0.90900004 4292870237
-0.041962173 -0.11480217 0.90900004 4292935775
-0.037334546 -0.11518105 0.91200006 4292870258
-0.029552162 -0.11581253 0.91700006 4292739180
-0.027954748 -0.11581253 0.91700006 4292804721
-0.026414821 -0.11606511 0.91900003 4292608109
-0.02481392 -0.11606511 0.91900003 4292739169
-0.023213023 -0.11606511 0.91900003 4292804706
-0.021612126 -0.11606511 0.91900003 4292739169
-0.020011226 -0.11606511 0.91900003 4292739169
-0.018410329 -0.11606511 0.91900003 4292739167
-0.01680943 -0.11606511 0.91900003 4292804704
-0.015208532 -0.11606511 0.91900003 4292673649
-0.013607634 -0.11606511 0.91900003 4292608112
-0.012006736 -0.11606511 0.91900003 4292608105
-0.010405838 -0.11606511 0.91900003 4292739178
-0.0088049397 -0.11606511 0.91900003 4292739176
-0.0072275586 -0.116444 0.92200005 4292804713
-0.0056214347 -0.116444 0.92200005 4292739174
-0.0040153102 -0.116444 0.92200005 4292739174
-0.0024091864 -0.116444 0.92200005 4292739180
-0.00080480409 -0.1166966 0.92400002 4292608107
0.00080480409 -0.1166966 0.92400002 4292739173
0.0024144123 -0.1166966 0.92400002 4292739173
0.0040240199 -0.1166966 0.92400002 4292608089
0.0056519196 -0.11707548 0.92700005 4292673626
0.0072667538 -0.11707548 0.92700005 4292739173
0.0088815875 -0.11707548 0.92700005 4292739173
0.010496422 -0.11707548 0.92700005 4292608105
0.012137386 -0.11732806 0.92900002 4292542568
0.013755704 -0.11732806 0.92900002 4292739175
0.015374023 -0.11732806 0.92900002 4292739175
0.017047213 -0.11770695 0.93200004 4292739177
0.018670758 -0.11770695 0.93200004 4292673640
0.020294303 -0.11770695 0.93200004 4292673625
0.02196488 -0.11795954 0.93400002 4292739162
0.023591908 -0.11795954 0.93400002 4292608101
0.02529994 -0.11833843 0.93700004 4292608101
0.026932195 -0.11833843 0.93700004 4292542554
0.028564449 -0.11833843 0.93700004 4292608091
0.030196704 -0.11833843 0.93700004 4292739178
0.031896897 -0.11859103 0.93900007 4292804715
0.033461209 -0.11833843 0.93700004 4292739178
0.035093464 -0.11833843 0.93700004 4292870252
0.036725719 -0.11833843 0.93700004 4292673643
0.038439848 -0.11859103 0.93900007 4292673643
0.040075585 -0.11859103 0.93900007 4292673641
0.041711327 -0.11859103 0.93900007 4293132400
0.043347061 -0.11859103 0.93900007 4292804718
0.044982802 -0.11859103 0.93900007 4292804718
0.04661854 -0.11859103 0.93900007 4292804710
0.048254278 -0.11859103 0.93900007 4292804710
0.049890015 -0.11859103 0.93900007 4293135967
0.051525757 -0.11859103 0.93900007 4293267810
0.053161491 -0.11859103 0.93900007 4293071721
0.054797232 -0.11859103 0.93900007 4293335150
0.056613263 -0.11896991 0.94200003 4293269868
0.058254231 -0.11896991 0.94200003 4293138538
0.059895188 -0.11896991 0.94200003 4293269354
0.061536156 -0.11896991 0.94200003 4293598319
0.063177124 -0.11896991 0.94200003 4293270145
0.064818084 -0.11896991 0.94200003 4293336194
0.066600151 -0.11922249 0.94400007 4292943735
0.068244599 -0.11922249 0.94400007 4292746100
0.069889046 -0.11922249 0.94400007 4292809846
0.071760826 -0.11960138 0.94700003 4292941688
0.073410504 -0.11960138 0.94700003 4292877688
0.075060174 -0.11960138 0.94700003 4293009530
0.07695286 -0.11998026 0.95000005 4292481651
0.07860776 -0.11998026 0.95000005 4291428706
0.080431633 -0.12023286 0.95200002 4292083831
0.082090013 -0.12023286 0.95200002 4291821684
0.0837484 -0.12023286 0.95200002 4291952739
0.08540678 -0.12023286 0.95200002 4291821664
0.087065168 -0.12023286 0.95200002 4291493969
0.088723555 -0.12023286 0.95200002 4291297358
0.090381935 -0.12023286 0.95200002 4291166294
0.092040323 -0.12023286 0.95200002 4291166294
0.093698703 -0.12023286 0.95200002 4291100748
0.095657587 -0.12061173 0.95500004 4291035211
0.097321197 -0.12061173 0.95500004 4290838609
0.098984808 -0.12061173 0.95500004 4290838609
0.10064842 -0.12061173 0.95500004 4290642011
0.10231203 -0.12061173 0.95500004 4290510938
0.10397564 -0.12061173 0.95500004 4290707537
0.10563924 -0.12061173 0.95500004 4290642000
0.10752757 -0.12086432 0.95700002 4290510930
0.10919467 -0.12086432 0.95700002 4290445393
0.11086176 -0.12086432 0.95700002 4290379857
0.11288162 -0.12124322 0.96000004 4290379857
0.11455393 -0.12124322 0.96000004 4289921103
0.11658946 -0.1216221 0.96300006 4289790029
0.11826701 -0.1216221 0.96300006 4289658952
0.11994456 -0.1216221 0.96300006 4289593415
0.12200098 -0.12200098 0.96600002 4289462341
0.12368375 -0.12200098 0.96600002 4289462341
0.12536652 -0.12200098 0.96600002 4289265728
0.1270493 -0.12200098 0.96600002 4289331265
0.12873207 -0.12200098 0.96600002 4289134669
0.13041483 -0.12200098 0.96600002 4289134669
0.13209762 -0.12200098 0.96600002 4288741451
0.13378039 -0.12200098 0.96600002 4288741451
0.13546315 -0.12200098 0.96600002 4286580294
0.13742988 -0.12225357 0.96800005 4286382915
0.13911614 -0.12225357 0.96800005 4282201184
0.14080238 -0.12225357 0.96800005 4283516787
0.14248864 -0.12225357 0.96800005 4281425771
0.1441749 -0.12225357 0.96800005 4281359978
0.14555979 -0.12200098 0.96600002 4281295218
0.14724256 -0.12200098 0.96600002 4281295218
0.14923368 -0.12225357 0.96800005 4280968563
0.15091993 -0.12225357 0.96800005 4281100150
0.15260619 -0.12225357 0.96800005 4281295214
0.15429245 -0.12225357 0.96800005 4280768870
0.1564621 -0.12263247 0.97100008 4280768368
0.15815359 -0.12263247 0.97100008 4280834161
0.15984507 -0.12263247 0.97100008 4281031024
0.16153656 -0.12263247 0.97100008 4281228660
0.16322803 -0.12263247 0.97100008 4282082420
0.16542904 -0.12301135 0.97400004 4282082420
0.16712575 -0.12301135 0.97400004 4281688177
0.16882247 -0.12301135 0.97400004 4281293419
0.17051917 -0.12301135 0.97400004 4281423976
0.17221588 -0.12301135 0.97400004 4281292134
0.17426971 -0.12326393 0.97600007 4281358181
0.1759699 -0.12326393 0.97600007 4281160546
0.17767008 -0.12326393 0.97600007 4281159771
0.17937028 -0.12326393 0.97600007 4281028185
0.18162704 -0.12364282 0.97900003 4280895829
0.18333244 -0.12364282 0.97900003 4280632657
-0.094641127 -0.1118486 0.89800006 4289593417
-0.093076818 -0.1118486 0.89800006 4289069117
-0.091512501 -0.1118486 0.89800006 4289200190
-0.089948177 -0.1118486 0.89800006 4289527837
-0.088383868 -0.1118486 0.89800006 4289921059
-0.086819552 -0.1118486 0.89800006 4290445385
-0.085255228 -0.1118486 0.89800006 4290379848
-0.083690919 -0.1118486 0.89800006 4290641964
-0.070309743 -0.11296958 0.90700006 4292214877
-0.068729743 -0.11296958 0.90700006 4292477025
-0.067149758 -0.11296958 0.90700006 4292477025
-0.065425172 -0.11272048 0.90500003 4292542566
-0.063848659 -0.11272048 0.90500003 4292608103
-0.06227215 -0.11272048 0.90500003 4292739167
-0.060695644 -0.11272048 0.90500003 4292739167
-0.059119128 -0.11272048 0.90500003 4292673633
-0.057669789 -0.11296958 0.90700006 4292673633
-0.056089792 -0.11296958 0.90700006 4292673644
-0.0545098 -0.11296958 0.90700006 4292477034
-0.052929807 -0.11296958 0.90700006 4292673643
-0.051349815 -0.11296958 0.90700006 4292870254
-0.049769815 -0.11296958 0.90700006 4292935788
-0.048189823 -0.11296958 0.90700006 4293001325
-0.04660983 -0.11296958 0.90700006 4293001311
-0.045129128 -0.11321868 0.90900004 4293066848
-0.043545648 -0.11321868 0.90900004 4293132387
-0.041962173 -0.11321868 0.90900004 4293066850
-0.040378693 -0.11321868 0.90900004 4292935782
-0.038795214 -0.11321868 0.90900004 4292804707
-0.037211739 -0.11321868 0.90900004 4292870254
-0.035745844 -0.11359236 0.91200006 4292673643
-0.03404478 -0.11321868 0.90900004 4292739174
-0.0324613 -0.11321868 0.90900004 4292739174
-0.03097973 -0.11359236 0.91200006 4292739178
-0.027863294 -0.11384146 0.91400003 4292870256
-0.026357334 -0.11421512 0.91700006 4292804719
-0.02475992 -0.11421512 0.91700006 4292804712
-0.023162507 -0.11421512 0.91700006 4292870249
-0.021565091 -0.11421512 0.91700006 4292804712
-0.019967677 -0.11421512 0.91700006 4292739175
-0.018370263 -0.11421512 0.91700006 4292739167
-0.016772849 -0.11421512 0.91700006 4292804704
-0.015208532 -0.11446422 0.91900003 4292739180
-0.013607634 -0.11446422 0.91900003 4292739180
-0.011980606 -0.11421512 0.91700006 4292608105
-0.010383192 -0.11421512 0.91700006 4292739178
-0.0088049397 -0.11446422 0.91900003 4292673643
-0.0072275586 -0.11483788 0.92200005 4292608106
-0.0056214347 -0.11483788 0.92200005 4292608095
-0.0040153102 -0.11483788 0.92200005 4292739168
-0.0024091864 -0.11483788 0.92200005 4292673645
-0.00080306211 -0.11483788 0.92200005 4292608108
0.00080306211 -0.11483788 0.92200005 4292739178
0.0024144123 -0.11508698 0.92400002 4292804715
0.0040240199 -0.11508698 0.92400002 4292739173
0.0056336289 -0.11508698 0.92400002 4292673636
0.0072432365 -0.11508698 0.92400002 4292542566
0.0088815875 -0.11546064 0.92700005 4292608103
0.010496422 -0.11546064 0.92700005 4292739178
0.012137386 -0.11570974 0.92900002 4292608105
0.013755704 -0.11570974 0.92900002 4292608093
0.015374023 -0.11570974 0.92900002 4292673630
0.01699234 -0.11570974 0.92900002 4292673638
0.018670758 -0.11608341 0.93200004 4292608101
0.020294303 -0.11608341 0.93200004 4292608089
0.02196488 -0.11633251 0.93400002 4292739163
0.023591908 -0.11633251 0.93400002 4292739167
0.02529994 -0.11670618 0.93700004 4292739167
0.026932195 -0.11670618 0.93700004 4292608093
0.028564449 -0.11670618 0.93700004 4292608093
0.030196704 -0.11670618 0.93700004 4292739170
0.031828959 -0.11670618 0.93700004 4292739170
0.033461209 -0.11670618 0.93700004 4292739170
0.034981105 -0.11633251 0.93400002 4292739170
0.03660813 -0.11633251 0.93400002 4292804719
0.038357973 -0.11670618 0.93700004 4292804719
0.039990228 -0.11670618 0.93700004 4292870246
0.041622482 -0.11670618 0.93700004 4293329517
0.043254737 -0.11670618 0.93700004 4293134968
0.044982802 -0.11695528 0.93900007 4293068918
0.04661854 -0.11695528 0.93900007 4293004148
0.048254278 -0.11695528 0.93900007 4293398905
0.049890015 -0.11695528 0.93900007 4293072491
0.051525757 -0.11695528 0.93900007 4293401456
0.053161491 -0.11695528 0.93900007 4293075055
0.054797232 -0.11695528 0.93900007 4293206641
0.05643297 -0.11695528 0.93900007 4293339256
0.058254231 -0.11732894 0.94200003 4293076085
0.059895188 -0.11732894 0.94200003 4293337711
0.061536156 -0.11732894 0.94200003 4293337711
0.063177124 -0.11732894 0.94200003 4293075573
0.064818084 -0.11732894 0.94200003 4293075573
0.066459045 -0.11732894 0.94200003 4292749171
0.068244599 -0.11757804 0.94400007 4292288620
0.069889046 -0.11757804 0.94400007 4292483184
0.071760826 -0.11795171 0.94700003 4292088426
0.073410504 -0.11795171 0.94700003 4292282221
0.075060174 -0.11795171 0.94700003 4292084842
0.07695286 -0.11832536 0.95000005 4292018797
0.07860776 -0.11832536 0.95000005 4291625063
0.080262654 -0.11832536 0.95000005 4291756136
0.081917554 -0.11832536 0.95000005 4291821673
0.0837484 -0.11857446 0.95200002 4291559525
0.08540678 -0.11857446 0.95200002 4291362914
0.087065168 -0.11857446 0.95200002 4291100758
0.088723555 -0.11857446 0.95200002 4291035220
0.090381935 -0.11857446 0.95200002 4290773076
0.092040323 -0.11857446 0.95200002 4290707539
0.093698703 -0.11857446 0.95200002 4290707537
0.09535709 -0.11857446 0.95200002 4290642000
0.097321197 -0.11894812 0.95500004 4290445389
0.098984808 -0.11894812 0.95500004 4290445389
0.10064842 -0.11894812 0.95500004 4290379859
0.10231203 -0.11894812 0.95500004 4290379859
0.10397564 -0.11894812 0.95500004 4290641999
0.10563924 -0.11894812 0.95500004 4290445389
0.10730286 -0.11894812 0.95500004 4290379855
0.10919467 -0.11919723 0.95700002 4290379855
0.11086176 -0.11919723 0.95700002 4290183244
0.11288162 -0.11957089 0.96000004 4290183244
0.11455393 -0.11957089 0.96000004 4289790025
0.11658946 -0.11994456 0.96300006 4289658951
0.11826701 -0.11994456 0.96300006 4289331271
0.11994456 -0.11994456 0.96300006 4289331271
0.12200098 -0.1203182 0.96600002 4289200200
0.12368375 -0.1203182 0.96600002 4289200200
0.12536652 -0.1203182 0.96600002 4289134659
0.1270493 -0.1203182 0.96600002 4289265733
0.12873207 -0.1203182 0.96600002 4288938063
0.13041483 -0.1203182 0.96600002 4289134673
0.13209762 -0.1203182 0.96600002 4288413770
0.13378039 -0.1203182 0.96600002 4288479307
0.13546315 -0.1203182 0.96600002 4286388041
0.13742988 -0.12056732 0.96800005 4286125126
0.13911614 -0.12056732 0.96800005 4282071392
0.14080238 -0.12056732 0.96800005 4283189873
0.14248864 -0.12056732 0.96800005 4281359978
0.1441749 -0.12056732 0.96800005 4281425771
0.14586116 -0.12056732 0.96800005 4281295218
0.14754742 -0.12056732 0.96800005 4281361011
0.14923368 -0.12056732 0.96800005 4281492079
0.15091993 -0.12056732 0.96800005 4281492079
0.15307914 -0.12094098 0.97100008 4281163376
0.15477061 -0.12094098 0.97100008 4280900460
0.1564621 -0.12094098 0.97100008 4281031024
0.15815359 -0.12094098 0.97100008 4280965231
0.15984507 -0.12094098 0.97100008 4281031276
0.16153656 -0.12094098 0.97100008 4281162863
0.16322803 -0.12094098 0.97100008 4282278770
0.16542904 -0.12131463 0.97400004 4282015341
0.16712575 -0.12131463 0.97400004 4280899427
0.16882247 -0.12131463 0.97400004 4280965220
0.17051917 -0.12131463 0.97400004 4281292388
0.17221588 -0.12131463 0.97400004 4281292388
0.17426971 -0.12156374 0.97600007 4281750627
0.1759699 -0.12156374 0.97600007 4281619041
-0.10991586 -0.10991586 0.89500004 4288479297
-0.10835677 -0.10991586 0.89500004 4288544830
-0.10679767 -0.10991586 0.89500004 4288479293
-0.10402703 -0.11028429 0.89800006 4289265706
-0.10112311 -0.11052991 0.90000004 4289658948
-0.099555306 -0.11052991 0.90000004 4289986637
-0.09798751 -0.11052991 0.90000004 4290052174
-0.096419707 -0.11052991 0.90000004 4290642007
-0.094641127 -0.11028429 0.89800006 4290773082
-0.093076818 -0.11028429 0.89800006 4291362912
-0.091512501 -0.11028429 0.89800006 4291428449
-0.089948177 -0.11028429 0.89800006 4291756123
-0.088383868 -0.11028429 0.89800006 4291887197
-0.086819552 -0.11028429 0.89800006 4292149351
-0.085255228 -0.11028429 0.89800006 4292345961
-0.083690919 -0.11028429 0.89800006 4292345949
-0.082126603 -0.11028429 0.89800006 4292411486
-0.080562279 -0.11028429 0.89800006 4292411493
-0.079173908 -0.11052991 0.90000004 4292411493
-0.077606112 -0.11052991 0.90000004 4292608102
-0.070309743 -0.11138959 0.90700006 4292673633
-0.068729743 -0.11138959 0.90700006 4292739170
-0.067001686 -0.11114396 0.90500003 4292804707
-0.065425172 -0.11114396 0.90500003 4292739178
-0.063637011 -0.11077554 0.90200007 4292870252
-0.062065724 -0.11077554 0.90200007 4292739188
-0.060494442 -0.11077554 0.90200007 4292673651
-0.058923155 -0.11077554 0.90200007 4292739170
-0.057542622 -0.11114396 0.90500003 4292804707
-0.055966113 -0.11114396 0.90500003 4292739180
-0.0543896 -0.11114396 0.90500003 4292673643
-0.05281309 -0.11114396 0.90500003 4292739176
-0.051236577 -0.11114396 0.90500003 4292804713
-0.049660072 -0.11114396 0.90500003 4292870251
-0.048083559 -0.11114396 0.90500003 4292804714
-0.04660983 -0.11138959 0.90700006 4292804706
-0.045029838 -0.11138959 0.90700006 4292870243
-0.043449841 -0.11138959 0.90700006 4292870249
-0.041869845 -0.11138959 0.90700006 4292804712
-0.040289853 -0.11138959 0.90700006 4292804712
-0.038795214 -0.11163521 0.90900004 4292804712
-0.037211739 -0.11163521 0.90900004 4292739176
-0.035628259 -0.11163521 0.90900004 4292608103
-0.03404478 -0.11163521 0.90900004 4292673630
-0.0324613 -0.11163521 0.90900004 4292739167
-0.030877823 -0.11163521 0.90900004 4292608105
-0.029294347 -0.11163521 0.90900004 4292739178
-0.027802324 -0.11200365 0.91200006 4292608107
-0.026271105 -0.11224927 0.91400003 4292608107
-0.024678918 -0.11224927 0.91400003 4292739177
-0.023086729 -0.11224927 0.91400003 4292739177
-0.021565091 -0.1126177 0.91700006 4292739177
-0.019902352 -0.11224927 0.91400003 4292673640
-0.018310165 -0.11224927 0.91400003 4292477021
-0.016717976 -0.11224927 0.91400003 4292542558
-0.015175434 -0.1126177 0.91700006 4292542566
-0.013533599 -0.11224927 0.91400003 4292608103
-0.011941412 -0.11224927 0.91400003 4292542571
-0.010349222 -0.11224927 0.91400003 4292542571
-0.0087857787 -0.1126177 0.91700006 4292608106
-0.0072040414 -0.11286332 0.91900003 4292542569
-0.0056031435 -0.11286332 0.91900003 4292542554
-0.0040022456 -0.11286332 0.91900003 4292608091
-0.002401347 -0.11286332 0.91900003 4292608107
-0.00080306211 -0.11323176 0.92200005 4292608107
0.00080306211 -0.11323176 0.92200005 4292608111
0.0024091864 -0.11323176 0.92200005 4292739184
0.0040153102 -0.11323176 0.92200005 4292739180
0.0056336289 -0.11347737 0.92400002 4292739180
0.0072432365 -0.11347737 0.92400002 4292608108
0.0088815875 -0.1138458 0.92700005 4292673645
0.010496422 -0.1138458 0.92700005 4292739182
0.012137386 -0.11409143 0.92900002 4292935793
0.013755704 -0.11409143 0.92900002 4292935781
0.015374023 -0.11409143 0.92900002 4293197929
0.01699234 -0.11409143 0.92900002 4292935791
0.018610658 -0.11409143 0.92900002 4292935791
0.020228976 -0.11409143 0.92900002 4292871024
0.021917846 -0.11445986 0.93200004 4293200246
0.023541391 -0.11445986 0.93200004 4293004649
0.025164936 -0.11445986 0.93200004 4293004649
0.026788479 -0.11445986 0.93200004 4293071723
0.028412024 -0.11445986 0.93200004 4293071723
0.03010002 -0.11470548 0.93400002 4293072491
0.031727049 -0.11470548 0.93400002 4293072491
0.033354074 -0.11470548 0.93400002 4293269616
0.034981105 -0.11470548 0.93400002 4293533044
0.03660813 -0.11470548 0.93400002 4293272194
0.038235161 -0.11470548 0.93400002 4293075071
0.039862186 -0.11470548 0.93400002 4293006700
0.041489217 -0.11470548 0.93400002 4293269616
0.043254737 -0.11507392 0.93700004 4293006978
0.044886991 -0.11507392 0.93700004 4293006978
0.04661854 -0.11531955 0.93900007 4293006711
0.048254278 -0.11531955 0.93900007 4293401213
0.049890015 -0.11531955 0.93900007 4292877425
0.051525757 -0.11531955 0.93900007 4293074803
0.053161491 -0.11531955 0.93900007 4292747885
0.054797232 -0.11531955 0.93900007 4292155748
0.05643297 -0.11531955 0.93900007 4292548209
0.058254231 -0.11568797 0.94200003 4292350831
0.059895188 -0.11568797 0.94200003 4292411999
0.061536156 -0.11568797 0.94200003 4291952728
0.063177124 -0.11568797 0.94200003 4292083799
0.064818084 -0.11568797 0.94200003 4292018261
0.066459045 -0.11568797 0.94200003 4291690579
0.068244599 -0.1159336 0.94400007 4291625042
0.069889046 -0.1159336 0.94400007 4291559512
0.071760826 -0.11630203 0.94700003 4291493975
0.073410504 -0.11630203 0.94700003 4291100752
0.075060174 -0.11630203 0.94700003 4291100752
0.076709844 -0.11630203 0.94700003 4291035222
0.07860776 -0.11667047 0.95000005 4291035222
0.080262654 -0.11667047 0.95000005 4291035218
0.081917554 -0.11667047 0.95000005 4291035218
0.0837484 -0.11691609 0.95200002 4290904150
0.08540678 -0.11691609 0.95200002 4290838613
0.087065168 -0.11691609 0.95200002 4290642000
0.088723555 -0.11691609 0.95200002 4290642000
0.090381935 -0.11691609 0.95200002 4290510928
0.092040323 -0.11691609 0.95200002 4290510928
0.093698703 -0.11691609 0.95200002 4290445391
0.09535709 -0.11691609 0.95200002 4290445391
0.097321197 -0.11728451 0.95500004 4290314316
0.098984808 -0.11728451 0.95500004 4290314316
0.10064842 -0.11728451 0.95500004 4290183246
0.10231203 -0.11728451 0.95500004 4290117709
0.10397564 -0.11728451 0.95500004 4290117693
0.10563924 -0.11728451 0.95500004 4290183230
0.10730286 -0.11728451 0.95500004 4289986635
0.10919467 -0.11753013 0.95700002 4290052172
0.11086176 -0.11753013 0.95700002 4289986637
0.11288162 -0.11789857 0.96000004 4289986637
0.11455393 -0.11789857 0.96000004 4289462345
0.11658946 -0.11826701 0.96300006 4289396807
0.11826701 -0.11826701 0.96300006 4289265738
0.11994456 -0.11826701 0.96300006 4289265738
0.12200098 -0.11863544 0.96600002 4289003594
0.12368375 -0.11863544 0.96600002 4289003594
0.1249772 -0.11826701 0.96300006 4289003595
0.12665474 -0.11826701 0.96300006 4289003595
0.12833229 -0.11826701 0.96300006 4288872525
0.13000983 -0.11826701 0.96300006 4289069135
0.13209762 -0.11863544 0.96600002 4288154181
0.13378039 -0.11863544 0.96600002 4288483146
0.13574362 -0.11888106 0.96800005 4285208401
0.13742988 -0.11888106 0.96800005 4285142608
0.13954729 -0.1192495 0.97100008 4281221230
0.14123876 -0.1192495 0.97100008 4282537090
0.14248864 -0.11888106 0.96800005 4281687914
0.1441749 -0.11888106 0.96800005 4281687914
0.14586116 -0.11888106 0.96800005 4281950320
0.14754742 -0.11888106 0.96800005 4282081650
0.14923368 -0.11888106 0.96800005 4282081901
0.15091993 -0.11888106 0.96800005 4281884523
0.15307914 -0.1192495 0.97100008 4282015078
0.15477061 -0.1192495 0.97100008 4281949285
0.1564621 -0.1192495 0.97100008 4281949033
0.15815359 -0.1192495 0.97100008 4281817446
0.15984507 -0.1192495 0.97100008 4282080101
0.16203563 -0.11961792 0.97400004 4282080101
0.16373233 -0.11961792 0.97400004 4281355880
0.16542904 -0.11961792 0.97400004 4280697950
0.16712575 -0.11961792 0.97400004 4280895300
0.16882247 -0.11961792 0.97400004 4281290058
-0.11147495 -0.10835677 0.89500004 4289986609
-0.10991586 -0.10835677 0.89500004 4290183220
-0.10835677 -0.10835677 0.89500004 4290773059
-0.10679767 -0.10835677 0.89500004 4290838596
-0.10523859 -0.10835677 0.89500004 4290838580
-0.10367949 -0.10835677 0.89500004 4290969654
-0.10246271 -0.10871997 0.89800006 4291166279
-0.10112311 -0.10896211 0.90000004 4291362891
-0.099555306 -0.10896211 0.90000004 4292018261
-0.09798751 -0.10896211 0.90000004 4292149334
-0.096419707 -0.10896211 0.90000004 4292214885
-0.094641127 -0.10871997 0.89800006 4292280423
-0.093076818 -0.10871997 0.89800006 4292411495
-0.091512501 -0.10871997 0.89800006 4292477032
-0.089948177 -0.10871997 0.89800006 4292542558
-0.088383868 -0.10871997 0.89800006 4292542558
-0.086819552 -0.10871997 0.89800006 4292542566
-0.085255228 -0.10871997 0.89800006 4292804713
-0.083690919 -0.10871997 0.89800006 4292739168
-0.082126603 -0.10871997 0.89800006 4292673631
-0.080562279 -0.10871997 0.89800006 4292804715
-0.079173908 -0.10896211 0.90000004 4292804715
-0.077606112 -0.10896211 0.90000004 4292739170
-0.07620728 -0.10920425 0.90200007 4292804707
-0.074636005 -0.10920425 0.90200007 4292804713
-0.07173121 -0.10956746 0.90500003 4292870243
-0.070154704 -0.10956746 0.90500003 4293001316
-0.068578191 -0.10956746 0.90500003 4292870243
-0.067001686 -0.10956746 0.90500003 4292804706
-0.065208293 -0.10920425 0.90200007 4292804713
-0.063637011 -0.10920425 0.90200007 4292870250
-0.062065724 -0.10920425 0.90200007 4292870252
-0.060494442 -0.10920425 0.90200007 4292804715
-0.058923155 -0.10920425 0.90200007 4292739165
-0.057351876 -0.10920425 0.90200007 4292804702
-0.055966113 -0.10956746 0.90500003 4292804715
-0.0543896 -0.10956746 0.90500003 4292739178
-0.05281309 -0.10956746 0.90500003 4292804706
-0.051236577 -0.10956746 0.90500003 4292870243
-0.049660072 -0.10956746 0.90500003 4292935786
-0.048083559 -0.10956746 0.90500003 4292935786
-0.046507049 -0.10956746 0.90500003 4292739168
-0.04493054 -0.10956746 0.90500003 4292739168
-0.043354031 -0.10956746 0.90500003 4292739178
-0.041777518 -0.10956746 0.90500003 4292739178
-0.040289853 -0.10980959 0.90700006 4292739176
-0.03870986 -0.10980959 0.90700006 4292739176
-0.037129864 -0.10980959 0.90700006 4292804712
-0.035628259 -0.11005174 0.90900004 4292804712
-0.033969875 -0.10980959 0.90700006 4292739173
-0.032389883 -0.10980959 0.90700006 4292739173
-0.030809887 -0.10980959 0.90700006 4292739180
-0.029294347 -0.11005174 0.90900004 4292739180
-0.027710868 -0.11005174 0.90900004 4292673645
-0.02621362 -0.11041494 0.91200006 4292542571
-0.024624914 -0.11041494 0.91200006 4292542566
-0.023086729 -0.11065708 0.91400003 4292542566
-0.021494541 -0.11065708 0.91400003 4292542568
-0.019902352 -0.11065708 0.91400003 4292542568
-0.018310165 -0.11065708 0.91400003 4292542564
-0.016717976 -0.11065708 0.91400003 4292542564
-0.015125788 -0.11065708 0.91400003 4292542564
-0.013533599 -0.11065708 0.91400003 4292608101
-0.011941412 -0.11065708 0.91400003 4292608101
-0.010349222 -0.11065708 0.91400003 4292608101
-0.0087857787 -0.11102028 0.91700006 4292739174
-0.0072040414 -0.11126243 0.91900003 4292608101
-0.0056031435 -0.11126243 0.91900003 4292673628
-0.0040022456 -0.11126243 0.91900003 4292739165
-0.002401347 -0.11126243 0.91900003 4292673630
-0.00080044905 -0.11126243 0.91900003 4292673630
0.00080306211 -0.11162563 0.92200005 4292739177
0.0024091864 -0.11162563 0.92200005 4292739177
0.0040153102 -0.11162563 0.92200005 4292739165
0.0056214347 -0.11162563 0.92200005 4292804702
0.0072275586 -0.11162563 0.92200005 4292739166
0.0088336831 -0.11162563 0.92200005 4292935778
0.010439808 -0.11162563 0.92200005 4292935792
0.012111256 -0.11223098 0.92700005 4292935792
0.01372609 -0.11223098 0.92700005 4292673634
0.015340924 -0.11223098 0.92700005 4293133417
0.01699234 -0.11247311 0.92900002 4293004148
0.018610658 -0.11247311 0.92900002 4292938354
0.020228976 -0.11247311 0.92900002 4292872307
0.021917846 -0.11283632 0.93200004 4293332858
0.023541391 -0.11283632 0.93200004 4293073004
0.025164936 -0.11283632 0.93200004 4293204591
0.026788479 -0.11283632 0.93200004 4293139063
0.028412024 -0.11283632 0.93200004 4292941684
0.030035567 -0.11283632 0.93200004 4293139063
0.031659111 -0.11283632 0.93200004 4293402235
0.033282656 -0.11283632 0.93200004 4293206389
0.034906197 -0.11283632 0.93200004 4293272183
0.036529746 -0.11283632 0.93200004 4293076868
0.038235161 -0.11307846 0.93400002 4292813439
0.039862186 -0.11307846 0.93400002 4292943985
0.041489217 -0.11307846 0.93400002 4292878192
0.043116245 -0.11307846 0.93400002 4293008506
0.044886991 -0.11344167 0.93700004 4293008506
0.04661854 -0.1136838 0.93900007 4292877690
0.048254278 -0.1136838 0.93900007 4292877690
0.049890015 -0.1136838 0.93900007 4292217194
0.051525757 -0.1136838 0.93900007 4292546158
0.053161491 -0.1136838 0.93900007 4292285549
0.054797232 -0.1136838 0.93900007 4291891047
0.05643297 -0.1136838 0.93900007 4291821665
0.058254231 -0.11404701 0.94200003 4291625054
0.059895188 -0.11404701 0.94200003 4291756128
0.061536156 -0.11404701 0.94200003 4291559517
0.063177124 -0.11404701 0.94200003 4291493980
0.064818084 -0.11404701 0.94200003 4291297369
0.066459045 -0.11404701 0.94200003 4291297367
0.068100013 -0.11404701 0.94200003 4291100756
0.069740973 -0.11404701 0.94200003 4291035218
0.071533501 -0.11428915 0.94400007 4291035218
0.073410504 -0.11465236 0.94700003 4290904152
0.075060174 -0.11465236 0.94700003 4290838615
0.076709844 -0.11465236 0.94700003 4290838611
0.07860776 -0.11501556 0.95000005 4290838611
0.080262654 -0.11501556 0.95000005 4290707541
0.081917554 -0.11501556 0.95000005 4290642004
0.0837484 -0.1152577 0.95200002 4290510930
0.08540678 -0.1152577 0.95200002 4290445393
0.087065168 -0.1152577 0.95200002 4290445389
0.088723555 -0.1152577 0.95200002 4290445389
0.090381935 -0.1152577 0.95200002 4290445389
0.092040323 -0.1152577 0.95200002 4290445389
0.093698703 -0.1152577 0.95200002 4290314316
0.095657587 -0.11562091 0.95500004 4290314316
0.097321197 -0.11562091 0.95500004 4290117703
0.098984808 -0.11562091 0.95500004 4290117703
0.10064842 -0.11562091 0.95500004 4290052176
0.10231203 -0.11562091 0.95500004 4289986639
0.10397564 -0.11562091 0.95500004 4289790023
0.10563924 -0.11562091 0.95500004 4289790023
0.10730286 -0.11562091 0.95500004 4289921101
0.10919467 -0.11586303 0.95700002 4289986638
0.11086176 -0.11586303 0.95700002 4289855566
0.11288162 -0.11622625 0.96000004 4289921103
0.11455393 -0.11622625 0.96000004 4289593423
0.11658946 -0.11658946 0.96300006 4289593423
0.11826701 -0.11658946 0.96300006 4289134672
0.11994456 -0.11658946 0.96300006 4289003598
0.12200098 -0.11695267 0.96600002 4288809549
0.12368375 -0.11695267 0.96600002 4288283205
0.1249772 -0.11658946 0.96300006 4288872520
0.12665474 -0.11658946 0.96300006 4289069643
0.12833229 -0.11658946 0.96300006 4288809547
0.13209762 -0.11695267 0.96600002 4288354890
0.13405736 -0.1171948 0.96800005 4286578735
0.1378558 -0.11755802 0.97100008 4285801024
0.13954729 -0.11755802 0.97100008 4282667373
0.14123876 -0.11755802 0.97100008 4282930801
0.14293025 -0.11755802 0.97100008 4282080625
0.14462173 -0.11755802 0.97100008 4282014576
0.14586116 -0.1171948 0.96800005 4282343279
0.14754742 -0.1171948 0.96800005 4282277486
0.14969619 -0.11755802 0.97100008 4282408300
0.15138766 -0.11755802 0.97100008 4282145385
0.15524879 -0.11792122 0.97400004 4281554790
0.1569455 -0.11792122 0.97400004 4282210658
0.1586422 -0.11792122 0.97400004 4282210658
0.16033892 -0.11792122 0.97400004 4282143584
0.16203563 -0.11792122 0.97400004 4282011998
0.16373233 -0.11792122 0.97400004 4281943893
0.16542904 -0.11792122 0.97400004 4282075222
-0.11303404 -0.10679767 0.89500004 4291690587
-0.11122584 -0.10655903 0.89300007 4291952746
-0.10967024 -0.10655903 0.89300007 4291952746
-0.10811463 -0.10655903 0.89300007 4292280422
-0.10655903 -0.10655903 0.89300007 4292280422
-0.10500342 -0.10655903 0.89300007 4292345954
-0.10367949 -0.10679767 0.89500004 4292411491
-0.10212041 -0.10679767 0.89500004 4292411495
-0.1008984 -0.10715566 0.89800006 4292411495
-0.099334076 -0.10715566 0.89800006 4292542568
-0.09776976 -0.10715566 0.89800006 4292608106
-0.096205451 -0.10715566 0.89800006 4292739188
-0.094851904 -0.10739431 0.90000004 4292608113
-0.093076818 -0.10715566 0.89800006 4292739179
-0.091512501 -0.10715566 0.89800006 4292739179
-0.089948177 -0.10715566 0.89800006 4292739167
-0.088383868 -0.10715566 0.89800006 4292870241
-0.086819552 -0.10715566 0.89800006 4292804715
-0.085255228 -0.10715566 0.89800006 4292804715
-0.083690919 -0.10715566 0.89800006 4292739167
-0.082126603 -0.10715566 0.89800006 4292804704
-0.080562279 -0.10715566 0.89800006 4292804719
-0.079173908 -0.10739431 0.90000004 4292739182
-0.077606112 -0.10739431 0.90000004 4292739173
-0.07620728 -0.10763297 0.90200007 4292804710
-0.074636005 -0.10763297 0.90200007 4292739180
-0.071493432 -0.10763297 0.90200007 4292739173
-0.069922149 -0.10763297 0.90200007 4292804710
-0.068350866 -0.10763297 0.90200007 4292739173
-0.066779576 -0.10763297 0.90200007 4292739173
-0.065063708 -0.10739431 0.90000004 4292739176
-0.063495904 -0.10739431 0.90000004 4292739176
-0.061928108 -0.10739431 0.90000004 4292739170
-0.060360305 -0.10739431 0.90000004 4292608097
-0.058792505 -0.10739431 0.90000004 4292673628
-0.057351876 -0.10763297 0.90200007 4292739165
-0.055780593 -0.10763297 0.90200007 4292739177
-0.054209307 -0.10763297 0.90200007 4292673640
-0.052638024 -0.10763297 0.90200007 4292673636
-0.051066738 -0.10763297 0.90200007 4292739173
-0.049495451 -0.10763297 0.90200007 4292739177
-0.047924168 -0.10763297 0.90200007 4292739177
-0.046352882 -0.10763297 0.90200007 4292673636
-0.044781603 -0.10763297 0.90200007 4292739173
-0.043354031 -0.10799094 0.90500003 4292739179
-0.041777518 -0.10799094 0.90500003 4292739179
-0.040289853 -0.10822961 0.90700006 4292739173
-0.03870986 -0.10822961 0.90700006 4292739173
-0.037129864 -0.10822961 0.90700006 4292739177
-0.035549868 -0.10822961 0.90700006 4292739177
-0.033969875 -0.10822961 0.90700006 4292739177
-0.032389883 -0.10822961 0.90700006 4292804714
-0.030809887 -0.10822961 0.90700006 4292608111
-0.029229892 -0.10822961 0.90700006 4292739184
-0.027710868 -0.10846826 0.90900004 4292608109
-0.02621362 -0.10882623 0.91200006 4292608109
-0.024624914 -0.10882623 0.91200006 4292673645
-0.023036212 -0.10882623 0.91200006 4292673645
-0.021447508 -0.10882623 0.91200006 4292673649
-0.019858802 -0.10882623 0.91200006 4292935797
-0.018310165 -0.10906488 0.91400003 4292739183
-0.016717976 -0.10906488 0.91400003 4293067124
-0.015125788 -0.10906488 0.91400003 4292804717
-0.013533599 -0.10906488 0.91400003 4293002353
-0.011915281 -0.10882623 0.91200006 4292938354
-0.010326577 -0.10882623 0.91200006 4293069941
-0.0087570352 -0.10906488 0.91400003 4293005165
-0.0071883635 -0.10942287 0.91700006 4293070958
-0.0056031435 -0.10966153 0.91900003 4293006698
-0.0040022456 -0.10966153 0.91900003 4293269614
-0.002401347 -0.10966153 0.91900003 4293269868
-0.00080044905 -0.10966153 0.91900003 4293269868
0.00080044905 -0.10966153 0.91900003 4293336442
0.002401347 -0.10966153 0.91900003 4293468285
0.0040022456 -0.10966153 0.91900003 4293337961
0.0056031435 -0.10966153 0.91900003 4293469548
0.0072275586 -0.11001951 0.92200005 4293337961
0.0088336831 -0.11001951 0.92200005 4293403754
0.010439808 -0.11001951 0.92200005 4293338239
0.012072061 -0.11025816 0.92400002 4293206653
0.013681669 -0.11025816 0.92400002 4293140333
0.015291276 -0.11025816 0.92400002 4293600884
0.016955759 -0.11061614 0.92700005 4293339776
0.018610658 -0.11085479 0.92900002 4293536899
0.020228976 -0.11085479 0.92900002 4293008508
0.021847295 -0.11085479 0.92900002 4292613750
0.023465613 -0.11085479 0.92900002 4292942188
0.025083931 -0.11085479 0.92900002 4293271153
0.026702249 -0.11085479 0.92900002 4293008506
0.028412024 -0.11121278 0.93200004 4292745590
0.030035567 -0.11121278 0.93200004 4292743288
0.031659111 -0.11121278 0.93200004 4292282737
0.033282656 -0.11121278 0.93200004 4292281453
0.034906197 -0.11121278 0.93200004 4292413296
0.036529746 -0.11121278 0.93200004 4292283000
0.038153287 -0.11121278 0.93200004 4292085878
0.039776832 -0.11121278 0.93200004 4292018280
0.041400377 -0.11121278 0.93200004 4291821669
0.043116245 -0.11145142 0.93400002 4291756121
0.044743273 -0.11145142 0.93400002 4291756121
0.046519242 -0.11180941 0.93700004 4291756135
0.048254278 -0.11204807 0.93900007 4291559524
0.049890015 -0.11204807 0.93900007 4291493977
0.051525757 -0.11204807 0.93900007 4291493977
0.053161491 -0.11204807 0.93900007 4291297366
0.054797232 -0.11204807 0.93900007 4291297366
0.056613263 -0.11240605 0.94200003 4291100748
0.058068708 -0.11204807 0.93900007 4291166286
0.059704445 -0.11204807 0.93900007 4291166298
0.061536156 -0.11240605 0.94200003 4291100760
0.063177124 -0.11240605 0.94200003 4291035222
0.064818084 -0.11240605 0.94200003 4290904149
0.066459045 -0.11240605 0.94200003 4291035222
0.068100013 -0.11240605 0.94200003 4290904149
0.069740973 -0.11240605 0.94200003 4290707541
0.071533501 -0.11264469 0.94400007 4290642004
0.073410504 -0.11300267 0.94700003 4290510934
0.075060174 -0.11300267 0.94700003 4290510934
0.076709844 -0.11300267 0.94700003 4290510928
0.07860776 -0.11336067 0.95000005 4290445391
0.080262654 -0.11336067 0.95000005 4290445396
0.082090013 -0.11359931 0.95200002 4290379859
0.0837484 -0.11359931 0.95200002 4290314316
0.08540678 -0.11359931 0.95200002 4290314316
0.087065168 -0.11359931 0.95200002 4290183244
0.088723555 -0.11359931 0.95200002 4290183244
0.090381935 -0.11359931 0.95200002 4290183244
0.092040323 -0.11359931 0.95200002 4290183244
0.093993977 -0.1139573 0.95500004 4289986635
0.095657587 -0.1139573 0.95500004 4289986635
0.097321197 -0.1139573 0.95500004 4290052159
0.098984808 -0.1139573 0.95500004 4290052159
0.10064842 -0.1139573 0.95500004 4289921103
0.10231203 -0.1139573 0.95500004 4289986640
0.10397564 -0.1139573 0.95500004 4289790031
0.10563924 -0.1139573 0.95500004 4289790031
0.10730286 -0.1139573 0.95500004 4289658960
0.10919467 -0.11419595 0.95700002 4289790034
0.1112093 -0.11455393 0.96000004 4289396814
0.11288162 -0.11455393 0.96000004 4289396814
0.12536652 -0.11526988 0.96600002 4288357970
0.1270493 -0.11526988 0.96600002 4288818521
0.12873207 -0.11526988 0.96600002 4287639630
0.14167513 -0.11622451 0.97400004 4283194221
0.14293025 -0.11586653 0.97100008 4282932596
0.14462173 -0.11586653 0.97100008 4282735216
0.14586116 -0.11550856 0.96800005 4282144363
0.14969619 -0.11586653 0.97100008 4282076769
0.15138766 -0.11586653 0.97100008 4281879646
-0.12424468 -0.10418032 0.88600004 4290838597
-0.1224243 -0.10394516 0.88400006 4291493963
-0.12088437 -0.10394516 0.88400006 4291559501
-0.11961444 -0.10418032 0.88600004 4291952718
-0.11807103 -0.10418032 0.88600004 4292214865
-0.11433706 -0.10500342 0.89300007 4292345956
-0.11278146 -0.10500342 0.89300007 4292477030
-0.11122584 -0.10500342 0.89300007 4292608104
-0.10967024 -0.10500342 0.89300007 4292608104
-0.10787249 -0.10476825 0.89100003 4292411495
-0.10632037 -0.10476825 0.89100003 4292477032
-0.10476825 -0.10476825 0.89100003 4292477036
-0.10344782 -0.10500342 0.89300007 4292608109
-0.10212041 -0.10523859 0.89500004 4292608104
-0.1008984 -0.10559135 0.89800006 4292608104
-0.099334076 -0.10559135 0.89800006 4292608104
-0.09776976 -0.10559135 0.89800006 4292673641
-0.096205451 -0.10559135 0.89800006 4292673647
-0.094641127 -0.10559135 0.89800006 4292673647
-0.093076818 -0.10559135 0.89800006 4292804714
-0.091512501 -0.10559135 0.89800006 4292870251
-0.089948177 -0.10559135 0.89800006 4292804714
-0.088088594 -0.10523859 0.89500004 4292804714
-0.086529501 -0.10523859 0.89500004 4292870249
-0.085255228 -0.10559135 0.89800006 4292870249
-0.083690919 -0.10559135 0.89800006 4292739167
-0.082126603 -0.10559135 0.89800006 4292739167
-0.080562279 -0.10559135 0.89800006 4292739178
-0.07899797 -0.10559135 0.89800006 4292739178
-0.077433653 -0.10559135 0.89800006 4292804706
-0.076038308 -0.10582651 0.90000004 4292870243
-0.074470505 -0.10582651 0.90000004 4292804714
-0.072902709 -0.10582651 0.90000004 4292739177
-0.071334906 -0.10582651 0.90000004 4292739173
-0.06976711 -0.10582651 0.90000004 4292739173
-0.068199307 -0.10582651 0.90000004 4292739167
-0.066631503 -0.10582651 0.90000004 4292739167
-0.065063708 -0.10582651 0.90000004 4292608101
-0.063495904 -0.10582651 0.90000004 4292608101
-0.061928108 -0.10582651 0.90000004 4292739176
