# .PCD v0.7 - Point Cloud Data file format
VERSION 0.7
FIELDS x y z rgba
SIZE 4 4 4 4
TYPE F F F U
COUNT 1 1 1 1
WIDTH 1043
HEIGHT 1
VIEWPOINT 0 0 0 1 0 0 0
POINTS 1043
DATA ascii
-0.12305838 0.00072815607 0.83600003 4292280407
-0.12189299 0.00072989811 0.83800006 4291952718
-0.12043318 0.00072989811 0.83800006 4291887181
-0.11925732 0.00073164009 0.84000003 4291625031
-0.13116565 0.0021740161 0.83200002 4292739169
-0.13002813 0.0021792422 0.83400005 4292870237
-0.1285753 0.0021792422 0.83400005 4292673627
-0.12712246 0.0021792422 0.83400005 4292542555
-0.12566964 0.0021792422 0.83400005 4292542555
-0.12421682 0.0021792422 0.83400005 4292214866
-0.12276398 0.0021792422 0.83400005 4292083792
-0.12160206 0.0021844683 0.83600003 4291887182
-0.12014575 0.0021844683 0.83600003 4291821645
-0.11897339 0.0021896942 0.83800006 4291559505
-0.14104453 0.0035798103 0.82200003 4292018256
-0.1396126 0.0035798103 0.82200003 4292214868
-0.13818069 0.0035798103 0.82200003 4292477016
-0.13674875 0.0035798103 0.82200003 4292608089
-0.13531683 0.0035798103 0.82200003 4292739163
-0.12971631 0.0036233601 0.83200002 4292673628
-0.12826696 0.0036233601 0.83200002 4292739165
-0.12712246 0.0036320703 0.83400005 4292477019
-0.12566964 0.0036320703 0.83400005 4292345944
-0.12421682 0.0036320703 0.83400005 4292018259
-0.12276398 0.0036320703 0.83400005 4291952722
-0.12131116 0.0036320703 0.83400005 4291690573
-0.11985833 0.0036320703 0.83400005 4291690573
-0.11868944 0.0036407805 0.83600003 4291493969
-0.14390837 0.0050117346 0.82200003 4291231836
-0.14247645 0.0050117346 0.82200003 4291887184
-0.14104453 0.0050117346 0.82200003 4292018258
-0.13927291 0.0049995407 0.82000005 4292345940
-0.13784447 0.0049995407 0.82000005 4292411477
-0.13641603 0.0049995407 0.82000005 4292673624
-0.13531683 0.0050117346 0.82200003 4292673624
-0.13388491 0.0050117346 0.82200003 4292739165
-0.12795863 0.0050605107 0.83000004 4292739165
-0.12681761 0.0050727045 0.83200002 4292411481
-0.12536827 0.0050727045 0.83200002 4292345944
-0.12391892 0.0050727045 0.83200002 4292018257
-0.12246957 0.0050727045 0.83200002 4291952720
-0.12102024 0.0050727045 0.83200002 4291493973
-0.11985833 0.0050848988 0.83400005 4291493973
-0.11840549 0.0050848988 0.83400005 4291493979
-0.11723313 0.0050970926 0.83600003 4291952738
-0.14677222 0.0064436588 0.82200003 4291035194
-0.14534031 0.0064436588 0.82200003 4291493973
-0.14390837 0.0064436588 0.82200003 4291559510
-0.14212979 0.006427981 0.82000005 4292018259
-0.14070135 0.006427981 0.82000005 4292280407
-0.13927291 0.006427981 0.82000005 4292477010
-0.13750827 0.0064123026 0.81800002 4292477010
-0.1360833 0.0064123026 0.81800002 4292673628
-0.13498759 0.006427981 0.82000005 4292739165
-0.13355915 0.006427981 0.82000005 4292804702
-0.13213071 0.006427981 0.82000005 4292739165
-0.13102107 0.0064436588 0.82200003 4292739161
-0.12651275 0.0065063708 0.83000004 4292214868
-0.12506691 0.0065063708 0.83000004 4292149331
-0.12362105 0.0065063708 0.83000004 4292018259
-0.12217518 0.0065063708 0.83000004 4291887185
-0.12072932 0.0065063708 0.83000004 4291493961
-0.11957089 0.0065220483 0.83200002 4291887183
-0.11840549 0.0065377271 0.83400005 4291756118
-0.11723313 0.0065534045 0.83600003 4291821655
-0.14784355 0.0078564212 0.82000005 4290838604
-0.14605801 0.0078372583 0.81800002 4291100752
-0.14463304 0.0078372583 0.81800002 4291559509
-0.14355823 0.0078564212 0.82000005 4291625046
-0.14212979 0.0078564212 0.82000005 4292018261
-0.14035816 0.0078372583 0.81800002 4292608093
-0.13893323 0.0078372583 0.81800002 4292542548
-0.13750827 0.0078372583 0.81800002 4292542548
-0.1360833 0.0078372583 0.81800002 4292739165
-0.13465835 0.0078372583 0.81800002 4292804702
-0.13355915 0.0078564212 0.82000005 4292804706
-0.13213071 0.0078564212 0.82000005 4292804706
-0.13070227 0.0078564212 0.82000005 4292870231
-0.12927385 0.0078564212 0.82000005 4292673620
-0.12476555 0.007933069 0.82800007 4292280401
-0.12332316 0.007933069 0.82800007 4291952727
-0.12217518 0.007952231 0.83000004 4291690580
-0.12072932 0.007952231 0.83000004 4291428422
-0.11928347 0.007952231 0.83000004 4292018256
-0.11840549 0.0079905549 0.83400005 4291821653
-0.11723313 0.0080097169 0.83600003 4292280924
-0.14872588 0.0092508914 0.81700003 4290510908
-0.14730266 0.0092508914 0.81700003 4291100752
-0.14587945 0.0092508914 0.81700003 4291297363
-0.14445624 0.0092508914 0.81700003 4291756118
-0.14320809 0.0092622144 0.81800002 4291756118
-0.14178313 0.0092622144 0.81800002 4292280405
-0.14018659 0.0092508914 0.81700003 4292608090
-0.13876338 0.0092508914 0.81700003 4292477016
-0.13734016 0.0092508914 0.81700003 4292477016
-0.1360833 0.0092622144 0.81800002 4292739165
-0.13465835 0.0092622144 0.81800002 4292739165
-0.1332334 0.0092622144 0.81800002 4292870237
-0.13180844 0.0092622144 0.81800002 4292739164
-0.13038348 0.0092622144 0.81800002 4292673623
-0.12927385 0.0092848614 0.82000005 4292673623
-0.12784541 0.0092848614 0.82000005 4292411475
-0.12672529 0.0093075074 0.82200003 4292411475
-0.12559822 0.0093301535 0.82400006 4292214867
-0.12446418 0.0093527995 0.82600003 4291952720
-0.12302528 0.0093527995 0.82600003 4291690575
-0.12188078 0.0093754455 0.82800007 4291559500
-0.12043842 0.0093754455 0.82800007 4291297356
-0.11928347 0.0093980916 0.83000004 4291952726
-0.11783761 0.0093980916 0.83000004 4291559506
-0.11695267 0.0094433837 0.83400005 4292281694
-0.14941396 0.010621847 0.81300002 4290117701
-0.1483618 0.010647976 0.81500006 4290379849
-0.14694208 0.010647976 0.81500006 4291297364
-0.14552234 0.010647976 0.81500006 4291362901
-0.1441026 0.010647976 0.81500006 4291821659
-0.14303303 0.010674106 0.81700003 4291887196
-0.1416098 0.010674106 0.81700003 4292411479
-0.14018659 0.010674106 0.81700003 4292477017
-0.13876338 0.010674106 0.81700003 4292477017
-0.13734016 0.010674106 0.81700003 4292608091
-0.13591696 0.010674106 0.81700003 4292608089
-0.13449374 0.010674106 0.81700003 4292739162
-0.1332334 0.010687171 0.81800002 4292739165
-0.13180844 0.010687171 0.81800002 4292608091
-0.13038348 0.010687171 0.81800002 4292608089
-0.12895852 0.010687171 0.81800002 4292608089
-0.12784541 0.010713302 0.82000005 4292477010
-0.12641697 0.010713302 0.82000005 4292411473
-0.12529336 0.010739431 0.82200003 4292214862
-0.12416282 0.010765561 0.82400006 4292083788
-0.12302528 0.010791691 0.82600003 4291625046
-0.12158639 0.010791691 0.82600003 4291559509
-0.12043842 0.010817821 0.82800007 4291493973
-0.11899604 0.010817821 0.82800007 4291952732
-0.11783761 0.010843951 0.83000004 4291756123
-0.11695267 0.010896211 0.83400005 4292874349
-0.14978154 0.012067707 0.81500006 4290838582
-0.14799772 0.012038092 0.81300002 4291100730
-0.14658147 0.012038092 0.81300002 4291297354
-0.14516523 0.012038092 0.81300002 4291559502
-0.14374898 0.012038092 0.81300002 4292018259
-0.1426829 0.012067707 0.81500006 4292149332
-0.14126316 0.012067707 0.81500006 4292345940
-0.13984342 0.012067707 0.81500006 4292411477
-0.1384237 0.012067707 0.81500006 4292608089
-0.13700396 0.012067707 0.81500006 4292739163
-0.13558424 0.012067707 0.81500006 4292608093
-0.13449374 0.012097321 0.81700003 4292608093
-0.13307053 0.012097321 0.81700003 4292739172
-0.1316473 0.012097321 0.81700003 4292280413
-0.13022409 0.012097321 0.81700003 4292608089
-0.12895852 0.012112127 0.81800002 4292673626
-0.12753357 0.012112127 0.81800002 4292477012
-0.12641697 0.012141741 0.82000005 4292280401
-0.12529336 0.012171356 0.82200003 4292149329
-0.12386144 0.012171356 0.82200003 4292083792
-0.12272739 0.01220097 0.82400006 4291952727
-0.12158639 0.012230583 0.82600003 4291821653
-0.12014749 0.012230583 0.82600003 4291559505
-0.11899604 0.012260198 0.82800007 4291952727
-0.11783761 0.012289811 0.83000004 4291690586
-0.15083021 0.013454339 0.81300002 4290183239
-0.14941396 0.013454339 0.81300002 4291035211
-0.14799772 0.013454339 0.81300002 4291166286
-0.14658147 0.013454339 0.81300002 4291690571
-0.14516523 0.013454339 0.81300002 4291756108
-0.14374898 0.013454339 0.81300002 4292018259
-0.14233275 0.013454339 0.81300002 4292149332
-0.14091648 0.013454339 0.81300002 4292542547
-0.13950025 0.013454339 0.81300002 4292608084
-0.13808399 0.013454339 0.81300002 4292673624
-0.13666776 0.013454339 0.81300002 4292739161
-0.13558424 0.013487437 0.81500006 4292608093
-0.1341645 0.013487437 0.81500006 4292608093
-0.13274477 0.013487437 0.81500006 4292739170
-0.13132504 0.013487437 0.81500006 4292477022
-0.13022409 0.013520534 0.81700003 4292477019
-0.12880087 0.013520534 0.81700003 4292411481
-0.12753357 0.013537084 0.81800002 4292411473
-0.12610862 0.013537084 0.81800002 4292280399
-0.12498852 0.013570182 0.82000005 4292018259
-0.12386144 0.013603278 0.82200003 4291887185
-0.12272739 0.013636378 0.82400006 4291625046
-0.121292 0.013636378 0.82400006 4291625046
-0.12014749 0.013669475 0.82600003 4291559514
-0.11899604 0.013702574 0.82800007 4291952736
-0.11755366 0.013702574 0.82800007 4291559520
-0.15083021 0.014870584 0.81300002 4290773046
-0.14941396 0.014870584 0.81300002 4291297354
-0.14799772 0.014870584 0.81300002 4291493965
-0.14658147 0.014870584 0.81300002 4291952718
-0.14516523 0.014870584 0.81300002 4292149328
-0.14374898 0.014870584 0.81300002 4292214868
-0.14233275 0.014870584 0.81300002 4292411479
-0.14056984 0.014834002 0.81100005 4292608087
-0.13915707 0.014834002 0.81100005 4292608087
-0.13774431 0.014834002 0.81100005 4292870236
-0.13633154 0.014834002 0.81100005 4292608089
-0.13525151 0.014870584 0.81300002 4292608093
-0.13383526 0.014870584 0.81300002 4292608093
-0.13241902 0.014870584 0.81300002 4292542559
-0.13100277 0.014870584 0.81300002 4292411485
-0.12990531 0.014907167 0.81500006 4292411479
-0.12848559 0.014907167 0.81500006 4292411479
-0.12737767 0.01494375 0.81700003 4292018261
-0.12595445 0.01494375 0.81700003 4292018261
-0.12468366 0.014962039 0.81800002 4291887186
-0.12356008 0.014998622 0.82000005 4291821649
-0.12242952 0.015035204 0.82200003 4291690575
-0.12099759 0.015035204 0.82200003 4291821649
-0.11985659 0.015071786 0.82400006 4291625045
-0.1187086 0.015108367 0.82600003 4292083804
-0.11755366 0.01514495 0.82800007 4291691867
-0.15187193 0.016246766 0.81100005 4290773066
-0.15083021 0.016286831 0.81300002 4290904140
-0.14904642 0.016246766 0.81100005 4291428432
-0.14763364 0.016246766 0.81100005 4291493969
-0.14622089 0.016246766 0.81100005 4291952723
-0.14445101 0.016206698 0.80900002 4292018260
-0.14304173 0.016206698 0.80900002 4292411479
-0.1419826 0.016246766 0.81100005 4292411479
-0.14056984 0.016246766 0.81100005 4292608089
-0.1388139 0.016206698 0.80900002 4292673626
-0.13706493 0.016166633 0.80700004 4292804697
-0.13565913 0.016166633 0.80700004 4292542550
-0.13458605 0.016206698 0.80900002 4292608093
-0.13350603 0.016246766 0.81100005 4292608093
-0.13209327 0.016246766 0.81100005 4292542555
-0.1306805 0.016246766 0.81100005 4292411481
-0.12958652 0.016286831 0.81300002 4292411481
-0.12848559 0.016326897 0.81500006 4292214870
-0.12737767 0.016366962 0.81700003 4292018261
-0.12595445 0.016366962 0.81700003 4292018261
-0.12453124 0.016366962 0.81700003 4291887186
-0.12325871 0.016386995 0.81800002 4291821649
-0.12213165 0.016427062 0.82000005 4291559505
-0.12070319 0.016427062 0.82000005 4291756115
-0.11956567 0.016467128 0.82200003 4291690578
-0.11842117 0.016507195 0.82400006 4292083800
-0.1172697 0.016547261 0.82600003 4291559513
-0.15149739 0.017615976 0.80900002 4291035209
-0.15045917 0.017659528 0.81100005 4291100746
-0.14904642 0.017659528 0.81100005 4291428427
-0.14763364 0.017659528 0.81100005 4291559502
-0.14128231 0.017572427 0.80700004 4292411483
-0.13987651 0.017572427 0.80700004 4292477021
-0.13847072 0.017572427 0.80700004 4292477021
-0.13706493 0.017572427 0.80700004 4292673628
-0.13565913 0.017572427 0.80700004 4292739165
-0.13458605 0.017615976 0.80900002 4292542554
-0.13317677 0.017615976 0.80900002 4292608091
-0.13209327 0.017659528 0.81100005 4292542555
-0.1306805 0.017659528 0.81100005 4292280407
-0.12926774 0.017659528 0.81100005 4292411481
-0.12817027 0.017703077 0.81300002 4292345944
-0.12706585 0.017746627 0.81500006 4292018259
-0.12564611 0.017746627 0.81500006 4291952722
-0.1242264 0.017746627 0.81500006 4291690575
-0.12310802 0.017790178 0.81700003 4291690575
-0.12183375 0.017811952 0.81800002 4291625035
-0.12070319 0.017855503 0.82000005 4291821647
-0.11927475 0.017855503 0.82000005 4291625040
-0.11813374 0.017899051 0.82200003 4291887188
-0.15252866 0.018978221 0.80700004 4290641974
-0.15112287 0.018978221 0.80700004 4291100752
-0.14971708 0.018978221 0.80700004 4291166290
-0.1447785 0.018884154 0.80300003 4292018261
-0.14337967 0.018884154 0.80300003 4292280409
-0.14198086 0.018884154 0.80300003 4292542554
-0.14093217 0.018931188 0.80500007 4292477017
-0.13952985 0.018931188 0.80500007 4292477017
-0.13812755 0.018931188 0.80500007 4292542554
-0.13672523 0.018931188 0.80500007 4292673624
-0.13532293 0.018931188 0.80500007 4292739161
-0.13425334 0.018978221 0.80700004 4292608095
-0.13284755 0.018978221 0.80700004 4292608095
-0.13176751 0.019025255 0.80900002 4292542555
-0.13035823 0.019025255 0.80900002 4292280407
-0.12894894 0.019025255 0.80900002 4292214869
-0.12785499 0.019072289 0.81100005 4292149332
-0.12675403 0.019119322 0.81300002 4292018261
-0.12533778 0.019119322 0.81300002 4291887187
-0.1242264 0.019166358 0.81500006 4291559509
-0.12310802 0.01921339 0.81700003 4291559509
-0.12183375 0.019236907 0.81800002 4291625029
-0.12070319 0.019283943 0.82000005 4291756104
-0.11927475 0.019283943 0.82000005 4291756112
-0.11813374 0.019330975 0.82200003 4291952722
-0.15635759 0.020333497 0.80500007 4291628359
-0.15495528 0.020333497 0.80500007 4289789995
-0.15355296 0.020333497 0.80500007 4290707510
-0.15215066 0.020333497 0.80500007 4290904121
-0.15074834 0.020333497 0.80500007 4291231818
-0.14897498 0.020282978 0.80300003 4291297355
-0.14757617 0.020282978 0.80300003 4291690573
-0.14617734 0.020282978 0.80300003 4291887184
-0.14441791 0.020232461 0.80100006 4292214868
-0.14302258 0.020232461 0.80100006 4292280405
-0.14162724 0.020232461 0.80100006 4292542554
-0.14058203 0.020282978 0.80300003 4292608091
-0.13918321 0.020282978 0.80300003 4292542554
-0.13778438 0.020282978 0.80300003 4292477017
-0.13672523 0.020333497 0.80500007 4292608087
-0.13532293 0.020333497 0.80500007 4292673624
-0.13392062 0.020333497 0.80500007 4292542554
-0.13284755 0.020384016 0.80700004 4292608091
-0.13144176 0.020384016 0.80700004 4292345946
-0.13003597 0.020384016 0.80700004 4292214871
-0.12894894 0.020434532 0.80900002 4292214868
-0.12753966 0.020434532 0.80900002 4292149331
-0.12644221 0.020485051 0.81100005 4291756116
-0.12502946 0.020485051 0.81100005 4291690579
-0.12392154 0.02053557 0.81300002 4291493966
-0.12280666 0.020586088 0.81500006 4291493966
-0.1216848 0.020636605 0.81700003 4291559499
-0.1204088 0.020661863 0.81800002 4291952720
-0.11927475 0.020712381 0.82000005 4291756119
-0.11784631 0.020712381 0.82000005 4291887449
-0.11670182 0.0207629 0.82200003 4291171672
-0.15736794 0.021681806 0.80300003 4285996306
-0.15596911 0.021681806 0.80300003 4290052150
-0.1545703 0.021681806 0.80300003 4290117687
-0.15355296 0.021735808 0.80500007 4290773066
-0.15177263 0.021681806 0.80300003 4290969678
-0.1503738 0.021681806 0.80300003 4291493963
-0.14897498 0.021681806 0.80300003 4291493963
-0.14757617 0.021681806 0.80300003 4291952718
-0.14581326 0.021627804 0.80100006 4292018255
-0.14441791 0.021627804 0.80100006 4292214868
-0.14302258 0.021627804 0.80100006 4292280405
-0.14162724 0.021627804 0.80100006 4292542554
-0.14023189 0.021627804 0.80100006 4292542554
-0.13883655 0.021627804 0.80100006 4292542552
-0.13778438 0.021681806 0.80300003 4292608089
-0.13638555 0.021681806 0.80300003 4292542548
-0.13498671 0.021681806 0.80300003 4292608085
-0.13392062 0.021735808 0.80500007 4292542553
-0.13251832 0.021735808 0.80500007 4292477016
-0.13144176 0.02178981 0.80700004 4292411481
-0.13003597 0.02178981 0.80700004 4292214870
-0.12863018 0.02178981 0.80700004 4292214868
-0.12722437 0.02178981 0.80700004 4292149331
-0.12613039 0.021843811 0.80900002 4291756116
-0.12502946 0.021897813 0.81100005 4291690579
-0.12392154 0.021951815 0.81300002 4291559505
-0.12280666 0.022005817 0.81500006 4291493968
-0.1216848 0.022059821 0.81700003 4291559503
-0.1204088 0.02208682 0.81800002 4291887187
-0.11898383 0.02208682 0.81800002 4291559511
-0.11784631 0.022140823 0.82000005 4291756122
-0.11641787 0.022140823 0.82000005 4291042904
-0.15876676 0.02308063 0.80300003 4292367986
-0.15736794 0.02308063 0.80300003 4287367718
-0.15596911 0.02308063 0.80300003 4290445370
-0.1545703 0.02308063 0.80300003 4290510908
-0.15317146 0.02308063 0.80300003 4291035209
-0.15177263 0.02308063 0.80300003 4291166283
-0.1503738 0.02308063 0.80300003 4291690575
-0.14860393 0.023023147 0.80100006 4291756112
-0.1472086 0.023023147 0.80100006 4292149327
-0.14581326 0.023023147 0.80100006 4292214864
-0.14405732 0.022965658 0.79900002 4292280409
-0.14266545 0.022965658 0.79900002 4292411483
-0.1412736 0.022965658 0.79900002 4292477022
-0.13988173 0.022965658 0.79900002 4292477022
-0.13848989 0.022965658 0.79900002 4292542555
-0.1374412 0.023023147 0.80100006 4292477018
-0.13604586 0.023023147 0.80100006 4292542552
-0.13465053 0.023023147 0.80100006 4292542552
-0.1335879 0.02308063 0.80300003 4292411483
-0.13218908 0.02308063 0.80300003 4292345946
-0.131116 0.023138119 0.80500007 4292214873
-0.1297137 0.023138119 0.80500007 4292149336
-0.1283114 0.023138119 0.80500007 4292018257
-0.12690908 0.023138119 0.80500007 4291952720
-0.12581858 0.023195602 0.80700004 4291756114
-0.12441278 0.023195602 0.80700004 4291690577
-0.12331183 0.023253089 0.80900002 4291559505
-0.1216848 0.023483032 0.81700003 4291493966
-0.1204088 0.023511777 0.81800002 4291887187
-0.11898383 0.023511777 0.81800002 4291493973
-0.11784631 0.023569264 0.82000005 4291756122
-0.11641787 0.023569264 0.82000005 4291175517
-0.15876676 0.024479458 0.80300003 4290314335
-0.15736794 0.024479458 0.80300003 4289921113
-0.15596911 0.024479458 0.80300003 4290641998
-0.1545703 0.024479458 0.80300003 4290773072
-0.15317146 0.024479458 0.80300003 4291231824
-0.15139464 0.024418488 0.80100006 4291362899
-0.14999929 0.024418488 0.80100006 4291625046
-0.14823289 0.024357516 0.79900002 4291625046
-0.14684103 0.024357516 0.79900002 4292214862
-0.14544918 0.024357516 0.79900002 4292280399
-0.14387701 0.024327034 0.79800004 4292477017
-0.14248691 0.024327034 0.79800004 4292477017
-0.14109679 0.024327034 0.79800004 4292542554
-0.13970667 0.024327034 0.79800004 4292542554
-0.13831656 0.024327034 0.79800004 4292477018
-0.13709801 0.024357516 0.79900002 4292477018
-0.13570617 0.024357516 0.79900002 4292542554
-0.13431431 0.024357516 0.79900002 4292542554
-0.13325518 0.024418488 0.80100006 4292411483
-0.13185984 0.024418488 0.80100006 4292411483
-0.13079025 0.024479458 0.80300003 4292214873
-0.12939142 0.024479458 0.80300003 4292018263
-0.1283114 0.02454043 0.80500007 4292149329
-0.12690908 0.02454043 0.80500007 4292083792
-0.12550677 0.02454043 0.80500007 4291690573
-0.12441278 0.024601398 0.80700004 4291690573
-0.12331183 0.024662366 0.80900002 4291559503
-0.12138693 0.024845278 0.81500006 4291493975
-0.1204088 0.024936732 0.81800002 4291690586
-0.11898383 0.024936732 0.81800002 4291493981
-0.11755888 0.024936732 0.81800002 4292414059
-0.11641787 0.024997704 0.82000005 4290914909
-0.15837133 0.025813831 0.80100006 4290379843
-0.15697598 0.025813831 0.80100006 4290379843
-0.15558065 0.025813831 0.80100006 4290969668
-0.15418531 0.025813831 0.80100006 4291035205
-0.15278997 0.025813831 0.80100006 4291428434
-0.15101661 0.025749376 0.79900002 4291559508
-0.14962475 0.025749376 0.79900002 4291690577
-0.14804737 0.025717149 0.79800004 4291756114
-0.14665726 0.025717149 0.79800004 4292214868
-0.14526714 0.025717149 0.79800004 4292280405
-0.14387701 0.025717149 0.79800004 4292477021
-0.14248691 0.025717149 0.79800004 4292477021
-0.14109679 0.025717149 0.79800004 4292542558
-0.13970667 0.025717149 0.79800004 4292542558
-0.13831656 0.025717149 0.79800004 4292477022
-0.13692644 0.025717149 0.79800004 4292477022
-0.13570617 0.025749376 0.79900002 4292477022
-0.13431431 0.025749376 0.79900002 4292411485
-0.13292246 0.025749376 0.79900002 4292280409
-0.1315306 0.025749376 0.79900002 4292280409
-0.13046449 0.025813831 0.80100006 4292214868
-0.12939142 0.025878282 0.80300003 4292149331
-0.12799259 0.025878282 0.80300003 4291952720
-0.12659377 0.025878282 0.80300003 4291952720
-0.12550677 0.025942737 0.80500007 4291690577
-0.12441278 0.026007192 0.80700004 4291690577
-0.12300698 0.026007192 0.80700004 4291493968
-0.12026159 0.026329461 0.81700003 4291690581
-0.11898383 0.026361689 0.81800002 4291362903
-0.11755888 0.026361689 0.81800002 4292283493
-0.11641787 0.026426144 0.82000005 4290719080
-0.1579759 0.027141234 0.79900002 4290117701
-0.15658404 0.027141234 0.79900002 4290314312
-0.15519218 0.027141234 0.79900002 4291035196
-0.15380032 0.027141234 0.79900002 4291231806
-0.15221772 0.027107265 0.79800004 4291428432
-0.15082762 0.027107265 0.79800004 4291559506
-0.14943749 0.027107265 0.79800004 4292018261
-0.14767633 0.027039329 0.79600006 4292018261
-0.14628969 0.027039329 0.79600006 4292214869
-0.14490306 0.027039329 0.79600006 4292214869
-0.14351644 0.027039329 0.79600006 4292477025
-0.14212979 0.027039329 0.79600006 4292477025
-0.14074317 0.027039329 0.79600006 4292542564
-0.13935654 0.027039329 0.79600006 4292542564
-0.1379699 0.027039329 0.79600006 4292477022
-0.13658327 0.027039329 0.79600006 4292477022
-0.13553631 0.027107265 0.79800004 4292411493
-0.13414621 0.027107265 0.79800004 4292345956
-0.1327561 0.027107265 0.79800004 4292280409
-0.13136597 0.027107265 0.79800004 4292214871
-0.13013874 0.027141234 0.79900002 4292149330
-0.12906915 0.027209172 0.80100006 4292018257
-0.1276738 0.027209172 0.80100006 4291952718
-0.12627847 0.027209172 0.80100006 4291887181
-0.12519494 0.02727711 0.80300003 4291559509
-0.12410446 0.027345048 0.80500007 4291559509
-0.12300698 0.027412986 0.80700004 4291493973
-0.12160119 0.027412986 0.80700004 4291493973
-0.11883838 0.027752675 0.81700003 4291428436
-0.11755888 0.027786644 0.81800002 4293006700
-0.15876938 0.02842596 0.79600006 4289658920
-0.15738276 0.02842596 0.79600006 4290576442
-0.15599613 0.02842596 0.79600006 4290773052
-0.15460949 0.02842596 0.79600006 4291297350
-0.15322286 0.02842596 0.79600006 4291428423
-0.15183623 0.02842596 0.79600006 4291493963
-0.15044959 0.02842596 0.79600006 4291625038
-0.1441749 0.028283117 0.79200006 4292280407
-0.14279525 0.028283117 0.79200006 4292477021
-0.14141558 0.028283117 0.79200006 4292477021
-0.14038953 0.028354537 0.79400003 4292477028
-0.13900639 0.028354537 0.79400003 4292477028
-0.13762325 0.028354537 0.79400003 4292477022
-0.13624008 0.028354537 0.79400003 4292477022
-0.13519664 0.02842596 0.79600006 4292345954
-0.13381 0.02842596 0.79600006 4292214879
-0.13242337 0.02842596 0.79600006 4292214873
-0.13136597 0.028497381 0.79800004 4292214873
-0.12997587 0.028497381 0.79800004 4292149332
-0.12874688 0.028533094 0.79900002 4292018259
-0.12735502 0.028533094 0.79900002 4291756112
-0.12596317 0.028533094 0.79900002 4291690575
-0.12488313 0.028604515 0.80100006 4291493966
-0.12410446 0.028747357 0.80500007 4291493966
-0.12270214 0.028747357 0.80500007 4291428432
-0.12160119 0.028818781 0.80700004 4291493969
-0.12049328 0.0288902 0.80900002 4291493974
-0.15876938 0.029812593 0.79600006 4290183218
-0.15698731 0.029737685 0.79400003 4290838607
-0.15560417 0.029737685 0.79400003 4290969682
-0.15422103 0.029737685 0.79400003 4291428425
-0.15283786 0.029737685 0.79400003 4291428425
-0.15107323 0.02966278 0.79200006 4291559507
-0.14969356 0.02966278 0.79200006 4291756117
-0.14793937 0.029587872 0.79000002 4292149331
-0.14656319 0.029587872 0.79000002 4292214868
-0.14518701 0.029587872 0.79000002 4292411476
-0.14381082 0.029587872 0.79000002 4292411476
-0.14243464 0.029587872 0.79000002 4292477017
-0.14105846 0.029587872 0.79000002 4292542554
-0.14003591 0.02966278 0.79200006 4292608104
-0.13865626 0.02966278 0.79200006 4292542567
-0.13762325 0.029737685 0.79400003 4292542554
-0.13624008 0.029737685 0.79400003 4292477017
-0.13519664 0.029812593 0.79600006 4292411483
-0.13381 0.029812593 0.79600006 4292280409
-0.13242337 0.029812593 0.79600006 4292214869
-0.13103674 0.029812593 0.79600006 4292018259
-0.1296501 0.029812593 0.79600006 4292018255
-0.12858574 0.029887499 0.79800004 4291887181
-0.12719563 0.029887499 0.79800004 4291756114
-0.12596317 0.029924951 0.79900002 4291690577
-0.12488313 0.029999856 0.80100006 4291428430
-0.12410446 0.030149668 0.80500007 4291428430
-0.12270214 0.030149668 0.80500007 4291362903
-0.12160119 0.030224573 0.80700004 4291362903
-0.1201954 0.030224573 0.80700004 4291362896
-0.11908401 0.030299481 0.80900002 4291559507
-0.15975361 0.031120831 0.79400003 4290445368
-0.15837047 0.031120831 0.79400003 4290510906
-0.15659188 0.031042445 0.79200006 4290904141
-0.15521222 0.031042445 0.79200006 4291035214
-0.15383255 0.031042445 0.79200006 4291493963
-0.15245289 0.031042445 0.79200006 4291559501
-0.15069173 0.03096405 0.79000002 4291690577
-0.14931555 0.03096405 0.79000002 4291821651
-0.14756484 0.030885665 0.78800005 4292149331
-0.14619215 0.030885665 0.78800005 4292214868
-0.14518701 0.03096405 0.79000002 4292477017
-0.14344676 0.030885665 0.78800005 4292542554
-0.14207405 0.030885665 0.78800005 4292542554
-0.14070135 0.030885665 0.78800005 4292542554
-0.13968229 0.03096405 0.79000002 4292608101
-0.13830611 0.03096405 0.79000002 4292542564
-0.13727659 0.031042445 0.79200006 4292542555
-0.13589692 0.031042445 0.79200006 4292411481
-0.13485694 0.031120831 0.79400003 4292411481
-0.1334738 0.031120831 0.79400003 4292345944
-0.13209064 0.031120831 0.79400003 4292149332
-0.1307075 0.031120831 0.79400003 4292018259
-0.1296501 0.031199224 0.79600006 4291952723
-0.12826347 0.031199224 0.79600006 4291821649
-0.12687685 0.031199224 0.79600006 4291559505
-0.12580551 0.031277612 0.79800004 4291493968
-0.12457131 0.031316809 0.79900002 4291493963
-0.12348779 0.031395197 0.80100006 4291493963
-0.12270214 0.031551979 0.80500007 4291362904
-0.12160119 0.031630371 0.80700004 4291297367
-0.1201954 0.031630371 0.80700004 4291297359
-0.11908401 0.031708755 0.80900002 4291559506
-0.11796565 0.03178715 0.81100005 4291236944
-0.15975361 0.032503981 0.79400003 4290510916
-0.15837047 0.032503981 0.79400003 4290641990
-0.15659188 0.032422107 0.79200006 4291035207
-0.15521222 0.032422107 0.79200006 4291100744
-0.15344408 0.032340232 0.79000002 4291493963
-0.15206791 0.032340232 0.79000002 4291559501
-0.15031023 0.032258362 0.78800005 4291887186
-0.14893754 0.032258362 0.78800005 4292018260
-0.14756484 0.032258362 0.78800005 4292149332
-0.14619215 0.032258362 0.78800005 4292214869
-0.14481944 0.032258362 0.78800005 4292280409
-0.14326471 0.032217424 0.78700006 4292411483
-0.14189376 0.032217424 0.78700006 4292477017
-0.14070135 0.032258362 0.78800005 4292477017
-0.13932866 0.032258362 0.78800005 4292542558
-0.13830611 0.032340232 0.79000002 4292542558
-0.13692993 0.032340232 0.79000002 4292542554
-0.13555375 0.032340232 0.79000002 4292477017
-0.13451727 0.032422107 0.79200006 4292214872
-0.1334738 0.032503981 0.79400003 4292214872
-0.13209064 0.032503981 0.79400003 4292214867
-0.1307075 0.032503981 0.79400003 4292018257
-0.12932436 0.032503981 0.79400003 4291756112
-0.12826347 0.032585856 0.79600006 4291690575
-0.12687685 0.032585856 0.79600006 4291559503
-0.1254902 0.032585856 0.79600006 4291428428
-0.1244154 0.03266773 0.79800004 4291428422
-0.12348779 0.032790542 0.80100006 4291493959
-0.12270214 0.032954291 0.80500007 4291493973
-0.12160119 0.033036161 0.80700004 4291428436
-0.1201954 0.033036161 0.80700004 4291297363
-0.11878961 0.033036161 0.80700004 4292281442
-0.11796565 0.03319991 0.81100005 4290975058
-0.16211054 0.033801772 0.79200006 4290576439
-0.16073087 0.033801772 0.79200006 4290576439
-0.15894881 0.033716414 0.79000002 4290838598
-0.15757263 0.033716414 0.79000002 4290838598
-0.15619645 0.033716414 0.79000002 4291231818
-0.15482026 0.033716414 0.79000002 4291297355
-0.15305562 0.033631057 0.78800005 4291690575
-0.15168293 0.033631057 0.78800005 4291756112
-0.15011948 0.03358838 0.78700006 4292018261
-0.14874852 0.03358838 0.78700006 4292149334
-0.14737758 0.03358838 0.78700006 4292214868
-0.14600661 0.03358838 0.78700006 4292214868
-0.14463566 0.03358838 0.78700006 4292411479
-0.14326471 0.03358838 0.78700006 4292477017
-0.14189376 0.03358838 0.78700006 4292477021
-0.14052279 0.03358838 0.78700006 4292608095
-0.13932866 0.033631057 0.78800005 4292608102
-0.13795596 0.033631057 0.78800005 4292477028
-0.13658327 0.033631057 0.78800005 4292477017
-0.13555375 0.033716414 0.79000002 4292411479
-0.13417757 0.033716414 0.79000002 4292214868
-0.1331376 0.033801772 0.79200006 4292214868
-0.13175793 0.033801772 0.79200006 4292214869
-0.13037826 0.033801772 0.79200006 4291952722
-0.12932436 0.033887129 0.79400003 4291756116
-0.12794119 0.033887129 0.79400003 4291690579
-0.12687685 0.033972487 0.79600006 4291493966
-0.1254902 0.033972487 0.79600006 4291428428
-0.1244154 0.034057844 0.79800004 4291297350
-0.12317944 0.034100525 0.79900002 4291297350
-0.12239729 0.03427124 0.80300003 4291362897
-0.12129983 0.034356602 0.80500007 4291428434
-0.1201954 0.034441959 0.80700004 4291100750
-0.11878961 0.034441959 0.80700004 4292282207
-0.11796565 0.034612674 0.81100005 4290911575
-0.16170117 0.035092592 0.79000002 4290445357
-0.16032499 0.035092592 0.79000002 4290707505
-0.15894881 0.035092592 0.79000002 4290904143
-0.15757263 0.035092592 0.79000002 4291035216
-0.15580101 0.035003752 0.78800005 4291297352
-0.15442832 0.035003752 0.78800005 4291428425
-0.15305562 0.035003752 0.78800005 4291625046
-0.15149044 0.034959335 0.78700006 4291559509
-0.14973798 0.034870487 0.78500003 4292149332
-0.1483705 0.034870487 0.78500003 4292149332
-0.14700304 0.034870487 0.78500003 4292214867
-0.14563556 0.034870487 0.78500003 4292280404
-0.1442681 0.034870487 0.78500003 4292477019
-0.14290063 0.034870487 0.78500003 4292477019
-0.14153317 0.034870487 0.78500003 4292477022
-0.14016569 0.034870487 0.78500003 4292542559
-0.13915186 0.034959335 0.78700006 4292542567
-0.13778089 0.034959335 0.78700006 4292477030
-0.13658327 0.035003752 0.78800005 4292477014
-0.13521057 0.035003752 0.78800005 4292280403
-0.13383788 0.035003752 0.78800005 4292214868
-0.13280138 0.035092592 0.79000002 4292149331
-0.1314252 0.035092592 0.79000002 4292018259
-0.13004902 0.035092592 0.79000002 4291887185
-0.12899859 0.035181437 0.79200006 4291690575
-0.12761894 0.035181437 0.79200006 4291625038
-0.12655805 0.035270277 0.79400003 4291297356
-0.1254902 0.035359122 0.79600006 4291297356
-0.12410358 0.035359122 0.79600006 4291297354
-0.12302528 0.035447963 0.79800004 4291428427
-0.12239729 0.035670068 0.80300003 4291362895
-0.12129983 0.035758913 0.80500007 4291362895
-0.1201954 0.03584775 0.80700004 4291035209
-0.11878961 0.03584775 0.80700004 4292414046
-0.11767472 0.035936594 0.80900002 4290848614
-0.1626645 0.03637645 0.78800005 4289986618
-0.16129179 0.03637645 0.78800005 4290773053
-0.1599191 0.03637645 0.78800005 4290838590
-0.15854642 0.03637645 0.78800005 4290904141
-0.15717371 0.03637645 0.78800005 4290904141
-0.1556033 0.036330286 0.78700006 4291297352
-0.15423234 0.036330286 0.78700006 4291428425
-0.15286139 0.036330286 0.78700006 4291690575
-0.15072048 0.036145635 0.78300005 4291756112
-0.14935648 0.036145635 0.78300005 4292214869
-0.14799251 0.036145635 0.78300005 4292214869
-0.14662851 0.036145635 0.78300005 4292280407
-0.14526452 0.036145635 0.78300005 4292411481
-0.14390054 0.036145635 0.78300005 4292477021
-0.14253657 0.036145635 0.78300005 4292542558
-0.14117257 0.036145635 0.78300005 4292477022
-0.14016569 0.036237955 0.78500003 4292477022
-0.13915186 0.036330286 0.78700006 4292345954
-0.13778089 0.036330286 0.78700006 4292280417
-0.13640994 0.036330286 0.78700006 4292345950
-0.13521057 0.03637645 0.78800005 4292214875
-0.13383788 0.03637645 0.78800005 4292149331
-0.13246518 0.03637645 0.78800005 4292083794
-0.13109249 0.03637645 0.78800005 4291952723
-0.12971978 0.03637645 0.78800005 4291821649
-0.12867285 0.036468774 0.79000002 4291559505
-0.12729667 0.036468774 0.79000002 4291493968
-0.12655805 0.036653426 0.79400003 4291166279
-0.1254902 0.036745753 0.79600006 4291166279
-0.12410358 0.036745753 0.79600006 4291100748
-0.12302528 0.036838077 0.79800004 4291166286
-0.12239729 0.037068892 0.80300003 4291362895
-0.12129983 0.03716122 0.80500007 4291362895
-0.1201954 0.037253547 0.80700004 4290904140
-0.11878961 0.037253547 0.80700004 4292349538
-0.11767472 0.037345868 0.80900002 4290785127
-0.16245808 0.037701242 0.78700006 4289986635
-0.16108711 0.037701242 0.78700006 4290576448
-0.1599191 0.037749145 0.78800005 4290838595
-0.15834521 0.037701242 0.78700006 4291035213
-0.15697426 0.037701242 0.78700006 4291100750
-0.15520786 0.037605431 0.78500003 4291493959
-0.15384038 0.037605431 0.78500003 4291559497
-0.15247293 0.037605431 0.78500003 4291756114
-0.15072048 0.03750962 0.78300005 4291821651
-0.14935648 0.03750962 0.78300005 4292214866
-0.14799251 0.03750962 0.78300005 4292280403
-0.14662851 0.03750962 0.78300005 4292411476
-0.14526452 0.03750962 0.78300005 4292411476
-0.14390054 0.03750962 0.78300005 4292477021
-0.14253657 0.03750962 0.78300005 4292542558
-0.14117257 0.03750962 0.78300005 4292477022
-0.13980858 0.03750962 0.78300005 4292477022
-0.13879822 0.037605431 0.78500003 4292411483
-0.13743074 0.037605431 0.78500003 4292280409
-0.13606328 0.037605431 0.78500003 4292214873
-0.13503899 0.037701242 0.78700006 4292149336
-0.13366804 0.037701242 0.78700006 4292149332
-0.13246518 0.037749145 0.78800005 4292018259
-0.13092613 0.037701242 0.78700006 4291821649
-0.12955517 0.037701242 0.78700006 4291690575
-0.12818421 0.037701242 0.78700006 4291690575
-0.1269744 0.037749145 0.78800005 4291559500
-0.12623927 0.037940763 0.79200006 4291231807
-0.1254902 0.038132384 0.79600006 4291231807
-0.12410358 0.038132384 0.79600006 4291231820
-0.12302528 0.038228195 0.79800004 4291297358
-0.12129983 0.038563531 0.80500007 4291362891
-0.1201954 0.038659338 0.80700004 4290969674
-0.11878961 0.038659338 0.80700004 4292942440
-0.16204521 0.038972899 0.78500003 4290183237
-0.16067775 0.038972899 0.78500003 4290773059
-0.15971616 0.039072197 0.78700006 4290904133
-0.1579428 0.038972899 0.78500003 4291231818
-0.151696 0.038774312 0.78100002 4291952729
-0.15033548 0.038774312 0.78100002 4292018266
-0.14897498 0.038774312 0.78100002 4292149336
-0.14761448 0.038774312 0.78100002 4292214873
-0.14625399 0.038774312 0.78100002 4292411479
-0.14489347 0.038774312 0.78100002 4292477017
-0.14353298 0.038774312 0.78100002 4292477021
-0.14217247 0.038774312 0.78100002 4292542558
-0.14081198 0.038774312 0.78100002 4292477014
-0.13980858 0.038873605 0.78300005 4292477014
-0.13844459 0.038873605 0.78300005 4292280411
-0.13708061 0.038873605 0.78300005 4292214873
-0.13571663 0.038873605 0.78300005 4292149336
-0.13435264 0.038873605 0.78300005 4292149336
-0.13298866 0.038873605 0.78300005 4292018259
-0.13196087 0.038972899 0.78500003 4292018259
-0.13059339 0.038972899 0.78500003 4291756112
-0.12922592 0.038972899 0.78500003 4291690575
-0.12818421 0.039072197 0.78700006 4291559503
-0.1269744 0.039121844 0.78800005 4291428428
-0.12623927 0.039320432 0.79200006 4291297350
-0.12517491 0.039419722 0.79400003 4291297350
-0.12410358 0.039519019 0.79600006 4291297360
-0.12271695 0.039519019 0.79600006 4291428434
-0.15246858 0.03998065 0.77800006 4291756110
-0.1511133 0.03998065 0.77800006 4292018261
-0.150143 0.040083423 0.78000003 4292214871
-0.14878424 0.040083423 0.78000003 4292214879
-0.14742547 0.040083423 0.78000003 4292214879
-0.1456922 0.03998065 0.77800006 4292477021
-0.14433691 0.03998065 0.77800006 4292542558
-0.14334919 0.040083423 0.78000003 4292542565
-0.14199044 0.040083423 0.78000003 4292477028
-0.14081198 0.040134814 0.78100002 4292411470
-0.13945147 0.040134814 0.78100002 4292411470
-0.13809097 0.040134814 0.78100002 4292214871
-0.13673046 0.040134814 0.78100002 4292214871
-0.13571663 0.040237591 0.78300005 4292214869
-0.13435264 0.040237591 0.78300005 4292018259
-0.13298866 0.040237591 0.78300005 4292018261
-0.13162465 0.040237591 0.78300005 4291952724
-0.13026068 0.040237591 0.78300005 4291887182
-0.12922592 0.040340371 0.78500003 4291690571
-0.12785845 0.040340371 0.78500003 4291428430
-0.12681326 0.040443148 0.78700006 4291428430
-0.12592049 0.040597312 0.79000002 4291231816
-0.12517491 0.04080287 0.79400003 4291166279
-0.12410358 0.040905651 0.79600006 4291166288
-0.12271695 0.040905651 0.79600006 4291297361
-0.12178758 0.041059814 0.79900002 4291362898
-0.15303297 0.041123401 0.77400005 4291690577
-0.15168467 0.041123401 0.77400005 4291756114
-0.15033635 0.041123401 0.77400005 4292018261
-0.14937302 0.041229662 0.77600002 4292280409
-0.14802124 0.041229662 0.77600002 4292214873
-0.14704747 0.041335925 0.77800006 4292214873
-0.1456922 0.041335925 0.77800006 4292477022
-0.14433691 0.041335925 0.77800006 4292542559
-0.14298163 0.041335925 0.77800006 4292542565
-0.14162636 0.041335925 0.77800006 4292411491
-0.14063168 0.041442186 0.78000003 4292477012
-0.13927291 0.041442186 0.78000003 4292477012
-0.13809097 0.041495316 0.78100002 4292214869
-0.13673046 0.041495316 0.78100002 4292149332
-0.13536996 0.041495316 0.78100002 4292149336
-0.13400947 0.041495316 0.78100002 4292018263
-0.13298866 0.04160158 0.78300005 4291952720
-0.13162465 0.04160158 0.78300005 4291952720
-0.13026068 0.04160158 0.78300005 4291690577
-0.1288967 0.04160158 0.78300005 4291690577
-0.12785845 0.04170784 0.78500003 4291493966
-0.12681326 0.041814104 0.78700006 4291428428
-0.12560169 0.041867234 0.78800005 4291231813
-0.12517491 0.042186018 0.79400003 4291428423
-0.12379176 0.042186018 0.79400003 4291166285
-0.12271695 0.042292282 0.79600006 4291166285
-0.12178758 0.042451672 0.79900002 4291362898
-0.15748377 0.04258145 0.77600002 4291166267
-0.15572959 0.042471711 0.77400005 4291297352
-0.15438129 0.042471711 0.77400005 4291493963
-0.15303297 0.042471711 0.77400005 4291756112
-0.15168467 0.042471711 0.77400005 4291821649
-0.15033635 0.042471711 0.77400005 4292149340
-0.14937302 0.04258145 0.77600002 4292214877
-0.14802124 0.04258145 0.77600002 4292280411
-0.14666943 0.04258145 0.77600002 4292280411
-0.14531766 0.04258145 0.77600002 4292477021
-0.14396587 0.04258145 0.77600002 4292542558
-0.14298163 0.042691201 0.77800006 4292411489
-0.14162636 0.042691201 0.77800006 4292411489
-0.14027108 0.042691201 0.77800006 4292477017
-0.13927291 0.042800944 0.78000003 4292411479
-0.13791417 0.042800944 0.78000003 4292280407
-0.13655539 0.042800944 0.78000003 4292214870
-0.13536996 0.042855818 0.78100002 4292018261
-0.13400947 0.042855818 0.78100002 4292018261
-0.13298866 0.042965565 0.78300005 4291756116
-0.13162465 0.042965565 0.78300005 4291756116
-0.13026068 0.042965565 0.78300005 4291690575
-0.1288967 0.042965565 0.78300005 4291625038
-0.12785845 0.043075308 0.78500003 4291428430
-0.126491 0.043075308 0.78500003 4291297356
-0.12560169 0.043239933 0.78800005 4291166277
-0.1245443 0.043349672 0.79000002 4291297351
-0.12379176 0.043569166 0.79400003 4291297357
-0.12271695 0.043678913 0.79600006 4291297357
-0.12163517 0.04378866 0.79800004 4291297363
-0.12024504 0.04378866 0.79800004 4292018269
-0.16153915 0.043933246 0.77600002 4290904141
-0.15977453 0.043820012 0.77400005 4290904141
-0.15842621 0.043820012 0.77400005 4291166275
-0.15707789 0.043820012 0.77400005 4291231812
-0.15572959 0.043820012 0.77400005 4291559503
-0.15418182 0.043763399 0.77300006 4291625040
-0.15283526 0.043763399 0.77300006 4291756117
-0.15148871 0.043763399 0.77300006 4291756117
-0.15014213 0.043763399 0.77300006 4292149336
-0.14898805 0.043820012 0.77400005 4292280411
-0.14763975 0.043820012 0.77400005 4292214871
-0.14629143 0.043820012 0.77400005 4292214871
-0.14494312 0.043820012 0.77400005 4292411481
-0.14359483 0.043820012 0.77400005 4292477018
-0.14261407 0.043933246 0.77600002 4292411483
-0.14126228 0.043933246 0.77600002 4292411483
-0.13991049 0.043933246 0.77600002 4292280407
-0.13855869 0.043933246 0.77600002 4292214870
-0.13756053 0.044046476 0.77800006 4292214872
-0.13620526 0.044046476 0.77800006 4292149335
-0.13519663 0.044159703 0.78000003 4292018257
-0.13383788 0.044159703 0.78000003 4292018257
-0.13264894 0.044216316 0.78100002 4291887186
-0.13128845 0.044216316 0.78100002 4291821649
-0.13026068 0.04432955 0.78300005 4291559505
-0.1288967 0.04432955 0.78300005 4291493968
-0.12785845 0.04444278 0.78500003 4291297356
-0.126491 0.04444278 0.78500003 4291297356
-0.12560169 0.044612624 0.78800005 4291231818
-0.1245443 0.044725854 0.79000002 4291362893
-0.12316812 0.044725854 0.79000002 4291166285
-0.12271695 0.045065548 0.79600006 4291166285
-0.12133032 0.045065548 0.79600006 4291231825
-0.11994369 0.045065548 0.79600006 4291953245
-0.16651605 0.045168322 0.77400005 4290314296
-0.16516775 0.045168322 0.77400005 4290183222
-0.16381945 0.045168322 0.77400005 4290510930
-0.16247113 0.045168322 0.77400005 4290510930
-0.16112283 0.045168322 0.77400005 4290904141
-0.1595681 0.045109969 0.77300006 4291035214
-0.15822153 0.045109969 0.77300006 4291297352
-0.15687495 0.045109969 0.77300006 4291428425
-0.1555284 0.045109969 0.77300006 4291559505
-0.1537829 0.044993252 0.77100003 4291625042
-0.15243983 0.044993252 0.77100003 4291821657
-0.15109675 0.044993252 0.77100003 4291821657
-0.14975365 0.044993252 0.77100003 4292149332
-0.14879556 0.045109969 0.77300006 4292214869
-0.147449 0.045109969 0.77300006 4292214871
-0.14610243 0.045109969 0.77300006 4292280409
-0.14475586 0.045109969 0.77300006 4292411481
-0.14359483 0.045168322 0.77400005 4292411481
-0.14224651 0.045168322 0.77400005 4292411481
-0.1408982 0.045168322 0.77400005 4292411481
-0.1395499 0.045168322 0.77400005 4292280407
-0.13820159 0.045168322 0.77400005 4292214870
-0.1372069 0.045285035 0.77600002 4292214866
-0.13585511 0.045285035 0.77600002 4292149329
-0.13484998 0.045401752 0.77800006 4292018255
-0.1334947 0.045401752 0.77800006 4291887181
-0.13247912 0.045518465 0.78000003 4291756114
-0.13112035 0.045518465 0.78000003 4291690577
-0.12992795 0.045576818 0.78100002 4291559503
-0.12856746 0.045576818 0.78100002 4291493966
-0.12785845 0.045810249 0.78500003 4291297352
-0.126491 0.045810249 0.78500003 4291297352
-0.12560169 0.045985319 0.78800005 4291231818
-0.1245443 0.046102032 0.79000002 4291297355
-0.12316812 0.046102032 0.79000002 4291362888
-0.12240861 0.046335462 0.79400003 4291428425
-0.12133032 0.04645218 0.79600006 4291166298
-0.11994369 0.04645218 0.79600006 4292085096
-0.1676475 0.046456534 0.77300006 4287829034
-0.16630092 0.046456534 0.77300006 4290510914
-0.16495435 0.046456534 0.77300006 4290379840
-0.16318448 0.046336334 0.77100003 4290576459
-0.16184139 0.046336334 0.77100003 4290576459
-0.16049832 0.046336334 0.77100003 4290904141
-0.15915523 0.046336334 0.77100003 4291035214
-0.15781216 0.046336334 0.77100003 4291428430
-0.15646906 0.046336334 0.77100003 4291428430
-0.15512599 0.046336334 0.77100003 4291690577
-0.15338399 0.046216138 0.76900005 4291756114
-0.1520444 0.046216138 0.76900005 4291756120
-0.15070479 0.046216138 0.76900005 4292018267
-0.1493652 0.046216138 0.76900005 4292214869
-0.14841057 0.046336334 0.77100003 4292280407
-0.14706749 0.046336334 0.77100003 4292345946
-0.14572442 0.046336334 0.77100003 4292345946
-0.14475586 0.046456534 0.77300006 4292411481
-0.1434093 0.046456534 0.77300006 4292411481
-0.14206274 0.046456534 0.77300006 4292411481
-0.14071617 0.046456534 0.77300006 4292280407
-0.13936961 0.046456534 0.77300006 4292214869
-0.13802303 0.046456534 0.77300006 4292214869
-0.13685328 0.046516631 0.77400005 4292149332
-0.13550496 0.046516631 0.77400005 4292018259
-0.13450332 0.046636827 0.77600002 4291952720
-0.13315153 0.046636827 0.77600002 4291952720
-0.13213943 0.046757028 0.77800006 4291559505
-0.13112035 0.046877228 0.78000003 4291493968
-0.12976159 0.046877228 0.78000003 4291493966
-0.12856746 0.04693732 0.78100002 4291428428
-0.12785845 0.047177717 0.78500003 4291297352
-0.126491 0.047177717 0.78500003 4291297352
-0.12544231 0.047297921 0.78700006 4291166281
-0.124229 0.047358017 0.78800005 4291493967
-0.12316812 0.047478214 0.79000002 4291166284
-0.12240861 0.047718611 0.79400003 4290969673
-0.12102547 0.047718611 0.79400003 4291035229
-0.11964231 0.047718611 0.79400003 4292283504
-0.1676475 0.0478031 0.77300006 4288610370
-0.16630092 0.0478031 0.77300006 4290314318
-0.16452757 0.047679417 0.77100003 4290379855
-0.16318448 0.047679417 0.77100003 4290707516
-0.16184139 0.047679417 0.77100003 4290838590
-0.16008198 0.047555733 0.76900005 4291035215
-0.15874238 0.047555733 0.76900005 4291100752
-0.15740278 0.047555733 0.76900005 4291493961
-0.1560632 0.047555733 0.76900005 4291559499
-0.15472358 0.047555733 0.76900005 4291756116
-0.15338399 0.047555733 0.76900005 4291756116
-0.1520444 0.047555733 0.76900005 4291821661
-0.15031283 0.04743205 0.76700002 4292018271
-0.14897671 0.04743205 0.76700002 4292214869
-0.14802559 0.047555733 0.76900005 4292214869
-0.146686 0.047555733 0.76900005 4292411481
-0.1453464 0.047555733 0.76900005 4292411481
-0.1440068 0.047555733 0.76900005 4292411483
-0.14303824 0.047679417 0.77100003 4292411483
-0.14169516 0.047679417 0.77100003 4292280409
-0.14035209 0.047679417 0.77100003 4292214871
-0.139009 0.047679417 0.77100003 4292214867
-0.13766593 0.047679417 0.77100003 4292149330
-0.13667646 0.0478031 0.77300006 4292149328
-0.1353299 0.0478031 0.77300006 4291952718
-0.13415667 0.04786494 0.77400005 4291756112
-0.13315153 0.04798862 0.77600002 4291690575
-0.13179973 0.04798862 0.77600002 4291690575
-0.13044794 0.04798862 0.77600002 4291625038
-0.12942888 0.048112303 0.77800006 4291428434
-0.12856746 0.048297822 0.78100002 4291297360
-0.12785845 0.048545189 0.78500003 4291231818
-0.126491 0.048545189 0.78500003 4291166281
-0.12544231 0.048668873 0.78700006 4291166281
-0.124229 0.048730712 0.78800005 4291362893
-0.12316812 0.048854392 0.79000002 4291231820
-0.12210028 0.048978075 0.79200006 4291297357
-0.12102547 0.049101759 0.79400003 4291100766
-0.11964231 0.049101759 0.79400003 4292679030
-0.1676475 0.049149666 0.77300006 4289134644
-0.16544037 0.048895333 0.76900005 4290379848
-0.16410078 0.048895333 0.76900005 4290445385
-0.16276118 0.048895333 0.76900005 4290838596
-0.16142158 0.048895333 0.76900005 4290904133
-0.16008198 0.048895333 0.76900005 4291100752
-0.15832953 0.048768166 0.76700002 4291100752
-0.15699342 0.048768166 0.76700002 4291493968
-0.15565729 0.048768166 0.76700002 4291756115
-0.15472358 0.048895333 0.76900005 4291625044
-0.15298507 0.048768166 0.76700002 4291756117
-0.15164895 0.048768166 0.76700002 4292018261
-0.15031283 0.048768166 0.76700002 4292149334
-0.14897671 0.048768166 0.76700002 4292214869
-0.14764062 0.048768166 0.76700002 4292280407
-0.1463045 0.048768166 0.76700002 4292411481
-0.14496839 0.048768166 0.76700002 4292411481
-0.14363226 0.048768166 0.76700002 4292280411
-0.14229615 0.048768166 0.76700002 4292214873
-0.14132762 0.048895333 0.76900005 4292214871
-0.13998801 0.048895333 0.76900005 4292214871
-0.13864842 0.048895333 0.76900005 4292149332
-0.13730881 0.048895333 0.76900005 4292018259
-0.13632283 0.049022496 0.77100003 4291952720
-0.13497975 0.049022496 0.77100003 4291887183
-0.13415667 0.049213249 0.77400005 4291690575
-0.13280836 0.049213249 0.77400005 4291690575
-0.13179973 0.049340412 0.77600002 4291493968
-0.13044794 0.049340412 0.77600002 4291428430
-0.12909615 0.049340412 0.77600002 4291231818
-0.12840284 0.049594745 0.78000003 4291231818
-0.12753271 0.049785495 0.78300005 4291231818
-0.126491 0.049912658 0.78500003 4291297355
-0.12544231 0.050039828 0.78700006 4291166283
-0.124229 0.050103407 0.78800005 4291166283
-0.12316812 0.050230574 0.79000002 4291362892
-0.12179194 0.050230574 0.79000002 4291362892
-0.12072061 0.050357744 0.79200006 4291035218
-0.11903957 0.050230574 0.79000002 4292942704
-0.11766339 0.050230574 0.79000002 4290853478
