# .PCD v0.7 - Point Cloud Data file format
VERSION 0.7
FIELDS x y z rgba
SIZE 4 4 4 4
TYPE F F F U
COUNT 1 1 1 1
WIDTH 1008
HEIGHT 1
VIEWPOINT 0 0 0 1 0 0 0
POINTS 1008
DATA ascii
-0.12270127 -0.090289608 0.88600004 4291231818
-0.12115785 -0.090289608 0.88600004 4291297355
-0.11934443 -0.090085804 0.88400006 4291493963
-0.11780451 -0.090085804 0.88400006 4291559501
-0.11626458 -0.090085804 0.88400006 4291952718
-0.11433531 -0.089780077 0.88100004 4292018255
-0.11280061 -0.089780077 0.88100004 4292280397
-0.11126591 -0.089780077 0.88100004 4292280397
-0.1097312 -0.089780077 0.88100004 4292477017
-0.1081965 -0.089780077 0.88100004 4292739164
-0.10641967 -0.089576267 0.87900007 4292870252
-0.10488845 -0.089576267 0.87900007 4292935790
-0.10335723 -0.089576267 0.87900007 4292935773
-0.101826 -0.089576267 0.87900007 4292935773
-0.10029479 -0.089576267 0.87900007 4292870243
-0.09876357 -0.089576267 0.87900007 4293001316
-0.097232357 -0.089576267 0.87900007 4292870249
-0.095701136 -0.089576267 0.87900007 4292870249
-0.094169922 -0.089576267 0.87900007 4293001328
-0.092638701 -0.089576267 0.87900007 4293001328
-0.13071273 -0.088946536 0.88800007 4283579196
-0.12916583 -0.088946536 0.88800007 4288544768
-0.12761894 -0.088946536 0.88800007 4289396736
-0.12607205 -0.088946536 0.88800007 4290838596
-0.12424468 -0.088746205 0.88600004 4290904133
-0.12270127 -0.088746205 0.88600004 4291166279
-0.12115785 -0.088746205 0.88600004 4291231816
-0.11740471 -0.088245369 0.88100004 4291428425
-0.11626458 -0.088545866 0.88400006 4291690573
-0.11433531 -0.088245369 0.88100004 4291821647
-0.11280061 -0.088245369 0.88100004 4291952718
-0.11126591 -0.088245369 0.88100004 4292149328
-0.1097312 -0.088245369 0.88100004 4292280407
-0.10795089 -0.088045046 0.87900007 4292477018
-0.10641967 -0.088045046 0.87900007 4292542559
-0.10488845 -0.088045046 0.87900007 4292870244
-0.10335723 -0.088045046 0.87900007 4292739164
-0.101826 -0.088045046 0.87900007 4292739164
-0.10029479 -0.088045046 0.87900007 4292870239
-0.09876357 -0.088045046 0.87900007 4293066850
-0.097011119 -0.087844715 0.87700003 4292935778
-0.095483385 -0.087844715 0.87700003 4292935778
-0.093955651 -0.087844715 0.87700003 4293001322
-0.092427917 -0.087844715 0.87700003 4293001322
-0.085824862 -0.087343894 0.87200004 4293263458
-0.084305845 -0.087343894 0.87200004 4293525602
-0.082786813 -0.087343894 0.87200004 4293591140
-0.081267789 -0.087343894 0.87200004 4293525604
-0.079748772 -0.087343894 0.87200004 4293591142
-0.07822974 -0.087343894 0.87200004 4293591150
-0.076710723 -0.087343894 0.87200004 4293722224
-0.075191699 -0.087343894 0.87200004 4293591144
-0.13071273 -0.087399639 0.88800007 4283244800
-0.12916583 -0.087399639 0.88800007 4288610304
-0.12761894 -0.087399639 0.88800007 4289789957
-0.12578809 -0.087202787 0.88600004 4290773057
-0.12424468 -0.087202787 0.88600004 4290838594
-0.12270127 -0.087202787 0.88600004 4291035202
-0.12088437 -0.087005943 0.88400006 4291166275
-0.11893942 -0.086710669 0.88100004 4291297350
-0.11740471 -0.086710669 0.88100004 4291297350
-0.11587001 -0.086710669 0.88100004 4291625031
-0.11433531 -0.086710669 0.88100004 4291690569
-0.11280061 -0.086710669 0.88100004 4291821643
-0.11101332 -0.086513832 0.87900007 4291887180
-0.1094821 -0.086513832 0.87900007 4292149327
-0.10795089 -0.086513832 0.87900007 4292280401
-0.10641967 -0.086513832 0.87900007 4292542548
-0.10464979 -0.08631698 0.87700003 4292608085
-0.10312206 -0.08631698 0.87700003 4292739158
-0.10159432 -0.08631698 0.87700003 4292608085
-0.10006659 -0.08631698 0.87700003 4292804702
-0.098538853 -0.08631698 0.87700003 4293001312
-0.097011119 -0.08631698 0.87700003 4293001311
-0.095265634 -0.086120136 0.87500006 4292935773
-0.093741387 -0.086120136 0.87500006 4293001315
-0.09221714 -0.086120136 0.87500006 4292870240
-0.088862911 -0.085824862 0.87200004 4293197917
-0.087343894 -0.085824862 0.87200004 4293197926
-0.085824862 -0.085824862 0.87200004 4293001316
-0.084305845 -0.085824862 0.87200004 4293328997
-0.082786813 -0.085824862 0.87200004 4293328997
-0.081267789 -0.085824862 0.87200004 4293394533
-0.079748772 -0.085824862 0.87200004 4293525606
-0.07822974 -0.085824862 0.87200004 4293525614
-0.076710723 -0.085824862 0.87200004 4293591152
-0.075191699 -0.085824862 0.87200004 4293591146
-0.073672675 -0.085824862 0.87200004 4293656683
-0.07215365 -0.085824862 0.87200004 4293722217
-0.070634618 -0.085824862 0.87200004 4293853290
-0.069115601 -0.085824862 0.87200004 4293853286
-0.13225962 -0.085852742 0.88800007 4294549640
-0.13071273 -0.085852742 0.88800007 4284877824
-0.12916583 -0.085852742 0.88800007 4289134592
-0.12761894 -0.085852742 0.88800007 4290052103
-0.12578809 -0.08565937 0.88600004 4290707525
-0.12424468 -0.08565937 0.88600004 4290707525
-0.1224243 -0.08546602 0.88400006 4290838598
-0.12088437 -0.08546602 0.88400006 4290904135
-0.1171382 -0.084982611 0.87900007 4291231814
-0.11587001 -0.085175976 0.88100004 4291428420
-0.11433531 -0.085175976 0.88100004 4291493957
-0.11280061 -0.085175976 0.88100004 4291887175
-0.11101332 -0.084982611 0.87900007 4291887175
-0.1094821 -0.084982611 0.87900007 4291952718
-0.10795089 -0.084982611 0.87900007 4292018255
-0.10641967 -0.084982611 0.87900007 4292214866
-0.10464979 -0.084789239 0.87700003 4292411476
-0.10312206 -0.084789239 0.87700003 4292542552
-0.10159432 -0.084789239 0.87700003 4292608089
-0.10006659 -0.084789239 0.87700003 4292739164
-0.098538853 -0.084789239 0.87700003 4293001312
-0.096789889 -0.084595889 0.87500006 4292870240
-0.095265634 -0.084595889 0.87500006 4292804703
-0.093741387 -0.084595889 0.87500006 4293001319
-0.09221714 -0.084595889 0.87500006 4293001319
-0.090381935 -0.084305845 0.87200004 4293001311
-0.088862911 -0.084305845 0.87200004 4293001311
-0.087343894 -0.084305845 0.87200004 4293197930
-0.085824862 -0.084305845 0.87200004 4293132393
-0.084305845 -0.084305845 0.87200004 4293132386
-0.082596943 -0.08411248 0.87000006 4293197923
-0.081081398 -0.08411248 0.87000006 4293394533
-0.07956586 -0.08411248 0.87000006 4293525606
-0.078050323 -0.08411248 0.87000006 4293394544
-0.076534778 -0.08411248 0.87000006 4293460082
-0.075191699 -0.084305845 0.87200004 4293525604
-0.073503703 -0.08411248 0.87000006 4293591142
-0.071988165 -0.08411248 0.87000006 4293722215
-0.070634618 -0.084305845 0.87200004 4293918825
-0.069115601 -0.084305845 0.87200004 4293787751
-0.067596577 -0.084305845 0.87200004 4293984361
-0.066077553 -0.084305845 0.87200004 4293853291
-0.064558528 -0.084305845 0.87200004 4293984366
-0.13225962 -0.084305845 0.88800007 4292835642
-0.13071273 -0.084305845 0.88800007 4285664512
-0.12916583 -0.084305845 0.88800007 4289527841
-0.12761894 -0.084305845 0.88800007 4289986600
-0.12578809 -0.084115967 0.88600004 4290445372
-0.12424468 -0.084115967 0.88600004 4290510910
-0.1224243 -0.083926089 0.88400006 4290707525
-0.12088437 -0.083926089 0.88400006 4290773062
-0.1171382 -0.08345139 0.87900007 4291035207
-0.11587001 -0.083641268 0.88100004 4291297348
-0.11433531 -0.083641268 0.88100004 4291297348
-0.11280061 -0.083641268 0.88100004 4291625031
-0.11101332 -0.08345139 0.87900007 4291690569
-0.1094821 -0.08345139 0.87900007 4291887182
-0.10795089 -0.08345139 0.87900007 4291952719
-0.10617752 -0.083261512 0.87700003 4292214864
-0.10464979 -0.083261512 0.87700003 4292280401
-0.10312206 -0.083261512 0.87700003 4292542550
-0.10136264 -0.083071634 0.87500006 4292542550
-0.099838391 -0.083071634 0.87500006 4292608093
-0.098314136 -0.083071634 0.87500006 4292935779
-0.096789889 -0.083071634 0.87500006 4292870239
-0.095265634 -0.083071634 0.87500006 4292804702
-0.093741387 -0.083071634 0.87500006 4292870246
-0.09190096 -0.082786813 0.87200004 4292804709
-0.090381935 -0.082786813 0.87200004 4293066854
-0.0886591 -0.082596943 0.87000006 4293066854
-0.087143563 -0.082596943 0.87000006 4293001322
-0.085628018 -0.082596943 0.87000006 4292870249
-0.08411248 -0.082596943 0.87000006 4293197929
-0.082596943 -0.082596943 0.87000006 4293132392
-0.081081398 -0.082596943 0.87000006 4293328995
-0.07956586 -0.082596943 0.87000006 4293394532
-0.078050323 -0.082596943 0.87000006 4293394542
-0.076534778 -0.082596943 0.87000006 4293394542
-0.07501924 -0.082596943 0.87000006 4293525612
-0.073503703 -0.082596943 0.87000006 4293591150
-0.071988165 -0.082596943 0.87000006 4293656678
-0.07047262 -0.082596943 0.87000006 4293722215
-0.068957083 -0.082596943 0.87000006 4293853290
-0.067441538 -0.082596943 0.87000006 4293918827
-0.066077553 -0.082786813 0.87200004 4293853290
-0.064558528 -0.082786813 0.87200004 4294049901
-0.063039497 -0.082786813 0.87200004 4293722232
-0.13380653 -0.082758948 0.88800007 4286938239
-0.13225962 -0.082758948 0.88800007 4291497728
-0.13071273 -0.082758948 0.88800007 4289396736
-0.12916583 -0.082758948 0.88800007 4289789992
-0.12761894 -0.082758948 0.88800007 4290117676
-0.12578809 -0.08257255 0.88600004 4290445370
-0.12424468 -0.08257255 0.88600004 4290445370
-0.1224243 -0.082386158 0.88400006 4290576448
-0.12088437 -0.082386158 0.88400006 4290576448
-0.1171382 -0.081920177 0.87900007 4290904135
-0.11587001 -0.082106568 0.88100004 4291166277
-0.11433531 -0.082106568 0.88100004 4291231814
-0.11280061 -0.082106568 0.88100004 4291428422
-0.11101332 -0.081920177 0.87900007 4291493959
-0.1094821 -0.081920177 0.87900007 4291690575
-0.10795089 -0.081920177 0.87900007 4291690575
-0.10617752 -0.081733778 0.87700003 4291887186
-0.10464979 -0.081733778 0.87700003 4291952723
-0.10288689 -0.081547387 0.87500006 4292214869
-0.10136264 -0.081547387 0.87500006 4292345944
-0.099838391 -0.081547387 0.87500006 4292542555
-0.098314136 -0.081547387 0.87500006 4292870240
-0.096789889 -0.081547387 0.87500006 4292608096
-0.094939016 -0.081267789 0.87200004 4292608096
-0.093419984 -0.081267789 0.87200004 4292804705
-0.09190096 -0.081267789 0.87200004 4292804705
-0.090381935 -0.081267789 0.87200004 4293001316
-0.0886591 -0.081081398 0.87000006 4293001316
-0.087143563 -0.081081398 0.87000006 4293132391
-0.085628018 -0.081081398 0.87000006 4293001316
-0.08411248 -0.081081398 0.87000006 4293197921
-0.082596943 -0.081081398 0.87000006 4293263458
-0.081081398 -0.081081398 0.87000006 4293394534
-0.07956586 -0.081081398 0.87000006 4293394534
-0.078050323 -0.081081398 0.87000006 4293394542
-0.076534778 -0.081081398 0.87000006 4293394542
-0.07501924 -0.081081398 0.87000006 4293525606
-0.073503703 -0.081081398 0.87000006 4293591144
-0.071988165 -0.081081398 0.87000006 4293591142
-0.07047262 -0.081081398 0.87000006 4293656679
-0.068957083 -0.081081398 0.87000006 4293722217
-0.067441538 -0.081081398 0.87000006 4293918827
-0.065925993 -0.081081398 0.87000006 4293853284
-0.064410456 -0.081081398 0.87000006 4294049894
-0.062894918 -0.081081398 0.87000006 4293918830
-0.13225962 -0.081212051 0.88800007 4288544834
-0.13071273 -0.081212051 0.88800007 4288741446
-0.12916583 -0.081212051 0.88800007 4289855537
-0.12761894 -0.081212051 0.88800007 4290052147
-0.12578809 -0.081029139 0.88600004 4290248759
-0.12424468 -0.081029139 0.88600004 4290314296
-0.1224243 -0.080846235 0.88400006 4290445370
-0.12088437 -0.080846235 0.88400006 4290510908
-0.11893942 -0.080571868 0.88100004 4290707518
-0.11740471 -0.080571868 0.88100004 4290838592
-0.11587001 -0.080571868 0.88100004 4290969666
-0.11433531 -0.080571868 0.88100004 4291035203
-0.11280061 -0.080571868 0.88100004 4291166279
-0.11101332 -0.080388956 0.87900007 4291231816
-0.1094821 -0.080388956 0.87900007 4291428427
-0.10795089 -0.080388956 0.87900007 4291428427
-0.10617752 -0.080206044 0.87700003 4291625046
-0.10441114 -0.08002314 0.87500006 4291625046
-0.10288689 -0.08002314 0.87500006 4292149338
-0.10101511 -0.079748772 0.87200004 4292149338
-0.099496081 -0.079748772 0.87200004 4292411481
-0.097977057 -0.079748772 0.87200004 4292477018
-0.096458033 -0.079748772 0.87200004 4292542559
-0.094939016 -0.079748772 0.87200004 4293001318
-0.093419984 -0.079748772 0.87200004 4292870239
-0.09190096 -0.079748772 0.87200004 4293264485
-0.090381935 -0.079748772 0.87200004 4293002082
-0.0886591 -0.07956586 0.87000006 4292739167
-0.087143563 -0.07956586 0.87000006 4293066856
-0.085628018 -0.07956586 0.87000006 4292935782
-0.08411248 -0.07956586 0.87000006 4293132380
-0.082596943 -0.07956586 0.87000006 4293197917
-0.081081398 -0.07956586 0.87000006 4293263460
-0.079382941 -0.079382941 0.86800003 4293394534
-0.077870898 -0.079382941 0.86800003 4293394547
-0.076534778 -0.07956586 0.87000006 4293394547
-0.07501924 -0.07956586 0.87000006 4293394540
-0.073503703 -0.07956586 0.87000006 4293460078
-0.071988165 -0.07956586 0.87000006 4293525606
-0.07047262 -0.07956586 0.87000006 4293525606
-0.068957083 -0.07956586 0.87000006 4293656678
-0.067441538 -0.07956586 0.87000006 4293853288
-0.065925993 -0.07956586 0.87000006 4293918817
-0.064262383 -0.079382941 0.86800003 4293984354
-0.062750332 -0.079382941 0.86800003 4293853288
-0.13225962 -0.079665154 0.88800007 4288479239
-0.13071273 -0.079665154 0.88800007 4289069072
-0.12916583 -0.079665154 0.88800007 4289855539
-0.12761894 -0.079665154 0.88800007 4289921076
-0.12578809 -0.079485729 0.88600004 4290117691
-0.12424468 -0.079485729 0.88600004 4290117691
-0.1224243 -0.079306304 0.88400006 4290314295
-0.12088437 -0.079306304 0.88400006 4290510906
-0.11893942 -0.07903716 0.88100004 4290707523
-0.11740471 -0.07903716 0.88100004 4290707523
-0.11587001 -0.07903716 0.88100004 4290838602
-0.11433531 -0.07903716 0.88100004 4290838602
-0.11254454 -0.078857742 0.87900007 4291035207
-0.11101332 -0.078857742 0.87900007 4291035207
-0.1094821 -0.078857742 0.87900007 4291231818
-0.10770526 -0.07867831 0.87700003 4291231818
-0.10617752 -0.07867831 0.87700003 4291625033
-0.10441114 -0.078498885 0.87500006 4291690571
-0.10253414 -0.07822974 0.87200004 4291952720
-0.10101511 -0.07822974 0.87200004 4291952720
-0.099496081 -0.07822974 0.87200004 4292214866
-0.097977057 -0.07822974 0.87200004 4292214866
-0.096458033 -0.07822974 0.87200004 4292345938
-0.094939016 -0.07822974 0.87200004 4292608087
-0.093419984 -0.07822974 0.87200004 4292739165
-0.091690183 -0.078050323 0.87000006 4293199716
-0.090174638 -0.078050323 0.87000006 4293001569
-0.0886591 -0.078050323 0.87000006 4293067362
-0.087143563 -0.078050323 0.87000006 4293066865
-0.085628018 -0.078050323 0.87000006 4292935790
-0.08411248 -0.078050323 0.87000006 4293328993
-0.082407057 -0.077870898 0.86800003 4293197918
-0.080895007 -0.077870898 0.86800003 4293263458
-0.079382941 -0.077870898 0.86800003 4293328995
-0.077870898 -0.077870898 0.86800003 4293460078
-0.076358832 -0.077870898 0.86800003 4293394540
-0.074846782 -0.077870898 0.86800003 4293460072
-0.073334716 -0.077870898 0.86800003 4293394534
-0.071822673 -0.077870898 0.86800003 4293591140
-0.070310608 -0.077870898 0.86800003 4293591140
-0.068798557 -0.077870898 0.86800003 4293591140
-0.067286499 -0.077870898 0.86800003 4293722215
-0.065774448 -0.077870898 0.86800003 4293722213
-0.064262383 -0.077870898 0.86800003 4293984360
-0.062605746 -0.077691466 0.86600006 4293984361
-0.061097175 -0.077691466 0.86600006 4294246509
-0.13225962 -0.078118257 0.88800007 4288217149
-0.13071273 -0.078118257 0.88800007 4288741445
-0.12916583 -0.078118257 0.88800007 4289921080
-0.12761894 -0.078118257 0.88800007 4290052153
-0.12578809 -0.077942312 0.88600004 4290117693
-0.12424468 -0.077942312 0.88600004 4290117693
-0.1224243 -0.077766374 0.88400006 4290248759
-0.12088437 -0.077766374 0.88400006 4290314296
-0.11893942 -0.077502459 0.88100004 4290379848
-0.11740471 -0.077502459 0.88100004 4290379848
-0.11587001 -0.077502459 0.88100004 4290707525
-0.11433531 -0.077502459 0.88100004 4290707525
-0.11254454 -0.077326521 0.87900007 4290969666
-0.11101332 -0.077326521 0.87900007 4291035203
-0.10923299 -0.077150576 0.87700003 4291166279
-0.10770526 -0.077150576 0.87700003 4291231816
-0.10593539 -0.076974638 0.87500006 4291428422
-0.10441114 -0.076974638 0.87500006 4291493959
-0.10253414 -0.076710723 0.87200004 4291821643
-0.10101511 -0.076710723 0.87200004 4291821643
-0.099496081 -0.076710723 0.87200004 4292149323
-0.097977057 -0.076710723 0.87200004 4292214860
-0.096458033 -0.076710723 0.87200004 4292214866
-0.094721265 -0.076534778 0.87000006 4292214866
-0.093205728 -0.076534778 0.87000006 4292608081
-0.091690183 -0.076534778 0.87000006 4293002071
-0.090174638 -0.076534778 0.87000006 4292935774
-0.088455282 -0.076358832 0.86800003 4293001567
-0.086943232 -0.076358832 0.86800003 4293066869
-0.085431166 -0.076358832 0.86800003 4292804720
-0.083919123 -0.076358832 0.86800003 4293328997
-0.082407057 -0.076358832 0.86800003 4293328997
-0.080895007 -0.076358832 0.86800003 4293263458
-0.079382941 -0.076358832 0.86800003 4293394532
-0.077870898 -0.076358832 0.86800003 4293460072
-0.076358832 -0.076358832 0.86800003 4293460072
-0.074846782 -0.076358832 0.86800003 4293525604
-0.073334716 -0.076358832 0.86800003 4293591142
-0.071657181 -0.076182894 0.86600006 4293525603
-0.070148602 -0.076182894 0.86600006 4293591140
-0.068640038 -0.076182894 0.86600006 4293591142
-0.06713146 -0.076182894 0.86600006 4293591142
-0.065622889 -0.076182894 0.86600006 4293722215
-0.064114325 -0.076182894 0.86600006 4293722215
-0.06246116 -0.076006949 0.86400002 4293918822
-0.060956068 -0.076006949 0.86400002 4294180969
-0.059450984 -0.076006949 0.86400002 4294049905
-0.057945892 -0.076006949 0.86400002 4293918831
-0.13071273 -0.076571368 0.88800007 4289069107
-0.12916583 -0.076571368 0.88800007 4289921091
-0.12761894 -0.076571368 0.88800007 4289921091
-0.12578809 -0.076398902 0.88600004 4289921093
-0.12424468 -0.076398902 0.88600004 4289855556
-0.1224243 -0.076226443 0.88400006 4290052146
-0.12088437 -0.076226443 0.88400006 4290117683
-0.11893942 -0.075967759 0.88100004 4290314312
-0.11740471 -0.075967759 0.88100004 4290314312
-0.11587001 -0.075967759 0.88100004 4290379848
-0.11433531 -0.075967759 0.88100004 4290445385
-0.11254454 -0.0757953 0.87900007 4290707523
-0.11101332 -0.0757953 0.87900007 4290707523
-0.10923299 -0.075622842 0.87700003 4290969666
-0.10745964 -0.075450383 0.87500006 4291035203
-0.10593539 -0.075450383 0.87500006 4291297350
-0.10441114 -0.075450383 0.87500006 4291297350
-0.10253414 -0.075191699 0.87200004 4291428422
-0.10101511 -0.075191699 0.87200004 4291493959
-0.099496081 -0.075191699 0.87200004 4291887182
-0.097977057 -0.075191699 0.87200004 4291952719
-0.096458033 -0.075191699 0.87200004 4292214864
-0.094721265 -0.07501924 0.87000006 4292280401
-0.093205728 -0.07501924 0.87000006 4292477010
-0.091690183 -0.07501924 0.87000006 4293001307
-0.089967348 -0.074846782 0.86800003 4292804700
-0.088455282 -0.074846782 0.86800003 4293001567
-0.086943232 -0.074846782 0.86800003 4293263724
-0.085431166 -0.074846782 0.86800003 4293132393
-0.083919123 -0.074846782 0.86800003 4293263463
-0.082217187 -0.074674323 0.86600006 4293197926
-0.080708608 -0.074674323 0.86600006 4293328998
-0.079382941 -0.074846782 0.86800003 4293328998
-0.077691466 -0.074674323 0.86600006 4293329001
-0.076182894 -0.074674323 0.86600006 4293263464
-0.074674323 -0.074674323 0.86600006 4293591142
-0.073165752 -0.074674323 0.86600006 4293525604
-0.071657181 -0.074674323 0.86600006 4293525603
-0.070148602 -0.074674323 0.86600006 4293591140
-0.068640038 -0.074674323 0.86600006 4293591146
-0.066976421 -0.074501865 0.86400002 4293591146
-0.065471329 -0.074501865 0.86400002 4293656678
-0.063966244 -0.074501865 0.86400002 4293591140
-0.06246116 -0.074501865 0.86400002 4293787748
-0.060956068 -0.074501865 0.86400002 4293787748
-0.059450984 -0.074501865 0.86400002 4293918826
-0.057945892 -0.074501865 0.86400002 4293984363
-0.056440808 -0.074501865 0.86400002 4293984361
-0.054935716 -0.074501865 0.86400002 4293853288
-0.13115433 -0.075277925 0.89100003 4289003581
-0.12761894 -0.075024471 0.88800007 4289790029
-0.12607205 -0.075024471 0.88800007 4289921095
-0.12424468 -0.074855492 0.88600004 4289855558
-0.12270127 -0.074855492 0.88600004 4289986607
-0.12088437 -0.07468652 0.88400006 4290052144
-0.11893942 -0.074433051 0.88100004 4290314312
-0.11740471 -0.074433051 0.88100004 4290314312
-0.11587001 -0.074433051 0.88100004 4290379848
-0.11433531 -0.074433051 0.88100004 4290379848
-0.11254454 -0.074264087 0.87900007 4290707523
-0.11101332 -0.074264087 0.87900007 4290707523
-0.10923299 -0.0740951 0.87700003 4290904127
-0.10745964 -0.073926136 0.87500006 4290969664
-0.10593539 -0.073926136 0.87500006 4291166275
-0.10441114 -0.073926136 0.87500006 4291166275
-0.10253414 -0.073672675 0.87200004 4291231813
-0.10101511 -0.073672675 0.87200004 4291297350
-0.099496081 -0.073672675 0.87200004 4291428436
-0.097977057 -0.073672675 0.87200004 4291428436
-0.096458033 -0.073672675 0.87200004 4291952716
-0.094721265 -0.073503703 0.87000006 4291952716
-0.093205728 -0.073503703 0.87000006 4292214866
-0.091479391 -0.073334716 0.86800003 4292608088
-0.08976005 -0.073165752 0.86600006 4292673624
-0.088251472 -0.073165752 0.86600006 4292739417
-0.0867429 -0.073165752 0.86600006 4293066850
-0.085234329 -0.073165752 0.86600006 4293329767
-0.083725758 -0.073165752 0.86600006 4293198180
-0.082217187 -0.073165752 0.86600006 4293132387
-0.080708608 -0.073165752 0.86600006 4293197929
-0.079200044 -0.073165752 0.86600006 4293066854
-0.077691466 -0.073165752 0.86600006 4293329002
-0.076182894 -0.073165752 0.86600006 4293197928
-0.074674323 -0.073165752 0.86600006 4293460070
-0.073165752 -0.073165752 0.86600006 4293460070
-0.071491688 -0.072996773 0.86400002 4293460070
-0.069986604 -0.072996773 0.86400002 4293460070
-0.068481512 -0.072996773 0.86400002 4293460072
-0.066976421 -0.072996773 0.86400002 4293460072
-0.065471329 -0.072996773 0.86400002 4293591142
-0.063818179 -0.072827801 0.86200005 4293525604
-0.062316574 -0.072827801 0.86200005 4293656676
-0.060814973 -0.072827801 0.86200005 4293656676
-0.059313368 -0.072827801 0.86200005 4293853285
-0.057811759 -0.072827801 0.86200005 4293918822
-0.056310154 -0.072827801 0.86200005 4293853286
-0.054808553 -0.072827801 0.86200005 4293918823
-0.053430628 -0.072996773 0.86400002 4293984361
-0.12761894 -0.073477574 0.88800007 4289790025
-0.12607205 -0.073477574 0.88800007 4289921095
-0.12424468 -0.073312081 0.88600004 4289921095
-0.12270127 -0.073312081 0.88600004 4289921082
-0.12088437 -0.073146589 0.88400006 4289921082
-0.11893942 -0.072898358 0.88100004 4290117703
-0.11740471 -0.072898358 0.88100004 4290117703
-0.11587001 -0.072898358 0.88100004 4290183237
-0.11433531 -0.072898358 0.88100004 4290183237
-0.11254454 -0.072732866 0.87900007 4290445368
-0.11101332 -0.072732866 0.87900007 4290510906
-0.10923299 -0.072567374 0.87700003 4290773053
-0.10745964 -0.072401889 0.87500006 4290773053
-0.10593539 -0.072401889 0.87500006 4290838596
-0.10441114 -0.072401889 0.87500006 4290838596
-0.10253414 -0.07215365 0.87200004 4291166279
-0.10101511 -0.07215365 0.87200004 4291166279
-0.099496081 -0.07215365 0.87200004 4291297350
-0.097977057 -0.07215365 0.87200004 4291428423
-0.096236803 -0.071988165 0.87000006 4291887175
-0.094721265 -0.071988165 0.87000006 4291887175
-0.092991456 -0.071822673 0.86800003 4292083784
-0.091479391 -0.071822673 0.86800003 4292280395
-0.08976005 -0.071657181 0.86600006 4292345940
-0.088251472 -0.071657181 0.86600006 4292477014
-0.086542569 -0.071491688 0.86400002 4292673628
-0.085037477 -0.071491688 0.86400002 4293066850
-0.083532386 -0.071491688 0.86400002 4293001830
-0.082027301 -0.071491688 0.86400002 4293067624
-0.080522217 -0.071491688 0.86400002 4293197926
-0.079017125 -0.071491688 0.86400002 4293263976
-0.077691466 -0.071657181 0.86600006 4293460075
-0.076182894 -0.071657181 0.86600006 4293263465
-0.074674323 -0.071657181 0.86600006 4293394534
-0.072996773 -0.071491688 0.86400002 4293328997
-0.071491688 -0.071491688 0.86400002 4293329001
-0.069986604 -0.071491688 0.86400002 4293329001
-0.068481512 -0.071491688 0.86400002 4293460073
-0.066821381 -0.071326204 0.86200005 4293460073
-0.065319784 -0.071326204 0.86200005 4293525604
-0.063818179 -0.071326204 0.86200005 4293525604
-0.062316574 -0.071326204 0.86200005 4293656672
-0.060814973 -0.071326204 0.86200005 4293656672
-0.059313368 -0.071326204 0.86200005 4293787748
-0.057811759 -0.071326204 0.86200005 4293787748
-0.056310154 -0.071326204 0.86200005 4293853285
-0.054808553 -0.071326204 0.86200005 4293984359
-0.12424468 -0.071768664 0.88600004 4289790023
-0.12270127 -0.071768664 0.88600004 4289790023
-0.12088437 -0.071606658 0.88400006 4289790023
-0.11934443 -0.071606658 0.88400006 4289921091
-0.11780451 -0.071606658 0.88400006 4289921091
-0.11587001 -0.07136365 0.88100004 4290117701
-0.11433531 -0.07136365 0.88100004 4289921090
-0.11254454 -0.071201652 0.87900007 4290248750
-0.11076073 -0.071039639 0.87700003 4290445360
-0.10923299 -0.071039639 0.87700003 4290510912
-0.10745964 -0.070877634 0.87500006 4290510912
-0.10593539 -0.070877634 0.87500006 4290773055
-0.10405315 -0.070634618 0.87200004 4290838592
-0.10253414 -0.070634618 0.87200004 4291035207
-0.10101511 -0.070634618 0.87200004 4291035207
-0.099496081 -0.070634618 0.87200004 4291297350
-0.097977057 -0.070634618 0.87200004 4291297350
-0.096236803 -0.07047262 0.87000006 4291821629
-0.094721265 -0.07047262 0.87000006 4291887167
-0.092991456 -0.070310608 0.86800003 4291887175
-0.091479391 -0.070310608 0.86800003 4291952712
-0.08976005 -0.070148602 0.86600006 4292214862
-0.088251472 -0.070148602 0.86600006 4292411472
-0.086542569 -0.069986604 0.86400002 4292542553
-0.085037477 -0.069986604 0.86400002 4293001312
-0.083532386 -0.069986604 0.86400002 4293002334
-0.082027301 -0.069986604 0.86400002 4293068128
-0.080522217 -0.069986604 0.86400002 4293264485
-0.079017125 -0.069986604 0.86400002 4293133156
-0.077512041 -0.069986604 0.86400002 4293329000
-0.076006949 -0.069986604 0.86400002 4293460073
-0.074501865 -0.069986604 0.86400002 4293460075
-0.072996773 -0.069986604 0.86400002 4293329002
-0.071491688 -0.069986604 0.86400002 4293329007
-0.069986604 -0.069986604 0.86400002 4293394544
-0.068322986 -0.069824599 0.86200005 4293329007
-0.066821381 -0.069824599 0.86200005 4293263470
-0.065319784 -0.069824599 0.86200005 4293460070
-0.063818179 -0.069824599 0.86200005 4293394532
-0.062316574 -0.069824599 0.86200005 4293525595
-0.060814973 -0.069824599 0.86200005 4293525595
-0.059106935 -0.069581583 0.85900003 4293591140
-0.05761056 -0.069581583 0.85900003 4293656678
-0.056114182 -0.069581583 0.85900003 4293722217
-0.0546178 -0.069581583 0.85900003 4293853290
-0.053306948 -0.069824599 0.86200005 4293918823
-0.051805343 -0.069824599 0.86200005 4293918823
-0.050303739 -0.069824599 0.86200005 4293984363
-0.048802134 -0.069824599 0.86200005 4293984363
-0.047300532 -0.069824599 0.86200005 4293918827
-0.13486131 -0.07093861 0.89500004 4285943133
-0.13330221 -0.07093861 0.89500004 4288872528
-0.13174312 -0.07093861 0.89500004 4289331287
-0.12452515 -0.07038378 0.88800007 4289593417
-0.12270127 -0.070225254 0.88600004 4289790023
-0.12088437 -0.070066735 0.88400006 4289790023
-0.11934443 -0.070066735 0.88400006 4289921093
-0.11780451 -0.070066735 0.88400006 4289921093
-0.11587001 -0.06982895 0.88100004 4290052163
-0.11407576 -0.069670431 0.87900007 4290117701
-0.11254454 -0.069670431 0.87900007 4290183220
-0.11076073 -0.069511905 0.87700003 4290314294
-0.10923299 -0.069511905 0.87700003 4290314302
-0.10745964 -0.069353387 0.87500006 4290379840
-0.10593539 -0.069353387 0.87500006 4290707523
-0.10405315 -0.069115601 0.87200004 4290707523
-0.10253414 -0.069115601 0.87200004 4290904127
-0.10101511 -0.069115601 0.87200004 4290969664
-0.099496081 -0.069115601 0.87200004 4291166275
-0.097977057 -0.069115601 0.87200004 4291231812
-0.096236803 -0.068957083 0.87000006 4291559492
-0.094503507 -0.068798557 0.86800003 4291625029
-0.092991456 -0.068798557 0.86800003 4291887177
-0.091479391 -0.068798557 0.86800003 4291952714
-0.08976005 -0.068640038 0.86600006 4292083788
-0.088047661 -0.068481512 0.86400002 4292149325
-0.086542569 -0.068481512 0.86400002 4292477012
-0.085037477 -0.068481512 0.86400002 4292870234
-0.083532386 -0.068481512 0.86400002 4292739165
-0.082027301 -0.068481512 0.86400002 4292935777
-0.080522217 -0.068481512 0.86400002 4293133921
-0.079017125 -0.068481512 0.86400002 4293002334
-0.077512041 -0.068481512 0.86400002 4293329000
-0.076006949 -0.068481512 0.86400002 4294117236
-0.074501865 -0.068481512 0.86400002 4293526380
-0.072996773 -0.068481512 0.86400002 4293526380
-0.071491688 -0.068481512 0.86400002 4293460587
-0.069986604 -0.068481512 0.86400002 4293197927
-0.065092452 -0.068085201 0.85900003 4293394538
-0.06359607 -0.068085201 0.85900003 4293263464
-0.062099695 -0.068085201 0.85900003 4293525600
-0.060603313 -0.068085201 0.85900003 4293591138
-0.058969319 -0.06792669 0.85700005 4293656678
-0.057476427 -0.06792669 0.85700005 4293656678
-0.056114182 -0.068085201 0.85900003 4293853287
-0.0546178 -0.068085201 0.85900003 4293853287
-0.053121425 -0.068085201 0.85900003 4293853286
-0.051625047 -0.068085201 0.85900003 4293918823
-0.050128669 -0.068085201 0.85900003 4294049892
-0.04863229 -0.068085201 0.85900003 4294180966
-0.047135912 -0.068085201 0.85900003 4294115437
-0.045639534 -0.068085201 0.85900003 4294115437
-0.044143155 -0.068085201 0.85900003 4293853295
-0.042646777 -0.068085201 0.85900003 4293918833
-0.041150399 -0.068085201 0.85900003 4293722219
-0.03965402 -0.068085201 0.85900003 4293722219
-0.036661264 -0.068085201 0.85900003 4293197925
-0.035164885 -0.068085201 0.85900003 4292739168
-0.13687767 -0.069612071 0.89800006 4294961396
-0.13531335 -0.069612071 0.89800006 4287194481
-0.13330221 -0.069379516 0.89500004 4288544861
-0.13174312 -0.069379516 0.89500004 4289003620
-0.12270127 -0.068681844 0.88600004 4289593417
-0.12115785 -0.068681844 0.88600004 4289593417
-0.11934443 -0.068526804 0.88400006 4289790021
-0.11587001 -0.068294249 0.88100004 4289790023
-0.11407576 -0.06813921 0.87900007 4289790023
-0.11228846 -0.067984171 0.87700003 4290052163
-0.11076073 -0.067984171 0.87700003 4290117701
-0.10923299 -0.067984171 0.87700003 4290183237
-0.10557218 -0.067596577 0.87200004 4290445372
-0.10405315 -0.067596577 0.87200004 4290510910
-0.10253414 -0.067596577 0.87200004 4290773055
-0.10101511 -0.067596577 0.87200004 4290773055
-0.099496081 -0.067596577 0.87200004 4290969664
-0.097977057 -0.067596577 0.87200004 4291035201
-0.096236803 -0.067441538 0.87000006 4291231809
-0.094503507 -0.067286499 0.86800003 4291297346
-0.092991456 -0.067286499 0.86800003 4291625031
-0.091479391 -0.067286499 0.86800003 4291690569
-0.089552745 -0.066976421 0.86400002 4291952716
-0.088047661 -0.066976421 0.86400002 4291952716
-0.086542569 -0.066976421 0.86400002 4292214862
-0.085037477 -0.066976421 0.86400002 4292411472
-0.083532386 -0.066976421 0.86400002 4292542548
-0.082027301 -0.066976421 0.86400002 4292804695
-0.080522217 -0.066976421 0.86400002 4292935769
-0.079017125 -0.066976421 0.86400002 4293132635
-0.077512041 -0.066976421 0.86400002 4293132390
-0.076006949 -0.066976421 0.86400002 4294315640
-0.074501865 -0.066976421 0.86400002 4293528425
-0.072827801 -0.066821381 0.86200005 4293396838
-0.071326204 -0.066821381 0.86200005 4293461868
-0.066433787 -0.066433787 0.85700005 4293197923
-0.0649409 -0.066433787 0.85700005 4293460071
-0.063447997 -0.066433787 0.85700005 4293394534
-0.062099695 -0.066588826 0.85900003 4293460072
-0.060462218 -0.066433787 0.85700005 4293460072
-0.058969319 -0.066433787 0.85700005 4293591146
-0.057476427 -0.066433787 0.85700005 4293591146
-0.055983528 -0.066433787 0.85700005 4293591146
-0.054490637 -0.066433787 0.85700005 4293591146
-0.053121425 -0.066588826 0.85900003 4293722213
-0.051625047 -0.066588826 0.85900003 4293722213
-0.050128669 -0.066588826 0.85900003 4294115426
-0.04863229 -0.066588826 0.85900003 4294246499
-0.047135912 -0.066588826 0.85900003 4293984363
-0.045639534 -0.066588826 0.85900003 4293984363
-0.044143155 -0.066588826 0.85900003 4294049911
-0.042646777 -0.066588826 0.85900003 4293984373
-0.041150399 -0.066588826 0.85900003 4293984365
-0.03965402 -0.066588826 0.85900003 4293984365
-0.038157642 -0.066588826 0.85900003 4293591142
-0.03657591 -0.066433787 0.85700005 4293460068
-0.035083015 -0.066433787 0.85700005 4293001315
-0.033668511 -0.066588826 0.85900003 4292870241
-0.13687767 -0.068047754 0.89800006 4294964219
-0.13531335 -0.068047754 0.89800006 4287196276
-0.13374904 -0.068047754 0.89800006 4289462366
-0.13218471 -0.068047754 0.89800006 4289200219
-0.12270127 -0.067138426 0.88600004 4289593423
-0.12115785 -0.067138426 0.88600004 4289593423
-0.11934443 -0.066986874 0.88400006 4289790025
-0.11407576 -0.066607997 0.87900007 4289790023
-0.11228846 -0.066456437 0.87700003 4289921093
-0.11076073 -0.066456437 0.87700003 4289986631
-0.10923299 -0.066456437 0.87700003 4290183237
-0.10557218 -0.066077553 0.87200004 4290314302
-0.10405315 -0.066077553 0.87200004 4290379840
-0.10253414 -0.066077553 0.87200004 4290707523
-0.10101511 -0.066077553 0.87200004 4290707523
-0.099496081 -0.066077553 0.87200004 4290904127
-0.097977057 -0.066077553 0.87200004 4290969664
-0.096236803 -0.065925993 0.87000006 4291166275
-0.094503507 -0.065774448 0.86800003 4291166275
-0.092777185 -0.065622889 0.86600006 4291297350
-0.091268614 -0.065622889 0.86600006 4291297350
-0.089552745 -0.065471329 0.86400002 4291625031
-0.088047661 -0.065471329 0.86400002 4291690569
-0.086542569 -0.065471329 0.86400002 4291952714
-0.085037477 -0.065471329 0.86400002 4292018251
-0.083532386 -0.065471329 0.86400002 4292411475
-0.082027301 -0.065471329 0.86400002 4292477012
-0.080522217 -0.065471329 0.86400002 4292804697
-0.079017125 -0.065471329 0.86400002 4292870234
-0.077512041 -0.065471329 0.86400002 4293001312
-0.075831011 -0.065319784 0.86200005 4294118769
-0.074329406 -0.065319784 0.86200005 4293464680
-0.072827801 -0.065319784 0.86200005 4293267558
-0.071077965 -0.065092452 0.85900003 4293658477
-0.069581583 -0.065092452 0.85900003 4293724527
-0.06792669 -0.0649409 0.85700005 4293723239
-0.066278748 -0.06478934 0.85500002 4293394530
-0.06478934 -0.06478934 0.85500002 4293460071
-0.063447997 -0.0649409 0.85700005 4293394534
-0.061955109 -0.0649409 0.85700005 4293460068
-0.060321111 -0.06478934 0.85500002 4293460068
-0.058831695 -0.06478934 0.85500002 4293525611
-0.057342287 -0.06478934 0.85500002 4293525611
-0.055983528 -0.0649409 0.85700005 4293460072
-0.054490637 -0.0649409 0.85700005 4293460072
-0.052997746 -0.0649409 0.85700005 4293656677
-0.05150485 -0.0649409 0.85700005 4293722214
-0.050011955 -0.0649409 0.85700005 4293853284
-0.04851906 -0.0649409 0.85700005 4293853284
-0.047026169 -0.0649409 0.85700005 4293918824
-0.045533273 -0.0649409 0.85700005 4294180971
-0.044040378 -0.0649409 0.85700005 4294246513
-0.042547483 -0.0649409 0.85700005 4294246513
-0.041054588 -0.0649409 0.85700005 4294180970
-0.039561696 -0.0649409 0.85700005 4294246507
-0.038068805 -0.0649409 0.85700005 4293853291
-0.03657591 -0.0649409 0.85700005 4293722217
-0.035083015 -0.0649409 0.85700005 4293460072
-0.033590119 -0.0649409 0.85700005 4293263460
-0.032097224 -0.0649409 0.85700005 4292739166
-0.1371825 -0.066631503 0.90000004 4294964473
-0.13561472 -0.066631503 0.90000004 4290551973
-0.13374904 -0.066483438 0.89800006 4288876957
-0.13218471 -0.066483438 0.89800006 4287496329
-0.12297826 -0.065743089 0.88800007 4289658965
-0.12115785 -0.065595016 0.88600004 4289658965
-0.11961444 -0.065595016 0.88600004 4289921101
-0.11807103 -0.065595016 0.88600004 4289790027
-0.11076073 -0.064928703 0.87700003 4289790023
-0.10923299 -0.064928703 0.87700003 4290052163
-0.10557218 -0.064558528 0.87200004 4290314302
-0.10405315 -0.064558528 0.87200004 4290314302
-0.10253414 -0.064558528 0.87200004 4290445374
-0.10101511 -0.064558528 0.87200004 4290510912
-0.099496081 -0.064558528 0.87200004 4290773053
-0.097752348 -0.064410456 0.87000006 4290773053
-0.096236803 -0.064410456 0.87000006 4290969666
-0.094503507 -0.064262383 0.86800003 4290969666
-0.092777185 -0.064114325 0.86600006 4291166279
-0.091268614 -0.064114325 0.86600006 4291231816
-0.089552745 -0.063966244 0.86400002 4291297352
-0.088047661 -0.063966244 0.86400002 4291428425
-0.086542569 -0.063966244 0.86400002 4291821641
-0.085037477 -0.063966244 0.86400002 4291821641
-0.083339036 -0.063818179 0.86200005 4292149327
-0.081837431 -0.063818179 0.86200005 4292214864
-0.080335826 -0.063818179 0.86200005 4292542542
-0.078834213 -0.063818179 0.86200005 4293066838
-0.077332616 -0.063818179 0.86200005 4292935775
-0.075831011 -0.063818179 0.86200005 4293526632
-0.074070714 -0.06359607 0.85900003 4293201765
-0.07257434 -0.06359607 0.85900003 4293530473
-0.071077965 -0.06359607 0.85900003 4293792628
-0.069419578 -0.063447997 0.85700005 4293529712
-0.06792669 -0.063447997 0.85700005 4293725290
-0.066278748 -0.063299932 0.85500002 4293527911
-0.06478934 -0.063299932 0.85500002 4293722987
-0.063299932 -0.063299932 0.85500002 4293394534
-0.061810523 -0.063299932 0.85500002 4293591144
-0.060321111 -0.063299932 0.85500002 4293328997
-0.058831695 -0.063299932 0.85500002 4293525611
-0.057342287 -0.063299932 0.85500002 4293460074
-0.055852879 -0.063299932 0.85500002 4293591146
-0.054363471 -0.063299932 0.85500002 4293591146
-0.052874058 -0.063299932 0.85500002 4293591140
-0.05138465 -0.063299932 0.85500002 4293591140
-0.049895238 -0.063299932 0.85500002 4293722210
-0.04840583 -0.063299932 0.85500002 4293853285
-0.046916418 -0.063299932 0.85500002 4293722217
-0.045533273 -0.063447997 0.85700005 4293918827
-0.044040378 -0.063447997 0.85700005 4294115433
-0.042448189 -0.063299932 0.85500002 4294115433
-0.040958777 -0.063299932 0.85500002 4294115433
-0.039469369 -0.063299932 0.85500002 4294180970
-0.037979957 -0.063299932 0.85500002 4293853292
-0.036490548 -0.063299932 0.85500002 4294115440
-0.03500114 -0.063299932 0.85500002 4293722221
-0.033511728 -0.063299932 0.85500002 4293591148
-0.032022316 -0.063299932 0.85500002 4293263464
-0.030604329 -0.063447997 0.85700005 4293132389
-0.1371825 -0.065063708 0.90000004 4294964215
-0.13561472 -0.065063708 0.90000004 4291144623
-0.13404691 -0.065063708 0.90000004 4291057561
-0.13247912 -0.065063708 0.90000004 4286649687
-0.12297826 -0.064196192 0.88800007 4289724498
-0.12143136 -0.064196192 0.88800007 4289658961
-0.11961444 -0.064051606 0.88600004 4289724495
-0.11807103 -0.064051606 0.88600004 4289593421
-0.11254454 -0.063545555 0.87900007 4289790025
-0.11101332 -0.063545555 0.87900007 4289790025
-0.10745964 -0.063256383 0.87500006 4290052155
-0.10593539 -0.063256383 0.87500006 4290117691
-0.10441114 -0.063256383 0.87500006 4290117691
-0.10288689 -0.063256383 0.87500006 4290314300
-0.10101511 -0.063039497 0.87200004 4290314300
-0.099496081 -0.063039497 0.87200004 4290576442
-0.097752348 -0.062894918 0.87000006 4290576442
-0.096236803 -0.062894918 0.87000006 4290773053
-0.094503507 -0.062750332 0.86800003 4290773053
-0.092777185 -0.062605746 0.86600006 4290969670
-0.091268614 -0.062605746 0.86600006 4290969670
-0.089552745 -0.06246116 0.86400002 4291231813
-0.088047661 -0.06246116 0.86400002 4291297350
-0.086542569 -0.06246116 0.86400002 4291493959
-0.084840633 -0.062316574 0.86200005 4291559497
-0.083339036 -0.062316574 0.86200005 4291821643
-0.081837431 -0.062316574 0.86200005 4291952717
-0.080335826 -0.062316574 0.86200005 4292345933
-0.078834213 -0.062316574 0.86200005 4292542543
-0.077332616 -0.062316574 0.86200005 4292673623
-0.075567096 -0.062099695 0.85900003 4293197919
-0.074070714 -0.062099695 0.85900003 4293001819
-0.07257434 -0.062099695 0.85900003 4293725542
-0.071077965 -0.062099695 0.85900003 4293532270
-0.069419578 -0.061955109 0.85700005 4293532270
-0.067768157 -0.061810523 0.85500002 4293660778
-0.066278748 -0.061810523 0.85500002 4293660778
-0.06478934 -0.061810523 0.85500002 4293857141
-0.063299932 -0.061810523 0.85500002 4293462383
-0.061810523 -0.061810523 0.85500002 4293591151
-0.060180008 -0.061665937 0.85300004 4293329002
-0.058694083 -0.061665937 0.85300004 4293525607
-0.057208154 -0.061665937 0.85300004 4293460070
-0.055722229 -0.061665937 0.85300004 4293656679
-0.054236308 -0.061665937 0.85300004 4293656679
-0.052750379 -0.061665937 0.85300004 4293722213
-0.05138465 -0.061810523 0.85500002 4293722213
-0.049895238 -0.061810523 0.85500002 4293787744
-0.04840583 -0.061810523 0.85500002 4293853281
-0.046916418 -0.061810523 0.85500002 4293853285
-0.045427009 -0.061810523 0.85500002 4293918822
-0.043937597 -0.061810523 0.85500002 4293918824
-0.042448189 -0.061810523 0.85500002 4294115434
-0.040958777 -0.061810523 0.85500002 4294115434
-0.039469369 -0.061810523 0.85500002 4294246509
-0.037979957 -0.061810523 0.85500002 4293984366
-0.036490548 -0.061810523 0.85500002 4293984366
-0.03500114 -0.061810523 0.85500002 4293787753
-0.033511728 -0.061810523 0.85500002 4293722215
-0.032022316 -0.061810523 0.85500002 4293460072
-0.030532908 -0.061810523 0.85500002 4293328998
-0.13218471 -0.063354805 0.89800006 4285803884
-0.13062039 -0.063354805 0.89800006 4288806992
-0.12297826 -0.062649302 0.88800007 4289724505
-0.12143136 -0.062649302 0.88800007 4289593432
-0.11961444 -0.062508196 0.88600004 4289921103
-0.11807103 -0.062508196 0.88600004 4289593418
-0.11101332 -0.062014338 0.87900007 4289790023
-0.1094821 -0.062014338 0.87900007 4289855548
-0.10745964 -0.061732136 0.87500006 4289790011
-0.10593539 -0.061732136 0.87500006 4289921091
-0.10441114 -0.061732136 0.87500006 4289855554
-0.10288689 -0.061732136 0.87500006 4290117691
-0.10101511 -0.06152048 0.87200004 4290117691
-0.099496081 -0.06152048 0.87200004 4290314291
-0.097752348 -0.061379381 0.87000006 4290445364
-0.096236803 -0.061379381 0.87000006 4290707512
-0.094503507 -0.06123827 0.86800003 4290707512
-0.092777185 -0.061097175 0.86600006 4290904127
-0.091268614 -0.061097175 0.86600006 4290969664
-0.089552745 -0.060956068 0.86400002 4291166275
-0.088047661 -0.060956068 0.86400002 4291166275
-0.086542569 -0.060956068 0.86400002 4291297350
-0.084840633 -0.060814973 0.86200005 4291428423
-0.083339036 -0.060814973 0.86200005 4291690573
-0.081837431 -0.060814973 0.86200005 4291690573
-0.080335826 -0.060814973 0.86200005 4291952718
-0.078834213 -0.060814973 0.86200005 4292018255
-0.077332616 -0.060814973 0.86200005 4292477006
-0.075567096 -0.060603313 0.85900003 4292804691
-0.074070714 -0.060603313 0.85900003 4292870230
-0.07257434 -0.060603313 0.85900003 4293132889
-0.071077965 -0.060603313 0.85900003 4293332579
-0.069419578 -0.060462218 0.85700005 4293990765
-0.067768157 -0.060321111 0.85500002 4293596007
-0.066278748 -0.060321111 0.85500002 4293793130
-0.06478934 -0.060321111 0.85500002 4293793663
-0.063299932 -0.060321111 0.85500002 4293464699
-0.061665937 -0.060180008 0.85300004 4293657714
-0.060180008 -0.060180008 0.85300004 4293394542
-0.058694083 -0.060180008 0.85300004 4293656683
-0.057208154 -0.060180008 0.85300004 4293591146
-0.055722229 -0.060180008 0.85300004 4293656679
-0.054236308 -0.060180008 0.85300004 4293656679
-0.052750379 -0.060180008 0.85300004 4293656677
-0.051264454 -0.060180008 0.85300004 4293591140
-0.049778529 -0.060180008 0.85300004 4293591132
-0.0482926 -0.060180008 0.85300004 4293722207
-0.046806674 -0.060180008 0.85300004 4293722213
-0.045427009 -0.060321111 0.85500002 4293722213
-0.043937597 -0.060321111 0.85500002 4293853285
-0.042348895 -0.060180008 0.85300004 4293918822
-0.04086297 -0.060180008 0.85300004 4293918824
-0.039377045 -0.060180008 0.85300004 4293984361
-0.037891116 -0.060180008 0.85300004 4294115443
-0.036405191 -0.060180008 0.85300004 4294049905
-0.034919266 -0.060180008 0.85300004 4293984361
-0.03343334 -0.060180008 0.85300004 4294049898
-0.031947412 -0.060180008 0.85300004 4293920354
-0.030532908 -0.060321111 0.85500002 4293657183
-0.029043498 -0.060321111 0.85500002 4293328998
-0.13561472 -0.061928108 0.90000004 4294631138
-0.13404691 -0.061928108 0.90000004 4293177558
-0.13218471 -0.061790489 0.89800006 4284624724
-0.12143136 -0.061102401 0.88800007 4289922133
-0.11961444 -0.060964782 0.88600004 4289855568
-0.11807103 -0.060964782 0.88600004 4289658956
-0.11101332 -0.060483117 0.87900007 4289790017
-0.1094821 -0.060483117 0.87900007 4289724486
-0.10745964 -0.060207885 0.87500006 4289724486
-0.10593539 -0.060207885 0.87500006 4289724482
-0.10441114 -0.060207885 0.87500006 4289724482
-0.10288689 -0.060207885 0.87500006 4290117689
-0.10101511 -0.060001452 0.87200004 4290117689
-0.099496081 -0.060001452 0.87200004 4290314295
-0.097752348 -0.059863836 0.87000006 4290445368
-0.096236803 -0.059863836 0.87000006 4290445370
-0.094503507 -0.05972622 0.86800003 4290510908
-0.092777185 -0.0595886 0.86600006 4290773053
-0.091268614 -0.0595886 0.86600006 4290773053
-0.089552745 -0.059450984 0.86400002 4290969664
-0.088047661 -0.059450984 0.86400002 4291035201
-0.086542569 -0.059450984 0.86400002 4291231813
-0.084840633 -0.059313368 0.86200005 4291297350
-0.083339036 -0.059313368 0.86200005 4291493959
-0.081837431 -0.059313368 0.86200005 4291493959
-0.080335826 -0.059313368 0.86200005 4291821641
-0.078559853 -0.059106935 0.85900003 4291887178
-0.077063479 -0.059106935 0.85900003 4292280399
-0.075567096 -0.059106935 0.85900003 4292411473
-0.073898263 -0.058969319 0.85700005 4292673618
-0.072405368 -0.058969319 0.85700005 4293132377
-0.07091248 -0.058969319 0.85700005 4293066844
-0.069419578 -0.058969319 0.85700005 4293658981
-0.067768157 -0.058831695 0.85500002 4293532772
-0.066278748 -0.058831695 0.85500002 4293269856
-0.06478934 -0.058831695 0.85500002 4293662064
-0.063299932 -0.058831695 0.85500002 4293596270
-0.061665937 -0.058694083 0.85300004 4293791085
-0.060180008 -0.058694083 0.85300004 4293791085
-0.058694083 -0.058694083 0.85300004 4293658218
-0.057208154 -0.058694083 0.85300004 4293592425
-0.055722229 -0.058694083 0.85300004 4293656679
-0.054236308 -0.058694083 0.85300004 4293460069
-0.052750379 -0.058694083 0.85300004 4293656679
-0.051264454 -0.058694083 0.85300004 4293591142
-0.049778529 -0.058694083 0.85300004 4293656677
-0.0482926 -0.058694083 0.85300004 4293656677
-0.046806674 -0.058694083 0.85300004 4293787748
-0.045320746 -0.058694083 0.85300004 4293787748
-0.043834824 -0.058694083 0.85300004 4293787744
-0.042348895 -0.058694083 0.85300004 4293984355
-0.04086297 -0.058694083 0.85300004 4293918820
-0.039377045 -0.058694083 0.85300004 4294180967
-0.037891116 -0.058694083 0.85300004 4294312042
-0.036405191 -0.058694083 0.85300004 4294377579
-0.034919266 -0.058694083 0.85300004 4294115432
-0.03343334 -0.058694083 0.85300004 4294246506
-0.031947412 -0.058694083 0.85300004 4293853287
-0.030461488 -0.058694083 0.85300004 4293787750
-0.028975561 -0.058694083 0.85300004 4293656679
-0.027554087 -0.058831695 0.85500002 4293263458
-0.026125649 -0.058969319 0.85700005 4293263460
-0.11988446 -0.059555504 0.88800007 4290054474
-0.11833756 -0.059555504 0.88800007 4289528129
-0.1094821 -0.058951903 0.87900007 4289921090
-0.10795089 -0.058951903 0.87900007 4289724480
-0.10617752 -0.058817763 0.87700003 4289724484
-0.10441114 -0.058683634 0.87500006 4289724484
-0.10288689 -0.058683634 0.87500006 4289921076
-0.10101511 -0.058482431 0.87200004 4289921076
-0.099267885 -0.058348298 0.87000006 4290183220
-0.097752348 -0.058348298 0.87000006 4290248757
-0.096236803 -0.058348298 0.87000006 4290314295
-0.094503507 -0.058214158 0.86800003 4290445368
-0.092777185 -0.058080032 0.86600006 4290641972
-0.091268614 -0.058080032 0.86600006 4290707510
-0.089552745 -0.057945892 0.86400002 4290904125
-0.088047661 -0.057945892 0.86400002 4290904125
-0.086542569 -0.057945892 0.86400002 4290969670
-0.084840633 -0.057811759 0.86200005 4291100744
-0.083339036 -0.057811759 0.86200005 4291297354
-0.081837431 -0.057811759 0.86200005 4291428427
-0.080335826 -0.057811759 0.86200005 4291493961
-0.078559853 -0.05761056 0.85900003 4291493961
-0.077063479 -0.05761056 0.85900003 4291952716
-0.075567096 -0.05761056 0.85900003 4292018253
-0.073898263 -0.057476427 0.85700005 4292345932
-0.072405368 -0.057476427 0.85700005 4292477006
-0.07091248 -0.057476427 0.85700005 4292870227
-0.069419578 -0.057476427 0.85700005 4293197912
-0.067768157 -0.057342287 0.85500002 4293396312
-0.066123717 -0.057208154 0.85300004 4293988448
-0.064637788 -0.057208154 0.85300004 4293662817
-0.063151866 -0.057208154 0.85300004 4293530975
