# .PCD v0.7 - Point Cloud Data file format
VERSION 0.7
FIELDS x y z rgba
SIZE 4 4 4 4
TYPE F F F U
COUNT 1 1 1 1
WIDTH 1072
HEIGHT 1
VIEWPOINT 0 0 0 1 0 0 0
POINTS 1072
DATA ascii
0.11994194 0.071151994 0.77800006 4291889500
0.1209854 0.07096909 0.77600002 4292021086
0.12202189 0.070786178 0.77400005 4292353894
0.1233702 0.070786178 0.77400005 4292419688
0.1247185 0.070786178 0.77400005 4292156781
0.12639256 0.07096909 0.77600002 4291827817
0.12774435 0.07096909 0.77600002 4291958885
0.12909615 0.07096909 0.77600002 4290577232
0.13044794 0.07096909 0.77600002 4290969687
0.13179973 0.07096909 0.77600002 4290314318
0.13315153 0.07096909 0.77600002 4290248790
0.13484998 0.071151994 0.77800006 4290707549
0.13673046 0.071426362 0.78100002 4289594184
0.13809097 0.071426362 0.78100002 4288479287
0.13980858 0.071609274 0.78300005 4288153672
0.14081198 0.071426362 0.78100002 4294403751
0.14217247 0.071426362 0.78100002 4291465384
0.14390054 0.071609274 0.78300005 4292386486
0.11152285 0.072320879 0.77600002 4289921070
0.11287465 0.072320879 0.77600002 4289658923
0.11422643 0.072320879 0.77600002 4290379861
0.11557822 0.072320879 0.77600002 4290773083
0.11693002 0.072320879 0.77600002 4291035225
0.11828181 0.072320879 0.77600002 4291690594
0.11932527 0.072134487 0.77400005 4291887963
0.12067357 0.072134487 0.77400005 4292019549
0.12202189 0.072134487 0.77400005 4292087904
0.1233702 0.072134487 0.77400005 4292351333
0.1247185 0.072134487 0.77400005 4291957090
0.12606682 0.072134487 0.77400005 4290838608
0.12741512 0.072134487 0.77400005 4291362915
0.12876344 0.072134487 0.77400005 4291100767
0.13011174 0.072134487 0.77400005 4290707540
0.13179973 0.072320879 0.77600002 4290379855
0.13315153 0.072320879 0.77600002 4290052188
0.13484998 0.072507277 0.77800006 4291631221
0.13673046 0.07278686 0.78100002 4289798232
0.13809097 0.07278686 0.78100002 4288547908
0.13980858 0.072973259 0.78300005 4288094841
0.14117257 0.072973259 0.78300005 4293687246
0.11152285 0.073672667 0.77600002 4290183195
0.11287465 0.073672667 0.77600002 4290183195
0.11422643 0.073672667 0.77600002 4290445383
0.11528035 0.073482797 0.77400005 4290904142
0.11662865 0.073482797 0.77400005 4291100760
0.11797697 0.073482797 0.77400005 4292150119
0.11932527 0.073482797 0.77400005 4291758430
0.12051767 0.073387854 0.77300006 4291758430
0.12186424 0.073387854 0.77300006 4291955552
0.12321081 0.073387854 0.77300006 4292087395
0.12455737 0.073387854 0.77300006 4291957342
0.12590393 0.073387854 0.77300006 4290970447
0.12725051 0.073387854 0.77300006 4291297373
0.12859707 0.073387854 0.77300006 4291100762
0.13011174 0.073482797 0.77400005 4290642006
0.13146004 0.073482797 0.77400005 4290576468
0.13280836 0.073482797 0.77400005 4289855574
0.13484998 0.073862553 0.77800006 4291960181
0.13655539 0.074052431 0.78000003 4289474909
0.13809097 0.074147366 0.78100002 4288816722
0.11123542 0.074831106 0.77400005 4289790023
0.11258373 0.074831106 0.77400005 4289986634
0.11393204 0.074831106 0.77400005 4290445374
0.11528035 0.074831106 0.77400005 4291166282
0.11662865 0.074831106 0.77400005 4291100765
0.11797697 0.074831106 0.77400005 4291888744
0.11917111 0.074734427 0.77300006 4291758943
0.12051767 0.074734427 0.77300006 4291824736
0.12186424 0.074734427 0.77300006 4291957353
0.12321081 0.074734427 0.77300006 4292023146
0.12455737 0.074734427 0.77300006 4291826785
0.12590393 0.074734427 0.77300006 4290971476
0.12725051 0.074734427 0.77300006 4291100766
0.12859707 0.074734427 0.77300006 4290510932
0.12994364 0.074734427 0.77300006 4290576474
0.13146004 0.074831106 0.77400005 4290773085
0.13280836 0.074831106 0.77400005 4289924700
0.13450332 0.075024463 0.77600002 4292161662
0.13655539 0.075411186 0.78000003 4290401639
0.10974514 0.076080993 0.77300006 4287504417
0.11123542 0.076179415 0.77400005 4289921083
0.11258373 0.076179415 0.77400005 4290314305
0.11393204 0.076179415 0.77400005 4290510918
0.11528035 0.076179415 0.77400005 4291166287
0.11647797 0.076080993 0.77300006 4291298653
0.11782454 0.076080993 0.77300006 4291562082
0.11917111 0.076080993 0.77300006 4291626855
0.12051767 0.076080993 0.77300006 4292613750
0.12154894 0.075884141 0.77100003 4291961456
0.12289201 0.075884141 0.77100003 4291369318
0.1242351 0.075884141 0.77100003 4291696482
0.12557818 0.075884141 0.77100003 4290775380
0.12692127 0.075884141 0.77100003 4291298656
0.12826434 0.075884141 0.77100003 4290248784
0.12994364 0.076080993 0.77300006 4290576456
0.13129021 0.076080993 0.77300006 4291691865
0.13280836 0.076179415 0.77400005 4290257508
0.13450332 0.076376259 0.77600002 4292757643
0.13620526 0.076573104 0.77800006 4289945729
0.10974514 0.077427551 0.77300006 4287445040
0.11109171 0.077427551 0.77300006 4288480346
0.11258373 0.077527717 0.77400005 4288414552
0.11378484 0.077427551 0.77300006 4289462363
0.11513142 0.077427551 0.77300006 4290317160
0.11647797 0.077427551 0.77300006 4290839390
0.11751968 0.07722722 0.77100003 4291168099
0.11886277 0.07722722 0.77100003 4291561578
0.12020585 0.07722722 0.77100003 4291956336
0.12154894 0.07722722 0.77100003 4291760490
0.12289201 0.07722722 0.77100003 4291694697
0.1242351 0.07722722 0.77100003 4291435359
0.12557818 0.07722722 0.77100003 4290316878
0.12692127 0.07722722 0.77100003 4290969691
0.12826434 0.07722722 0.77100003 4289921099
0.12960742 0.07722722 0.77100003 4289986633
0.13129021 0.077427551 0.77300006 4291890534
0.13280836 0.077527717 0.77400005 4289670766
0.13415667 0.077527717 0.77400005 4292894623
0.13585511 0.077728048 0.77600002 4291266202
0.1094612 0.078570306 0.77100003 4286796391
0.11080427 0.078570306 0.77100003 4288104812
0.11214736 0.078570306 0.77100003 4288038763
0.11349045 0.078570306 0.77100003 4289676912
0.11483352 0.078570306 0.77100003 4289545583
0.11617661 0.078570306 0.77100003 4291176560
0.11721484 0.078366496 0.76900005 4291110766
0.11855444 0.078366496 0.76900005 4291828334
0.11989404 0.078366496 0.76900005 4292025713
0.12123363 0.078366496 0.76900005 4291894638
0.12257323 0.078366496 0.76900005 4291697516
0.12391283 0.078366496 0.76900005 4291502179
0.12557818 0.078570306 0.77100003 4290054733
0.12692127 0.078570306 0.77100003 4290642010
0.12826434 0.078570306 0.77100003 4290052177
0.12960742 0.078570306 0.77100003 4289986634
0.13129021 0.078774124 0.77300006 4291824998
0.13263677 0.078774124 0.77300006 4289345651
0.13415667 0.078876026 0.77400005 4293358767
0.10622107 0.07949879 0.76700002 4285100671
0.10755718 0.07949879 0.76700002 4285755789
0.1088933 0.07949879 0.76700002 4286282133
0.11022941 0.07949879 0.76700002 4286544274
0.11156553 0.07949879 0.76700002 4286741396
0.11290164 0.07949879 0.76700002 4287657873
0.11423776 0.07949879 0.76700002 4287987095
0.11557388 0.07949879 0.76700002 4288768144
0.11690999 0.07949879 0.76700002 4287781249
0.1182461 0.07949879 0.76700002 4289612669
0.11958221 0.07949879 0.76700002 4289349496
0.12091833 0.07949879 0.76700002 4290785136
0.12225445 0.07949879 0.76700002 4290456171
0.12391283 0.079706095 0.76900005 4291107677
0.12525243 0.079706095 0.76900005 4289462853
0.12659203 0.079706095 0.76900005 4290445400
0.12793162 0.079706095 0.76900005 4290183251
0.12927122 0.079706095 0.76900005 4289658960
0.13095051 0.079913385 0.77100003 4291497836
0.13263677 0.08012069 0.77300006 4289545855
0.13415667 0.080224335 0.77400005 4292901298
0.10488496 0.080834903 0.76700002 4281102461
0.10622107 0.080834903 0.76700002 4281826441
0.10741696 0.080729514 0.76600003 4282613645
0.10846739 0.080518737 0.76400006 4282810767
0.10979827 0.080518737 0.76400006 4282876822
0.11112916 0.080518737 0.76400006 4283074457
0.11246005 0.080518737 0.76400006 4283073944
0.11379094 0.080518737 0.76400006 4283008151
0.11512183 0.080518737 0.76400006 4283465368
0.11645272 0.080518737 0.76400006 4283004817
0.11809193 0.080729514 0.76600003 4286866822
0.1194263 0.080729514 0.76600003 4287196044
0.12076069 0.080729514 0.76600003 4290267264
0.12225445 0.080834903 0.76700002 4290135935
0.12359056 0.080834903 0.76700002 4291043165
0.12492666 0.080834903 0.76700002 4289332548
0.12626278 0.080834903 0.76700002 4290379850
0.12793162 0.081045687 0.76900005 4290183239
0.12927122 0.081045687 0.76900005 4289462352
0.13095051 0.081256464 0.77100003 4291762035
0.1322936 0.081256464 0.77100003 4289876351
0.10354884 0.082171015 0.76700002 4282088064
0.10474822 0.082063884 0.76600003 4282482066
0.10608259 0.082063884 0.76600003 4282679701
0.1071365 0.081849627 0.76400006 4282876308
0.10818344 0.081635356 0.76200002 4283008151
0.10951084 0.081635356 0.76200002 4283073944
0.11083825 0.081635356 0.76200002 4283402908
0.11216564 0.081635356 0.76200002 4283533463
0.11349305 0.081635356 0.76200002 4283467414
0.11482046 0.081635356 0.76200002 4283729559
0.11599544 0.081528224 0.76100004 4283663766
0.1173211 0.081528224 0.76100004 4285823626
0.11880267 0.081635356 0.76200002 4285955469
0.12013007 0.081635356 0.76200002 4287324815
0.12177627 0.081849627 0.76400006 4287127180
0.12310716 0.081849627 0.76400006 4289087080
0.12476379 0.082063884 0.76600003 4286981448
0.12609817 0.082063884 0.76600003 4289331264
0.1275989 0.082171015 0.76700002 4289331264
0.12893501 0.082171015 0.76700002 4289200208
0.13061082 0.082385287 0.76900005 4292423553
0.099540502 0.083507128 0.76700002 4287463799
0.1007451 0.08339826 0.76600003 4284174149
0.10207947 0.08339826 0.76600003 4281364603
0.10341384 0.08339826 0.76600003 4282285704
0.10474822 0.08339826 0.76600003 4282940811
0.10580561 0.08318051 0.76400006 4283137933
0.1071365 0.08318051 0.76400006 4283007117
0.10818344 0.082962759 0.76200002 4283138703
0.10936712 0.082853884 0.76100004 4283205012
0.11040188 0.08263614 0.75900006 4283467927
0.11172406 0.08263614 0.75900006 4283336863
0.11304624 0.08263614 0.75900006 4283270814
0.11436841 0.08263614 0.75900006 4283270805
0.11599544 0.082853884 0.76100004 4283205012
0.1173211 0.082853884 0.76100004 4283007117
0.11864676 0.082853884 0.76100004 4282875275
0.11997243 0.082853884 0.76100004 4282610574
0.12145747 0.082962759 0.76200002 4282150023
0.12278488 0.082962759 0.76200002 4286537850
0.12443805 0.08318051 0.76400006 4285813871
0.12576893 0.08318051 0.76400006 4288681039
0.12709983 0.08318051 0.76400006 4288023365
0.12843071 0.08318051 0.76400006 4289269846
0.099540502 0.084843248 0.76700002 4281160825
0.1007451 0.084732629 0.76600003 4282016134
0.10207947 0.084732629 0.76600003 4282021765
0.10341384 0.084732629 0.76600003 4282416522
0.10447472 0.084511399 0.76400006 4282612872
0.10552863 0.084290162 0.76200002 4282744459
0.1067158 0.084179543 0.76100004 4283007369
0.10804147 0.084179543 0.76100004 4283073162
0.1090797 0.083958313 0.75900006 4283204497
0.11040188 0.083958313 0.75900006 4283467668
0.11172406 0.083958313 0.75900006 4283402405
0.11304624 0.083958313 0.75900006 4283204769
0.11436841 0.083958313 0.75900006 4283073425
0.1156906 0.083958313 0.75900006 4283007376
0.11701278 0.083958313 0.75900006 4282941324
0.11833494 0.083958313 0.75900006 4282875275
0.11997243 0.084179543 0.76100004 4283071625
0.12129808 0.084179543 0.76100004 4282742916
0.12262375 0.084179543 0.76100004 4285034367
0.12394941 0.084179543 0.76100004 4284836731
0.12543969 0.084290162 0.76200002 4287449706
0.1267671 0.084290162 0.76200002 4286594397
0.12809451 0.084290162 0.76200002 4288162394
0.1294219 0.084290162 0.76200002 4292307353
0.098204389 0.086179361 0.76700002 4283515193
0.099540502 0.086179361 0.76700002 4278540382
0.1007451 0.086066999 0.76600003 4280777344
0.10207947 0.086066999 0.76600003 4282742914
0.10314383 0.085842289 0.76400006 4282940036
0.10447472 0.085842289 0.76400006 4282613124
0.10552863 0.085617565 0.76200002 4282744711
0.1067158 0.08550521 0.76100004 4282875529
0.10804147 0.08550521 0.76100004 4282941322
0.1090797 0.085280493 0.75900006 4283072912
0.11040188 0.085280493 0.75900006 4283401621
0.11172406 0.085280493 0.75900006 4283204508
0.11274835 0.085055776 0.75700003 4283072922
0.11406704 0.085055776 0.75700003 4282876560
0.11538574 0.085055776 0.75700003 4282744974
0.11670443 0.085055776 0.75700003 4282875275
0.11833494 0.085280493 0.75900006 4282875275
0.11965713 0.085280493 0.75900006 4282678666
0.12097931 0.085280493 0.75900006 4282678666
0.12230148 0.085280493 0.75900006 4282283908
0.12394941 0.08550521 0.76100004 4281297013
0.12494585 0.085280493 0.75900006 4285226360
0.12626801 0.085280493 0.75900006 4285226360
0.12759019 0.085280493 0.75900006 4287380319
0.12891237 0.085280493 0.75900006 4291591071
0.13023455 0.085280493 0.75900006 4291005094
0.098204389 0.087515473 0.76700002 4283055625
0.099540502 0.087515473 0.76700002 4279853428
0.1007451 0.087401375 0.76600003 4281169288
0.10207947 0.087401375 0.76600003 4281889915
0.10314383 0.087173179 0.76400006 4282416259
0.10420122 0.086944975 0.76200002 4282350466
0.10539015 0.086830869 0.76100004 4282416259
0.1067158 0.086830869 0.76100004 4282612872
0.10775752 0.086602673 0.75900006 4282744459
0.1090797 0.086602673 0.75900006 4282940818
0.11040188 0.086602673 0.75900006 4283204247
0.11142965 0.086374469 0.75700003 4283139217
0.11274835 0.086374469 0.75700003 4282810252
0.11406704 0.086374469 0.75700003 4282875277
0.11538574 0.086374469 0.75700003 4282875277
0.11670443 0.086374469 0.75700003 4282744200
0.11802313 0.086374469 0.75700003 4282612357
0.11934181 0.086374469 0.75700003 4282809222
0.12097931 0.086602673 0.75900006 4282875016
0.12230148 0.086602673 0.75900006 4282742916
0.12362366 0.086602673 0.75900006 4282216316
0.12494585 0.086602673 0.75900006 4283984770
0.12626801 0.086602673 0.75900006 4283787391
0.12759019 0.086602673 0.75900006 4286535018
0.12891237 0.086602673 0.75900006 4290745770
0.13023455 0.086602673 0.75900006 4291664542
0.098204389 0.088851586 0.76700002 4283253811
0.09941072 0.088735752 0.76600003 4280510583
0.1007451 0.088735752 0.76600003 4281431429
0.10181294 0.088504061 0.76400006 4281496956
0.10287382 0.08827237 0.76200002 4281825921
0.10420122 0.08827237 0.76200002 4281759360
0.10539015 0.088156536 0.76100004 4282154118
0.1067158 0.088156536 0.76100004 4282875529
0.10775752 0.087924846 0.75900006 4282875529
0.1090797 0.087924846 0.75900006 4282678668
0.11011096 0.087693162 0.75700003 4283073425
0.11142965 0.087693162 0.75700003 4283073425
0.1125994 0.087577321 0.75600004 4282612874
0.11391636 0.087577321 0.75600004 4282612109
0.11523331 0.087577321 0.75600004 4282612109
0.11655027 0.087577321 0.75600004 4282546827
0.11802313 0.087693162 0.75700003 4282546827
0.11934181 0.087693162 0.75700003 4282349703
0.12066051 0.087693162 0.75700003 4282349703
0.1219792 0.087693162 0.75700003 4282217604
0.12362366 0.087924846 0.75900006 4282217604
0.12494585 0.087924846 0.75900006 4282085761
0.12626801 0.087924846 0.75900006 4280638315
0.12759019 0.087924846 0.75900006 4285095281
0.12857267 0.087693162 0.75700003 4289174447
0.12989138 0.087693162 0.75700003 4291599532
0.098076351 0.090070121 0.76600003 4282796328
0.099151164 0.089834951 0.76400006 4280774012
0.10048205 0.089834951 0.76400006 4281563785
0.10154641 0.089599781 0.76200002 4282087560
0.10273882 0.089482196 0.76100004 4282416525
0.10406448 0.089482196 0.76100004 4282612872
0.10511316 0.089247033 0.75900006 4282744459
0.10643534 0.089247033 0.75900006 4282810765
0.10747357 0.089011855 0.75700003 4282942607
0.10879227 0.089011855 0.75700003 4283073174
0.1099655 0.08889427 0.75600004 4283073174
0.11128246 0.08889427 0.75600004 4282613141
0.1125994 0.08889427 0.75600004 4282152590
0.11391636 0.08889427 0.75600004 4282087058
0.11523331 0.08889427 0.75600004 4282087058
0.11655027 0.08889427 0.75600004 4282217867
0.11786722 0.08889427 0.75600004 4282283660
0.11918417 0.08889427 0.75600004 4282480006
0.12050112 0.08889427 0.75600004 4282216833
0.1219792 0.089011855 0.75700003 4281889154
0.1232979 0.089011855 0.75700003 4281954947
0.12494585 0.089247033 0.75900006 4282019716
0.12626801 0.089247033 0.75900006 4280967028
0.12759019 0.089247033 0.75900006 4283849838
0.12857267 0.089011855 0.75700003 4287336868
0.12989138 0.089011855 0.75700003 4290088619
0.097564198 0.090927184 0.76200002 4283062860
0.098891608 0.090927184 0.76200002 4280971132
0.10021901 0.090927184 0.76200002 4281826441
0.10141315 0.090807855 0.76100004 4282612357
0.10273882 0.090807855 0.76100004 4282744200
0.10379099 0.090569206 0.75900006 4282875275
0.10511316 0.090569206 0.75900006 4283007117
0.10643534 0.090569206 0.75900006 4282876560
0.10747357 0.090330549 0.75700003 4283074196
0.10879227 0.090330549 0.75700003 4283073692
0.1099655 0.09021122 0.75600004 4282942106
0.11128246 0.09021122 0.75600004 4282416275
0.11230153 0.089972571 0.75400001 4282153103
0.11361499 0.089972571 0.75400001 4282152590
0.11492845 0.089972571 0.75400001 4282021004
0.11624193 0.089972571 0.75400001 4281888900
0.11755539 0.089972571 0.75400001 4281954693
0.11918417 0.09021122 0.75600004 4282151808
0.12050112 0.09021122 0.75600004 4282086015
0.12181807 0.09021122 0.75600004 4281823359
0.1232979 0.090330549 0.75700003 4281889152
0.12461659 0.090330549 0.75700003 4282086015
0.12626801 0.090569206 0.75900006 4281164913
0.12759019 0.090569206 0.75900006 4282408300
0.12891237 0.090569206 0.75900006 4285895586
0.13023455 0.090569206 0.75900006 4289171365
0.096110508 0.092133522 0.76100004 4286154374
0.097436167 0.092133522 0.76100004 4283917669
0.098761834 0.092133522 0.76100004 4282678916
0.099824451 0.091891386 0.75900006 4283073673
0.10114663 0.091891386 0.75900006 4283072908
0.10246881 0.091891386 0.75900006 4283336080
0.10379099 0.091891386 0.75900006 4283074194
0.10483619 0.091649242 0.75700003 4283205523
0.10615488 0.091649242 0.75700003 4283271318
0.10747357 0.091649242 0.75700003 4283863455
0.10864855 0.091528177 0.75600004 4283403170
0.10967459 0.091286033 0.75400001 4283008412
0.11098806 0.091286033 0.75400001 4282613402
0.11230153 0.091286033 0.75400001 4282284693
0.11361499 0.091286033 0.75400001 4282153618
0.11492845 0.091286033 0.75400001 4281758860
0.11624193 0.091286033 0.75400001 4281691787
0.11755539 0.091286033 0.75400001 4281691787
0.11886886 0.091286033 0.75400001 4281560701
0.12050112 0.091528177 0.75600004 4281560701
0.12181807 0.091528177 0.75600004 4281495161
0.1232979 0.091649242 0.75700003 4281560955
0.12461659 0.091649242 0.75700003 4281691773
0.12626801 0.091891386 0.75900006 4281165172
0.12759019 0.091891386 0.75900006 4282736750
0.12891237 0.091891386 0.75900006 4286355365
0.13023455 0.091891386 0.75900006 4289697198
0.094784841 0.093459181 0.76100004 4288578949
0.095857918 0.093213566 0.75900006 4286742139
0.097180091 0.093213566 0.75900006 4284965728
0.098502278 0.093213566 0.75900006 4282745226
0.099561408 0.092967942 0.75700003 4282876812
0.1008801 0.092967942 0.75700003 4282745742
0.10219879 0.092967942 0.75700003 4283074707
0.10338075 0.092845127 0.75600004 4283271570
0.1046977 0.092845127 0.75600004 4283205777
0.10601465 0.092845127 0.75600004 4283140502
0.10704765 0.092599504 0.75400001 4283272088
0.10836112 0.092599504 0.75400001 4283206305
0.10967459 0.092599504 0.75400001 4283074718
0.11098806 0.092599504 0.75400001 4282877342
0.11230153 0.092599504 0.75400001 4282614169
0.11361499 0.092599504 0.75400001 4282154387
0.11492845 0.092599504 0.75400001 4282022800
0.11624193 0.092599504 0.75400001 4281561736
0.11755539 0.092599504 0.75400001 4281561736
0.11886886 0.092599504 0.75400001 4281298811
0.12050112 0.092845127 0.75600004 4281101689
0.12181807 0.092845127 0.75600004 4281493876
0.1232979 0.092967942 0.75700003 4281625462
0.12494585 0.093213566 0.75900006 4281429116
0.12626801 0.093213566 0.75900006 4280639601
0.12759019 0.093213566 0.75900006 4282670709
0.12891237 0.093213566 0.75900006 4286684082
0.13023455 0.093213566 0.75900006 4290091703
0.093213566 0.094535738 0.75900006 4293185966
0.094535738 0.094535738 0.75900006 4287461719
0.095605329 0.094286636 0.75700003 4283264643
0.096924022 0.094286636 0.75700003 4283725194
0.098112933 0.094162084 0.75600004 4282876814
0.099429891 0.094162084 0.75600004 4282876814
0.10074684 0.094162084 0.75600004 4282877327
0.10206379 0.094162084 0.75600004 4283206293
0.10310724 0.093912967 0.75400001 4283205777
0.10442071 0.093912967 0.75400001 4283205777
0.10573418 0.093912967 0.75400001 4283074457
0.10704765 0.093912967 0.75400001 4283074457
0.10836112 0.093912967 0.75400001 4283140250
0.10967459 0.093912967 0.75400001 4283074457
0.11069366 0.093663864 0.75200003 4283073944
0.11200365 0.093663864 0.75200003 4282942358
0.11331363 0.093663864 0.75200003 4282744974
0.11462361 0.093663864 0.75200003 4282613645
0.11624193 0.093912967 0.75400001 4282284423
0.11755539 0.093912967 0.75400001 4281692543
0.11886886 0.093912967 0.75400001 4281495421
0.12018233 0.093912967 0.75400001 4280706161
0.12181807 0.094162084 0.75600004 4280836975
0.1232979 0.094286636 0.75700003 4281166197
0.12461659 0.094286636 0.75700003 4281100667
0.12626801 0.094535738 0.75900006 4280442737
0.12759019 0.094535738 0.75900006 4282473332
0.12891237 0.094535738 0.75900006 4287341758
0.13057773 0.094784841 0.76100004 4290749897
0.091649242 0.095605329 0.75700003 4293380557
0.092967942 0.095605329 0.75700003 4290691002
0.094535738 0.095857918 0.75900006 4284703839
0.095605329 0.095605329 0.75700003 4281102711
0.096795984 0.095479026 0.75600004 4282353035
0.098112933 0.095479026 0.75600004 4283072910
0.09916684 0.095226437 0.75400001 4283335826
0.10048031 0.095226437 0.75400001 4283074192
0.10179378 0.095226437 0.75400001 4283337363
0.10310724 0.095226437 0.75400001 4283271570
0.10414374 0.094973855 0.75200003 4283271570
0.10545372 0.094973855 0.75200003 4283140250
0.10676371 0.094973855 0.75200003 4283140250
0.10807369 0.094973855 0.75200003 4282943641
0.10938368 0.094973855 0.75200003 4282877592
0.11069366 0.094973855 0.75200003 4282746006
0.11200365 0.094973855 0.75200003 4282680212
0.11331363 0.094973855 0.75200003 4282810767
0.11462361 0.094973855 0.75200003 4282744974
0.11624193 0.095226437 0.75400001 4282678666
0.11755539 0.095226437 0.75400001 4282218115
0.11886886 0.095226437 0.75400001 4281168257
0.12018233 0.095226437 0.75400001 4280444534
0.12181807 0.095479026 0.75600004 4280902518
0.1232979 0.095605329 0.75700003 4281165947
0.12461659 0.095605329 0.75700003 4280968311
0.12626801 0.095857918 0.75900006 4280441967
0.12759019 0.095857918 0.75900006 4282473082
0.12891237 0.095857918 0.75900006 4288065487
0.13023455 0.095857918 0.75900006 4291408072
0.13155673 0.095857918 0.75900006 4292329174
0.090330549 0.096924022 0.75700003 4293447376
0.091649242 0.096924022 0.75700003 4290289568
0.092967942 0.096924022 0.75700003 4286811016
0.094286636 0.096924022 0.75700003 4283323731
0.095479026 0.096795984 0.75600004 4281693056
0.096795984 0.096795984 0.75600004 4282482316
0.09785337 0.0965399 0.75400001 4282875025
0.09916684 0.0965399 0.75400001 4283204247
0.10048031 0.0965399 0.75400001 4283205260
0.10152377 0.096283838 0.75200003 4283468431
0.10283376 0.096283838 0.75200003 4283336850
0.10414374 0.096283838 0.75200003 4283271057
0.10545372 0.096283838 0.75200003 4283205273
0.10676371 0.096283838 0.75200003 4283205273
0.10807369 0.096283838 0.75200003 4283205525
0.10938368 0.096283838 0.75200003 4282942353
0.11069366 0.096283838 0.75200003 4282745744
0.11200365 0.096283838 0.75200003 4282614158
0.11331363 0.096283838 0.75200003 4282482570
0.11462361 0.096283838 0.75200003 4282416776
0.1159336 0.096283838 0.75200003 4282547077
0.11755539 0.0965399 0.75400001 4282415748
0.11886886 0.0965399 0.75400001 4281823620
0.12018233 0.0965399 0.75400001 4281100154
0.12181807 0.096795984 0.75600004 4281230466
0.12313503 0.096795984 0.75600004 4281033343
0.12461659 0.096924022 0.75700003 4280574069
0.12626801 0.097180091 0.75900006 4279718760
0.12759019 0.097180091 0.75900006 4283654790
0.12891237 0.097180091 0.75900006 4289576160
0.13023455 0.097180091 0.75900006 4292130753
0.13155673 0.097180091 0.75900006 4292525511
0.089247033 0.098502278 0.75900006 4294170072
0.090330549 0.098242715 0.75700003 4292857547
0.091649242 0.098242715 0.75700003 4286080611
0.092967942 0.098242715 0.75700003 4285032038
0.094286636 0.098242715 0.75700003 4284242523
0.095479026 0.098112933 0.75600004 4282087297
0.0965399 0.09785337 0.75400001 4282416261
0.09785337 0.09785337 0.75400001 4282678666
0.09916684 0.09785337 0.75400001 4283073423
0.10021379 0.097593814 0.75200003 4283336080
0.10152377 0.097593814 0.75200003 4283336080
0.10283376 0.097593814 0.75200003 4283335826
0.10400525 0.09746404 0.75100005 4283335826
0.10531349 0.09746404 0.75100005 4283205012
0.10662173 0.09746404 0.75100005 4283205012
0.10792998 0.09746404 0.75100005 4283074194
0.10923822 0.09746404 0.75100005 4282810765
0.11054646 0.09746404 0.75100005 4282417295
0.11200365 0.097593814 0.75200003 4282417295
0.11331363 0.097593814 0.75200003 4281629578
0.11462361 0.097593814 0.75200003 4281826700
0.1159336 0.097593814 0.75200003 4281957255
0.11724358 0.097593814 0.75200003 4281891462
0.11886886 0.09785337 0.75400001 4282087558
0.12018233 0.09785337 0.75400001 4281561214
0.12181807 0.098112933 0.75600004 4281427329
0.12313503 0.098112933 0.75600004 4281296000
0.12461659 0.098242715 0.75700003 4279458924
0.12626801 0.098502278 0.75900006 4278998373
0.12759019 0.098502278 0.75900006 4285490570
0.12891237 0.098502278 0.75900006 4291280098
0.13023455 0.098502278 0.75900006 4292523462
0.13155673 0.098502278 0.75900006 4292786634
0.089247033 0.099824451 0.75900006 4293315529
0.090330549 0.099561408 0.75700003 4292266127
0.091649242 0.099561408 0.75700003 4284239381
0.092845127 0.099429891 0.75600004 4280965481
0.094162084 0.099429891 0.75600004 4282347134
0.095226437 0.09916684 0.75400001 4282283645
0.0965399 0.09916684 0.75400001 4282546816
0.097593814 0.098903798 0.75200003 4282612109
0.098903798 0.098903798 0.75200003 4283072660
0.10021379 0.098903798 0.75200003 4283204751
0.10138877 0.098772287 0.75100005 4283138701
0.10269701 0.098772287 0.75100005 4283204497
0.10372827 0.098509237 0.74900001 4283204497
0.10503303 0.098509237 0.74900001 4283336080
0.10633779 0.098509237 0.74900001 4283138701
0.10764254 0.098509237 0.74900001 4282811019
0.1089473 0.098509237 0.74900001 4282482054
0.11025206 0.098509237 0.74900001 4282153866
0.1118547 0.098772287 0.75100005 4282219659
0.11316294 0.098772287 0.75100005 4282350216
0.11447118 0.098772287 0.75100005 4282350216
0.1159336 0.098903798 0.75200003 4282546566
0.11724358 0.098903798 0.75200003 4282414724
0.11855356 0.098903798 0.75200003 4282349703
0.12018233 0.09916684 0.75400001 4282218117
0.12149581 0.09916684 0.75400001 4281691017
0.12313503 0.099429891 0.75600004 4281033343
0.12461659 0.099561408 0.75700003 4280638315
0.12626801 0.099824451 0.75900006 4282612361
0.12759019 0.099824451 0.75900006 4286542266
0.12891237 0.099824451 0.75900006 4291674111
0.089247033 0.10114663 0.75900006 4292133054
0.090330549 0.1008801 0.75700003 4289505434
0.091528177 0.10074684 0.75600004 4282860340
0.092845127 0.10074684 0.75600004 4279723629
0.093912967 0.10048031 0.75400001 4281171076
0.095226437 0.10048031 0.75400001 4282546564
0.096283838 0.10021379 0.75200003 4282678150
0.097593814 0.10021379 0.75200003 4282678152
0.098772287 0.10008053 0.75100005 4283335826
0.10008053 0.10008053 0.75100005 4283401360
0.10111875 0.09981399 0.74900001 4283467153
0.10242351 0.09981399 0.74900001 4283335828
0.10372827 0.09981399 0.74900001 4283204499
0.10475257 0.099547476 0.74700004 4283205010
0.10605384 0.099547476 0.74700004 4282876301
0.10735512 0.099547476 0.74700004 4282941324
0.1089473 0.09981399 0.74900001 4282875275
0.11025206 0.09981399 0.74900001 4282219913
0.11155681 0.09981399 0.74900001 4281956742
0.11286157 0.09981399 0.74900001 4282283910
0.11416633 0.09981399 0.74900001 4282218117
0.11577943 0.10008053 0.75100005 4282480260
0.11708767 0.10008053 0.75100005 4282546053
0.11855356 0.10021379 0.75200003 4282480006
0.11986355 0.10021379 0.75200003 4282414213
0.12149581 0.10048031 0.75400001 4282151556
0.12313503 0.10074684 0.75600004 4281033075
0.12461659 0.1008801 0.75700003 4281291882
0.12593529 0.1008801 0.75700003 4285173925
0.12759019 0.10114663 0.75900006 4289303996
0.12891237 0.10114663 0.75900006 4292133095
0.089247033 0.10246881 0.75900006 4290356127
0.090330549 0.10219879 0.75700003 4288587384
0.091528177 0.10206379 0.75600004 4283257895
0.092845127 0.10206379 0.75600004 4280774012
0.093912967 0.10179378 0.75400001 4281760907
0.094973855 0.10152377 0.75200003 4282612361
0.096283838 0.10152377 0.75200003 4282941070
0.09746404 0.10138877 0.75100005 4283006350
0.098772287 0.10138877 0.75100005 4283401108
0.09981399 0.10111875 0.74900001 4283336080
0.10111875 0.10111875 0.74900001 4283138701
0.10242351 0.10111875 0.74900001 4283138454
0.10345129 0.10084874 0.74700004 4283072660
0.10475257 0.10084874 0.74700004 4282810515
0.10605384 0.10084874 0.74700004 4282810515
0.10735512 0.10084874 0.74700004 4282153614
0.10865639 0.10084874 0.74700004 4282219663
0.10995767 0.10084874 0.74700004 4282284423
0.11125894 0.10084874 0.74700004 4282153094
0.11286157 0.10111875 0.74900001 4282283910
0.11416633 0.10111875 0.74900001 4282152324
0.11577943 0.10138877 0.75100005 4282151810
0.11708767 0.10138877 0.75100005 4282151810
0.11839592 0.10138877 0.75100005 4282085765
0.11986355 0.10152377 0.75200003 4282217352
0.12117354 0.10152377 0.75200003 4282021254
0.12248352 0.10152377 0.75200003 4280639601
0.12412273 0.10179378 0.75400001 4283656570
0.1254362 0.10179378 0.75400001 4288657095
0.12725399 0.10219879 0.75700003 4291868371
0.090330549 0.10351749 0.75700003 4286746236
0.091528177 0.10338075 0.75600004 4283588172
0.092845127 0.10338075 0.75600004 4281561468
0.093912967 0.10310724 0.75400001 4282285191
0.094973855 0.10283376 0.75200003 4282612359
0.096155792 0.10269701 0.75100005 4283007117
0.09746404 0.10269701 0.75100005 4283007117
0.098509237 0.10242351 0.74900001 4283335826
0.09981399 0.10242351 0.74900001 4283335826
0.10084874 0.10215002 0.74700004 4283204497
0.10215002 0.10215002 0.74700004 4283072912
0.10345129 0.10215002 0.74700004 4283138705
0.10475257 0.10215002 0.74700004 4282810517
0.10605384 0.10215002 0.74700004 4282613139
0.10735512 0.10215002 0.74700004 4281824140
0.10865639 0.10215002 0.74700004 4282021263
0.10995767 0.10215002 0.74700004 4282283660
0.11125894 0.10215002 0.74700004 4282151818
0.11256021 0.10215002 0.74700004 4282217863
0.11386149 0.10215002 0.74700004 4282086276
0.11516277 0.10215002 0.74700004 4281627263
0.11677585 0.10242351 0.74900001 4281693056
0.11808061 0.10242351 0.74900001 4281889154
0.11970416 0.10269701 0.75100005 4282217863
0.1210124 0.10269701 0.75100005 4281365120
0.12232064 0.10269701 0.75100005 4280575604
0.12362888 0.10269701 0.75100005 4285822345
0.1254362 0.10310724 0.75400001 4290559441
0.09021122 0.1046977 0.75600004 4285367677
0.091286033 0.10442071 0.75400001 4283328094
0.092599504 0.10442071 0.75400001 4282416261
0.093663864 0.10414374 0.75200003 4283074192
0.094973855 0.10414374 0.75200003 4283336080
0.096155792 0.10400525 0.75100005 4283665302
0.097204484 0.10372827 0.74900001 4283599254
0.098246194 0.10345129 0.74700004 4283796377
0.099547476 0.10345129 0.74700004 4283796631
0.10084874 0.10345129 0.74700004 4283862424
0.10201328 0.10331281 0.74600005 4283796629
0.10331281 0.10331281 0.74600005 4283533713
0.10461234 0.10331281 0.74600005 4282679195
0.10591187 0.10331281 0.74600005 4282547609
0.1072114 0.10331281 0.74600005 4281562260
0.10851093 0.10331281 0.74600005 4281628054
0.10981046 0.10331281 0.74600005 4281823370
0.11111 0.10331281 0.74600005 4281823370
0.11240954 0.10331281 0.74600005 4281495169
0.11386149 0.10345129 0.74700004 4281561218
0.11516277 0.10345129 0.74700004 4281494907
0.11646404 0.10345129 0.74700004 4281494907
0.11808061 0.10372827 0.74900001 4281560703
0.11938537 0.10372827 0.74900001 4281494909
0.12069012 0.10372827 0.74900001 4282214521
0.12199488 0.10372827 0.74900001 4285569965
0.12362888 0.10400525 0.75100005 4289174960
0.08889427 0.10601465 0.75600004 4288778894
0.089972571 0.10573418 0.75400001 4285169530
0.091286033 0.10573418 0.75400001 4283985256
0.09235388 0.10545372 0.75200003 4282744200
0.093663864 0.10545372 0.75200003 4283336080
0.094594963 0.10503303 0.74900001 4283270803
0.095643647 0.10475257 0.74700004 4283599768
0.096944928 0.10475257 0.74700004 4283468952
0.098114684 0.10461234 0.74600005 4283666074
0.099414214 0.10461234 0.74600005 4283665824
0.10071374 0.10461234 0.74600005 4283665824
0.10201328 0.10461234 0.74600005 4283338395
0.10331281 0.10461234 0.74600005 4283141015
0.10461234 0.10461234 0.74600005 4282417558
0.10591187 0.10461234 0.74600005 4282417558
0.1072114 0.10461234 0.74600005 4282612373
0.10851093 0.10461234 0.74600005 4282349201
0.10981046 0.10461234 0.74600005 4281561738
0.11111 0.10461234 0.74600005 4281495689
0.11240954 0.10461234 0.74600005 4281691271
0.11370906 0.10461234 0.74600005 4281362306
0.11516277 0.10475257 0.74700004 4280968311
0.11646404 0.10475257 0.74700004 4281231740
0.11776531 0.10475257 0.74700004 4281363067
0.11938537 0.10503303 0.74900001 4280508014
0.12069012 0.10503303 0.74900001 4282802547
0.12199488 0.10503303 0.74900001 4287013299
0.087113947 0.10676371 0.75200003 4291543999
0.08842393 0.10676371 0.75200003 4287727748
0.089733914 0.10676371 0.75200003 4283792004
0.090922832 0.10662173 0.75100005 4283792004
0.092231072 0.10662173 0.75100005 4282942607
0.093290202 0.10633779 0.74900001 4283205523
0.094342373 0.10605384 0.74700004 4283205523
0.095643647 0.10605384 0.74700004 4283403158
0.096815147 0.10591187 0.74600005 4283665563
0.098114684 0.10591187 0.74600005 4283928478
0.099414214 0.10591187 0.74600005 4283797414
0.10071374 0.10591187 0.74600005 4283731365
0.10201328 0.10591187 0.74600005 4283469211
0.10331281 0.10591187 0.74600005 4283403418
0.10461234 0.10591187 0.74600005 4283403672
0.10591187 0.10591187 0.74600005 4283272342
0.1072114 0.10591187 0.74600005 4282876308
0.10851093 0.10591187 0.74600005 4282415757
0.10951606 0.10562792 0.74400002 4282284173
0.11081212 0.10562792 0.74400002 4281626244
0.11240954 0.10591187 0.74600005 4280903563
0.11370906 0.10591187 0.74600005 4280772234
0.11500859 0.10591187 0.74600005 4280903040
0.11646404 0.10605384 0.74700004 4281034370
0.11776531 0.10605384 0.74700004 4280838010
0.11906658 0.10605384 0.74700004 4280180081
0.12069012 0.10633779 0.74900001 4281752172
0.12199488 0.10633779 0.74900001 4286620853
0.085803956 0.10807369 0.75200003 4292854462
0.087113947 0.10807369 0.75200003 4290690237
0.08842393 0.10807369 0.75200003 4286347642
0.089614592 0.10792998 0.75100005 4283268479
0.090680689 0.10764254 0.74900001 4283531394
0.091985449 0.10764254 0.74900001 4283073421
0.0930411 0.10735512 0.74700004 4283205264
0.094216079 0.1072114 0.74600005 4283205777
0.095515616 0.1072114 0.74600005 4283468950
0.096555583 0.10692397 0.74400002 4283665561
0.097851634 0.10692397 0.74400002 4283731354
0.099014416 0.10678025 0.74300003 4283731104
0.10030873 0.10678025 0.74300003 4283599518
0.10173978 0.10692397 0.74400002 4283271836
0.10303583 0.10692397 0.74400002 4283403422
0.10433187 0.10692397 0.74400002 4283272350
0.10562792 0.10692397 0.74400002 4283074970
0.10692397 0.10692397 0.74400002 4282877592
0.10822002 0.10692397 0.74400002 4282351248
0.10951606 0.10692397 0.74400002 4282153614
0.11081212 0.10692397 0.74400002 4281759112
0.11210816 0.10692397 0.74400002 4280706439
0.11370906 0.1072114 0.74600005 4280903561
0.11500859 0.1072114 0.74600005 4281231742
0.11646404 0.10735512 0.74700004 4281034106
0.11776531 0.10735512 0.74700004 4280968561
0.11906658 0.10735512 0.74700004 4280047459
0.12069012 0.10764254 0.74900001 4281554025
0.12199488 0.10764254 0.74900001 4287080637
0.085803956 0.10938368 0.75200003 4290092957
0.087113947 0.10938368 0.75200003 4287863699
0.088306352 0.10923822 0.75100005 4284771429
0.089375928 0.1089473 0.74900001 4282349955
0.090438552 0.10865639 0.74700004 4282744713
0.091739826 0.10865639 0.74700004 4283007369
0.092916548 0.10851093 0.74600005 4283138955
0.093963489 0.10822002 0.74400002 4283205514
0.09525954 0.10822002 0.74400002 4283534222
0.096425802 0.10807457 0.74300003 4283665298
0.097720116 0.10807457 0.74300003 4283599504
0.098747894 0.10778365 0.74100006 4283402904
0.10003872 0.10778365 0.74100006 4283337111
0.10160303 0.10807457 0.74300003 4283140250
0.10289734 0.10807457 0.74300003 4283074457
0.10419164 0.10807457 0.74300003 4283205525
0.10548595 0.10807457 0.74300003 4283008147
0.10678025 0.10807457 0.74300003 4283008399
0.10822002 0.10822002 0.74400002 4282876812
0.10936887 0.10807457 0.74300003 4282745226
0.11066318 0.10807457 0.74300003 4282153090
0.11210816 0.10822002 0.74400002 4281101196
0.11340421 0.10822002 0.74400002 4280772232
0.11500859 0.10851093 0.74600005 4281034622
0.11630813 0.10851093 0.74600005 4280771450
0.11776531 0.10865639 0.74700004 4280312164
0.11906658 0.10865639 0.74700004 4278996304
0.12069012 0.1089473 0.74900001 4282472560
0.12199488 0.1089473 0.74900001 4288064965
0.085689858 0.11054646 0.75100005 4287266168
0.086998098 0.11054646 0.75100005 4285563009
0.087836005 0.10995767 0.74700004 4283917928
0.089137278 0.10995767 0.74700004 4282022017
0.090317488 0.10981046 0.74600005 4282548361
0.091617018 0.10981046 0.74600005 4283006854
0.092667446 0.10951606 0.74400002 4283138183
0.093837194 0.10936887 0.74300003 4283073162
0.095131502 0.10936887 0.74300003 4283401871
0.096166253 0.10907447 0.74100006 4283337363
0.097457074 0.10907447 0.74100006 4283271570
0.098747894 0.10907447 0.74100006 4283271316
0.10003872 0.10907447 0.74100006 4283271316
0.10132954 0.10907447 0.74100006 4283073944
0.10262036 0.10907447 0.74100006 4283073944
0.10391118 0.10907447 0.74100006 4282877073
0.10520201 0.10907447 0.74100006 4282942867
0.10649282 0.10907447 0.74100006 4282417808
0.10778365 0.10907447 0.74100006 4282483601
0.10907447 0.10907447 0.74100006 4282745744
0.11036529 0.10907447 0.74100006 4282087558
0.11195748 0.10936887 0.74300003 4282021767
0.11325179 0.10936887 0.74300003 4281495423
0.11470026 0.10951606 0.74400002 4281034622
0.11630813 0.10981046 0.74600005 4280771450
0.11776531 0.10995767 0.74700004 4280114790
0.11906658 0.10995767 0.74700004 4279127895
0.12069012 0.11025206 0.74900001 4283652475
0.085689858 0.1118547 0.75100005 4285227321
0.086534731 0.11125894 0.74700004 4281360759
0.087836005 0.11125894 0.74700004 4282216068
0.08901795 0.11111 0.74600005 4282087812
0.090075344 0.11081212 0.74400002 4282416776
0.091371387 0.11081212 0.74400002 4282875268
0.092542894 0.11066318 0.74300003 4282941061
0.093837194 0.11066318 0.74300003 4282875529
0.094875433 0.11036529 0.74100006 4282941322
0.096166253 0.11036529 0.74100006 4282876814
0.097194031 0.11006741 0.73900002 4282942607
0.098481365 0.11006741 0.73900002 4283205264
0.099768706 0.11006741 0.73900002 4283271057
0.10105604 0.11006741 0.73900002 4283401360
0.10234338 0.11006741 0.73900002 4283269773
0.10363072 0.11006741 0.73900002 4282942607
0.10491806 0.11006741 0.73900002 4282810765
0.1062054 0.11006741 0.73900002 4282614154
0.10749273 0.11006741 0.73900002 4282416774
0.10907447 0.11036529 0.74100006 4282154888
0.11036529 0.11036529 0.74100006 4281891716
0.11165611 0.11036529 0.74100006 4281955974
0.11325179 0.11066318 0.74300003 4281955974
0.11454609 0.11066318 0.74300003 4281035142
0.11599631 0.11081212 0.74400002 4280442749
0.11760767 0.11111 0.74600005 4280114290
0.11906658 0.11125894 0.74700004 4280114290
0.085461654 0.11286157 0.74900001 4283321152
0.086418889 0.11240954 0.74600005 4280181096
0.08771842 0.11240954 0.74600005 4281825921
0.08901795 0.11240954 0.74600005 4282546303
0.089954279 0.11195748 0.74300003 4282546303
0.091248579 0.11195748 0.74300003 4282677634
0.092293784 0.11165611 0.74100006 4282677634
0.093584605 0.11165611 0.74100006 4282809220
0.094619349 0.11135475 0.73900002 4282875014
0.09590669 0.11135475 0.73900002 4282875529
0.097194031 0.11135475 0.73900002 4283007115
0.098348111 0.11120407 0.73800004 4283007369
0.099363692 0.1109027 0.73600006 4283007369
0.10064581 0.1109027 0.73600006 4282941070
0.10220489 0.11120407 0.73800004 4282743948
0.10349049 0.11120407 0.73800004 4282612874
0.10477608 0.11120407 0.73800004 4282546825
0.1062054 0.11135475 0.73900002 4282416525
0.10749273 0.11135475 0.73900002 4282219146
0.10878007 0.11135475 0.73900002 4281957255
0.11036529 0.11165611 0.74100006 4281891462
0.11165611 0.11165611 0.74100006 4281825671
0.11294693 0.11165611 0.74100006 4281825671
0.11423776 0.11165611 0.74100006 4282217863
0.11584041 0.11195748 0.74300003 4280902259
0.11729235 0.11210816 0.74400002 4279786092
0.11890719 0.11240954 0.74600005 4281167489
0.085233457 0.11386149 0.74700004 4282798129
0.086418889 0.11370906 0.74600005 4281034870
0.08748325 0.11340421 0.74400002 4282021765
0.088779293 0.11340421 0.74400002 4282152060
0.089954279 0.11325179 0.74300003 4282152060
0.091002963 0.11294693 0.74100006 4281955710
0.092293784 0.11294693 0.74100006 4282153090
0.093332015 0.11264208 0.73900002 4282808705
0.094619349 0.11264208 0.73900002 4282808705
0.09590669 0.11264208 0.73900002 4282875268
0.097062506 0.11248966 0.73800004 4282875268
0.098081581 0.11218482 0.73600006 4282941061
0.099363692 0.11218482 0.73600006 4283006854
0.10064581 0.11218482 0.73600006 4282875529
0.10192792 0.11218482 0.73600006 4282612357
0.10321003 0.11218482 0.73600006 4282349712
0.10449214 0.11218482 0.73600006 4282349712
0.10606168 0.11248966 0.73800004 4281891464
0.10734727 0.11248966 0.73800004 4281891464
0.10878007 0.11264208 0.73900002 4282021765
0.11006741 0.11264208 0.73900002 4281955972
0.11165611 0.11294693 0.74100006 4281825156
0.11294693 0.11294693 0.74100006 4281825156
0.11423776 0.11294693 0.74100006 4282021254
0.11584041 0.11325179 0.74300003 4281034358
0.11713471 0.11325179 0.74300003 4281688175
0.085233457 0.11516277 0.74700004 4283192396
0.086418889 0.11500859 0.74600005 4281493876
0.08748325 0.11470026 0.74400002 4282086013
0.088659965 0.11454609 0.74300003 4282086015
0.089712143 0.11423776 0.74100006 4282151808
0.091002963 0.11423776 0.74100006 4282021505
0.092044674 0.11392943 0.73900002 4282153092
0.093332015 0.11392943 0.73900002 4282284160
0.094619349 0.11392943 0.73900002 4282218367
0.095776916 0.11377526 0.73800004 4282086015
0.09679947 0.11346692 0.73600006 4282086015
0.098081581 0.11346692 0.73600006 4282480256
0.099363692 0.11346692 0.73600006 4282546305
0.10064581 0.11346692 0.73600006 4282612359
0.10192792 0.11346692 0.73600006 4282546566
0.10321003 0.11346692 0.73600006 4282087560
0.10449214 0.11346692 0.73600006 4281955974
0.10606168 0.11377526 0.73800004 4281955720
0.10734727 0.11377526 0.73800004 4281824390
0.10863288 0.11377526 0.73800004 4281562499
0.11006741 0.11392943 0.73900002 4281562499
0.11135475 0.11392943 0.73900002 4281759108
0.11294693 0.11423776 0.74100006 4281759108
0.11423776 0.11423776 0.74100006 4282020222
0.11584041 0.11454609 0.74300003 4280835949
0.11713471 0.11454609 0.74300003 4282671479
0.085119359 0.11630813 0.74600005 4281815146
0.086187199 0.11599631 0.74400002 4280968813
0.087365665 0.11584041 0.74300003 4281561206
0.088659965 0.11584041 0.74300003 4281560703
0.089712143 0.11552858 0.74100006 4281626496
0.09075734 0.11521676 0.73900002 4281823107
0.092044674 0.11521676 0.73900002 4281823107
0.093332015 0.11521676 0.73900002 4281757566
0.094491318 0.11506085 0.73800004 4281889152
0.095776916 0.11506085 0.73800004 4281692802
0.09679947 0.11474904 0.73600006 4281692802
0.097948313 0.11459313 0.73500001 4282021505
0.099228688 0.11459313 0.73500001 4282087299
0.10050905 0.11459313 0.73500001 4281825153
0.10178943 0.11459313 0.73500001 4281825153
0.10321003 0.11474904 0.73600006 4281825153
0.10449214 0.11474904 0.73600006 4281759360
0.10577425 0.11474904 0.73600006 4281955712
0.10705636 0.11474904 0.73600006 4281823870
0.10863288 0.11506085 0.73800004 4281693052
0.11006741 0.11521676 0.73900002 4281561466
0.11135475 0.11521676 0.73900002 4281627009
0.11264208 0.11521676 0.73900002 4281495423
0.11423776 0.11552858 0.74100006 4281887869
0.11552858 0.11552858 0.74100006 4282940557
0.11713471 0.11584041 0.74300003 4285299363
0.084891155 0.11729235 0.74400002 4282275165
0.086071357 0.11713471 0.74300003 4281362808
0.087365665 0.11713471 0.74300003 4281757566
0.088421315 0.11681941 0.74100006 4281691259
0.089712143 0.11681941 0.74100006 4281888382
0.09075734 0.1165041 0.73900002 4281823105
0.092044674 0.1165041 0.73900002 4281889154
0.09320572 0.11634645 0.73800004 4281627011
0.094491318 0.11634645 0.73800004 4281692804
0.09551736 0.11603115 0.73600006 4281692039
0.09679947 0.11603115 0.73600006 4281823368
0.097948313 0.11587349 0.73500001 4281693317
0.099228688 0.11587349 0.73500001 4281693317
0.10050905 0.11587349 0.73500001 4281759110
0.10178943 0.11587349 0.73500001 4281693317
0.10306979 0.11587349 0.73500001 4281955712
0.10435016 0.11587349 0.73500001 4281955712
0.10577425 0.11603115 0.73600006 4281561214
0.10705636 0.11603115 0.73600006 4281561214
0.10833848 0.11603115 0.73600006 4281494907
0.10991847 0.11634645 0.73800004 4281560701
0.11120407 0.11634645 0.73800004 4281953662
0.11264208 0.1165041 0.73900002 4281493111
0.11392943 0.1165041 0.73900002 4281951863
0.11521676 0.1165041 0.73900002 4284847011
0.083595105 0.1185884 0.74400002 4283329404
0.084777057 0.11842901 0.74300003 4282803060
0.085839674 0.11811023 0.74100006 4282087560
0.087130502 0.11811023 0.74100006 4282482318
0.088421315 0.11811023 0.74100006 4282875016
0.089469999 0.11779144 0.73900002 4282875016
0.09075734 0.11779144 0.73900002 4282678666
0.091920123 0.11763204 0.73800004 4282678666
0.09320572 0.11763204 0.73800004 4282283919
0.094235249 0.11731327 0.73600006 4281823368
0.095387571 0.11715387 0.73500001 4281495693
0.096667938 0.11715387 0.73500001 4281363851
0.097948313 0.11715387 0.73500001 4281101448
0.099228688 0.11715387 0.73500001 4280903813
0.10050905 0.11715387 0.73500001 4280839044
0.10178943 0.11715387 0.73500001 4280839044
0.10306979 0.11715387 0.73500001 4281232764
0.10435016 0.11715387 0.73500001 4281364607
0.10563053 0.11715387 0.73500001 4281757302
0.10705636 0.11731327 0.73600006 4281559667
0.10833848 0.11731327 0.73600006 4281363067
0.10991847 0.11763204 0.73800004 4281363067
0.11120407 0.11763204 0.73800004 4281625212
0.11264208 0.11779144 0.73900002 4281033075
0.11392943 0.11779144 0.73900002 4281753970
0.11521676 0.11779144 0.73900002 4285372585
0.1165041 0.11779144 0.73900002 4288255925
0.083482742 0.11972331 0.74300003 4283462787
0.084548853 0.11940105 0.74100006 4282673528
0.085839674 0.11940105 0.74100006 4282153607
0.086895317 0.11907879 0.73900002 4282482316
0.088182665 0.11907879 0.73900002 4282678918
0.089469999 0.11907879 0.73900002 4282678918
0.090634532 0.11891765 0.73800004 4282811019
0.091920123 0.11891765 0.73800004 4282613641
0.092953131 0.11859537 0.73600006 4282154389
0.094107203 0.11843424 0.73500001 4281825167
0.095387571 0.11843424 0.73500001 4281955724
0.096667938 0.11843424 0.73500001 4281560966
0.097948313 0.11843424 0.73500001 4280970378
0.099228688 0.11843424 0.73500001 4280838792
0.10050905 0.11843424 0.73500001 4281035140
0.10178943 0.11843424 0.73500001 4280837760
0.10306979 0.11843424 0.73500001 4281034618
0.10435016 0.11843424 0.73500001 4280903288
0.10563053 0.11843424 0.73500001 4280968563
0.10691091 0.11843424 0.73500001 4280968563
0.10833848 0.11859537 0.73600006 4281230970
0.10991847 0.11891765 0.73800004 4281296763
0.11120407 0.11891765 0.73800004 4281559419
0.11248966 0.11891765 0.73800004 4280835697
0.11377526 0.11891765 0.73800004 4281949037
0.11521676 0.11907879 0.73900002 4286027947
0.1165041 0.11907879 0.73900002 4288979382
0.083258025 0.12069188 0.74100006 4283464073
0.084548853 0.12069188 0.74100006 4283726988
0.085607983 0.12036612 0.73900002 4282877073
0.086895317 0.12036612 0.73900002 4283140502
0.088182665 0.12036612 0.73900002 4283337102
0.089348935 0.12020324 0.73800004 4283337102
0.090634532 0.12020324 0.73800004 4283271822
0.09167102 0.11987749 0.73600006 4283469202
0.092953131 0.11987749 0.73600006 4283665826
0.094107203 0.11971461 0.73500001 4283271068
0.095387571 0.11971461 0.73500001 4282877327
0.096667938 0.11971461 0.73500001 4282679949
0.097681791 0.11938886 0.73300004 4281825937
0.098958679 0.11938886 0.73300004 4280839042
0.10023557 0.11938886 0.73300004 4280313729
