# .PCD v0.7 - Point Cloud Data file format
VERSION 0.7
FIELDS x y z rgba
SIZE 4 4 4 4
TYPE F F F U
COUNT 1 1 1 1
WIDTH 1053
HEIGHT 1
VIEWPOINT 0 0 0 1 0 0 0
POINTS 1053
DATA ascii
-0.23687664 0.08091186 0.6300742 4278190080
-0.23737191 0.080202855 0.63069457 4278190080
-0.23725401 0.08007969 0.63194948 4278190080
-0.2377501 0.079369523 0.63257086 4278190080
-0.23824619 0.078659348 0.6331923 4278190080
-0.23874226 0.077949181 0.63381368 4278190080
-0.23923835 0.077239014 0.63443506 4278190080
-0.23973444 0.07652884 0.6350565 4278190080
-0.23962224 0.076397516 0.63631845 4278190080
-0.24011914 0.075686187 0.63694084 4278190080
-0.24122269 0.074398339 0.63692069 4278190080
-0.24171878 0.073688164 0.63754207 4278190080
-0.24221487 0.072977997 0.63816345 4278190080
-0.24320705 0.071557648 0.63940626 4278190080
-0.24370313 0.070847481 0.64002764 4278190080
-0.24359742 0.070706874 0.64129776 4278190080
-0.24409431 0.069995545 0.64192015 4278190080
-0.2451914 0.068716973 0.64189184 4278190080
-0.24568747 0.068006799 0.64251328 4278190080
-0.21034549 0.1206494 0.59623516 4278190080
-0.21282186 0.11710437 0.59933704 4278190080
-0.21693724 0.11150207 0.60309047 4278190080
-0.21876517 0.10859626 0.60678166 4278190080
-0.21926045 0.10788724 0.60740209 4278190080
-0.21975572 0.10717824 0.60802245 4278190080
-0.21960899 0.10709922 0.60924023 4278190080
-0.22010508 0.10638905 0.60986161 4278190080
-0.22208941 0.10354839 0.61234725 4278190080
-0.22308159 0.10212804 0.61359 4278190080
-0.22357768 0.10141787 0.61421144 4278190080
-0.22407377 0.1007077 0.61483282 4278190080
-0.22456986 0.099997528 0.6154542 4278190080
-0.22506593 0.099287361 0.61607563 4278190080
-0.22556202 0.098577194 0.61669701 4278190080
-0.22605811 0.097867019 0.61731839 4278190080
-0.2265542 0.097156852 0.61793983 4278190080
-0.22705027 0.096446685 0.61856121 4278190080
-0.2281754 0.095125079 0.61856896 4278190080
-0.22867069 0.094416067 0.61918932 4278190080
-0.22916596 0.093707062 0.61980969 4278190080
-0.22966123 0.09299805 0.62043011 4278190080
-0.22953071 0.092895836 0.62166822 4278190080
-0.23002681 0.092185661 0.6222896 4278190080
-0.23052289 0.091475487 0.62291098 4278190080
-0.23164234 0.090162009 0.62291163 4278190080
-0.23411871 0.086616971 0.62601352 4278190080
-0.23523246 0.085311651 0.62600708 4278190080
-0.23572692 0.084603809 0.62662643 4278190080
-0.23622139 0.083895959 0.62724584 4278190080
-0.23671585 0.083188117 0.6278652 4278190080
-0.23659509 0.083071925 0.62911546 4278190080
-0.23709036 0.082362913 0.62973583 4278190080
-0.23869371 0.08035671 0.63034266 4278190080
-0.23907147 0.079526871 0.63221735 4278190080
-0.23956674 0.078817867 0.63283777 4278190080
-0.24006201 0.078108855 0.63345814 4278190080
-0.2405573 0.07739985 0.6340785 4278190080
-0.24105257 0.076690838 0.63469887 4278190080
-0.24154784 0.075981833 0.63531929 4278190080
-0.24143678 0.075851768 0.63658178 4278190080
-0.24253839 0.074563809 0.63656002 4278190080
-0.24303368 0.073854797 0.63718045 4278190080
-0.24402422 0.072436787 0.63842118 4278190080
-0.2445195 0.071727775 0.6390416 4278190080
-0.24501477 0.07101877 0.63966197 4278190080
-0.24551004 0.070309758 0.64028233 4278190080
-0.24600533 0.069600753 0.6409027 4278190080
-0.2465006 0.068891734 0.64152312 4278190080
-0.24699588 0.068182729 0.64214349 4278190080
-0.20213954 0.13415362 0.58535028 4278190080
-0.20263481 0.13344461 0.5859707 4278190080
-0.21022813 0.12286062 0.59408152 4278190080
-0.21121706 0.12144492 0.59532028 4278190080
-0.2110545 0.12139145 0.59651721 4278190080
-0.21154977 0.12068245 0.59713757 4278190080
-0.21779874 0.11230912 0.60216397 4278190080
-0.22061189 0.10799579 0.60708827 4278190080
-0.22110635 0.10728795 0.60770762 4278190080
-0.22096001 0.10721127 0.60892487 4278190080
-0.22145528 0.10650226 0.60954523 4278190080
-0.22195056 0.10579325 0.6101656 4278190080
-0.22279958 0.10429165 0.61262971 4278190080
-0.22329567 0.10358148 0.61325109 4278190080
-0.22379176 0.1028713 0.61387253 4278190080
-0.22541748 0.10083019 0.61450827 4278190080
-0.22591276 0.10012118 0.6151287 4278190080
-0.22703993 0.09879376 0.61514002 4278190080
-0.2275344 0.098085918 0.61575943 4278190080
-0.22802886 0.09737806 0.61637878 4278190080
-0.22852333 0.09667021 0.61699814 4278190080
-0.22901779 0.095962375 0.61761749 4278190080
-0.22951226 0.095254518 0.6182369 4278190080
-0.23000672 0.094546676 0.61885625 4278190080
-0.23050119 0.093838826 0.6194756 4278190080
-0.23099566 0.093130976 0.62009495 4278190080
-0.23149012 0.092423126 0.62071437 4278190080
-0.23198459 0.091715276 0.62133372 4278190080
-0.23247905 0.091007426 0.62195307 4278190080
-0.23297352 0.090299577 0.62257248 4278190080
-0.23346798 0.089591727 0.62319183 4278190080
-0.23544583 0.086760342 0.6256693 4278190080
-0.23594031 0.086052485 0.62628865 4278190080
-0.23643477 0.085344635 0.626908 4278190080
-0.23692922 0.084636793 0.62752742 4278190080
-0.23742369 0.083928943 0.62814677 4278190080
-0.23841263 0.082513243 0.62938547 4278190080
-0.23890708 0.081805393 0.63000488 4278190080
-0.23940156 0.081097536 0.63062423 4278190080
-0.23989603 0.080389693 0.63124359 4278190080
-0.24039049 0.079681844 0.63186294 4278190080
-0.24088494 0.078974001 0.63248235 4278190080
-0.24137941 0.078266151 0.6331017 4278190080
-0.24187388 0.077558309 0.63372105 4278190080
-0.24236834 0.076850459 0.63434041 4278190080
-0.24286281 0.076142602 0.63495982 4278190080
-0.24275212 0.076014869 0.63622171 4278190080
-0.24385174 0.074726909 0.63619852 4278190080
-0.2443462 0.074019052 0.63681793 4278190080
-0.24484067 0.07331121 0.63743728 4278190080
-0.24533513 0.07260336 0.63805664 4278190080
-0.2452285 0.072469823 0.63932359 4278190080
-0.24572378 0.071760811 0.63994396 4278190080
-0.24621905 0.071051806 0.64056438 4278190080
-0.24671432 0.070342802 0.64118475 4278190080
-0.24720961 0.069633782 0.64180511 4278190080
-0.24770488 0.06892477 0.64242554 4278190080
-0.21208791 0.12223568 0.59440649 4278190080
-0.21192491 0.12218575 0.59560186 4278190080
-0.21340831 0.1200622 0.59745997 4278190080
-0.21390276 0.11935436 0.59807932 4278190080
-0.21751812 0.11446211 0.60120839 4278190080
-0.22146735 0.1088086 0.60615522 4278190080
-0.22131974 0.10873663 0.60736984 4278190080
-0.2218142 0.10802878 0.60798919 4278190080
-0.22230867 0.10732092 0.60860854 4278190080
-0.22280313 0.10661308 0.60922796 4278190080
-0.22428653 0.10448954 0.61108601 4278190080
-0.22414538 0.10440827 0.6123088 4278190080
-0.22464067 0.10369927 0.61292917 4278190080
-0.22626439 0.10165814 0.61356348 4278190080
-0.22675885 0.10095029 0.61418289 4278190080
-0.22725332 0.10024244 0.61480224 4278190080
-0.22774778 0.099534594 0.61542159 4278190080
-0.22824225 0.098826744 0.61604095 4278190080
-0.22873671 0.098118886 0.61666036 4278190080
-0.22923118 0.097411044 0.61727971 4278190080
-0.22972563 0.096703209 0.61789906 4278190080
-0.23022011 0.095995352 0.61851841 4278190080
-0.23071457 0.095287502 0.61913782 4278190080
-0.23183408 0.093968153 0.61914057 4278190080
-0.23232774 0.093261458 0.61975896 4278190080
-0.2328214 0.092554778 0.6203773 4278190080
-0.23331505 0.091848083 0.62099564 4278190080
-0.23380871 0.091141395 0.62161398 4278190080
-0.23430237 0.0904347 0.62223238 4278190080
-0.23578332 0.088314645 0.62408739 4278190080
-0.23677063 0.086901262 0.62532413 4278190080
-0.23726429 0.086194567 0.62594247 4278190080
-0.23775795 0.085487887 0.62656081 4278190080
-0.23763707 0.085377619 0.62780893 4278190080
-0.23813154 0.084669776 0.62842834 4278190080
-0.238626 0.083961919 0.62904769 4278190080
-0.23912047 0.083254069 0.62966704 4278190080
-0.23961493 0.082546227 0.6302864 4278190080
-0.24010941 0.081838369 0.63090581 4278190080
-0.24060386 0.08113052 0.63152516 4278190080
-0.24109833 0.080422677 0.63214451 4278190080
-0.24220084 0.079127699 0.63212597 4278190080
-0.24269448 0.078421004 0.63274431 4278190080
-0.24318814 0.077714317 0.63336271 4278190080
-0.2436818 0.077007622 0.63398105 4278190080
-0.24357066 0.076883435 0.63524139 4278190080
-0.24406512 0.076175585 0.63586074 4278190080
-0.24455959 0.075467743 0.63648009 4278190080
-0.24505405 0.074759886 0.63709944 4278190080
-0.24554852 0.074052036 0.63771886 4278190080
-0.24604298 0.073344193 0.63833821 4278190080
-0.24653745 0.072636336 0.63895756 4278190080
-0.24703191 0.071928486 0.63957691 4278190080
-0.24752638 0.071220644 0.64019632 4278190080
-0.24802084 0.070512794 0.64081568 4278190080
-0.24851531 0.069804952 0.64143503 4278190080
-0.24841389 0.069666818 0.64270753 4278190080
-0.21328826 0.12226862 0.59530598 4278190080
-0.21378192 0.12156192 0.59592432 4278190080
-0.21427557 0.12085523 0.59654266 4278190080
-0.21476921 0.12014856 0.597161 4278190080
-0.22345589 0.10827406 0.60524487 4278190080
-0.22316135 0.10813484 0.60767299 4278190080
-0.223655 0.10742816 0.60829133 4278190080
-0.22513597 0.10530809 0.6101464 4278190080
-0.22661693 0.10318803 0.61200148 4278190080
-0.22711058 0.10248134 0.61261982 4278190080
-0.22760424 0.10177465 0.61323816 4278190080
-0.2280979 0.10106796 0.61385655 4278190080
-0.22859156 0.10036127 0.61447489 4278190080
-0.22908519 0.099654593 0.61509323 4278190080
-0.22957885 0.098947898 0.61571157 4278190080
-0.23007251 0.09824121 0.61632991 4278190080
-0.23056617 0.097534515 0.61694831 4278190080
-0.23105982 0.096827827 0.61756665 4278190080
-0.23155348 0.096121147 0.61818498 4278190080
-0.23204713 0.095414452 0.61880332 4278190080
-0.23254077 0.094707772 0.61942166 4278190080
-0.23303443 0.094001077 0.62004006 4278190080
-0.23352809 0.093294397 0.6206584 4278190080
-0.23402175 0.092587702 0.62127674 4278190080
-0.2345154 0.091881014 0.62189507 4278190080
-0.23500906 0.091174319 0.62251347 4278190080
-0.2355027 0.090467647 0.62313181 4278190080
-0.23599637 0.089760952 0.62375015 4278190080
-0.23821688 0.087143034 0.62373447 4278190080
-0.23870891 0.086438656 0.62435085 4278190080
-0.23920095 0.085734285 0.62496716 4278190080
-0.23969299 0.085029922 0.62558347 4278190080
-0.23895828 0.085520819 0.6274603 4278190080
-0.23945194 0.084814131 0.62807864 4278190080
-0.23994561 0.084107436 0.62869698 4278190080
-0.24043925 0.083400756 0.62931532 4278190080
-0.24093291 0.082694069 0.62993366 4278190080
-0.24142656 0.081987374 0.63055205 4278190080
-0.24192022 0.081280686 0.63117039 4278190080
-0.24241386 0.080574006 0.63178873 4278190080
-0.24290752 0.079867318 0.63240707 4278190080
-0.24340118 0.079160623 0.63302547 4278190080
-0.24389483 0.078453936 0.63364381 4278190080
-0.24438849 0.077747241 0.63426214 4278190080
-0.24488214 0.077040561 0.63488048 4278190080
-0.2453758 0.076333866 0.63549888 4278190080
-0.24586944 0.075627185 0.63611722 4278190080
-0.2463631 0.07492049 0.63673556 4278190080
-0.24685676 0.07421381 0.6373539 4278190080
-0.24735041 0.073507115 0.63797224 4278190080
-0.24784407 0.072800428 0.63859063 4278190080
-0.24833773 0.072093733 0.63920897 4278190080
-0.24883138 0.07138706 0.63982731 4278190080
-0.24932504 0.070680365 0.64044565 4278190080
-0.24922316 0.070545778 0.6417166 4278190080
-0.24971761 0.069837935 0.64233595 4278190080
-0.22529128 0.10766969 0.60554415 4278190080
-0.2257825 0.10696649 0.60615945 4278190080
-0.22627373 0.10626328 0.60677475 4278190080
-0.23104872 0.099150091 0.6141535 4278190080
-0.23154074 0.098445728 0.61476988 4278190080
-0.23203278 0.097741358 0.61538619 4278190080
-0.23252483 0.097036988 0.6160025 4278190080
-0.23301686 0.096332617 0.61661881 4278190080
-0.23226017 0.096860766 0.61846608 4278190080
-0.23275383 0.096154071 0.61908448 4278190080
-0.23449296 0.094219513 0.61846781 4278190080
-0.23498498 0.093515158 0.61908412 4278190080
-0.23547702 0.09281078 0.61970043 4278190080
-0.23596905 0.092106417 0.62031674 4278190080
-0.23793718 0.089288943 0.62278205 4278190080
-0.23842922 0.08858458 0.62339836 4278190080
-0.23892124 0.087880217 0.62401468 4278190080
-0.23941328 0.087175846 0.62463099 4278190080
-0.23990531 0.086471468 0.6252473 4278190080
-0.24039735 0.085767105 0.62586361 4278190080
-0.24088939 0.085062735 0.62647998 4278190080
-0.24138141 0.084358372 0.6270963 4278190080
-0.24187344 0.083654009 0.62771261 4278190080
-0.24213326 0.082726993 0.63083315 4278190080
-0.24262691 0.082020305 0.63145149 4278190080
-0.24312055 0.081313625 0.63206983 4278190080
-0.24361421 0.080606937 0.63268816 4278190080
-0.24410787 0.079900242 0.63330656 4278190080
-0.24460152 0.079193555 0.6339249 4278190080
-0.24509518 0.07848686 0.63454324 4278190080
-0.24558884 0.07778018 0.63516158 4278190080
-0.24608248 0.077073485 0.63577998 4278190080
-0.24657613 0.076366805 0.63639832 4278190080
-0.24706979 0.07566011 0.63701665 4278190080
-0.24876191 0.07379286 0.63634109 4278190080
-0.24925394 0.073088497 0.63695741 4278190080
-0.24974598 0.072384126 0.63757372 4278190080
-0.250238 0.071679763 0.63819009 4278190080
-0.25073004 0.070975386 0.6388064 4278190080
-0.25003171 0.071419984 0.64072675 4278190080
-0.25052539 0.070713297 0.64134514 4278190080
-0.25101903 0.070006609 0.64196348 4278190080
-0.22663227 0.10776732 0.60522616 4278190080
-0.22697695 0.10699926 0.60705447 4278190080
-0.22830886 0.10481785 0.61011946 4278190080
-0.23027699 0.10200039 0.61258477 4278190080
-0.23076902 0.10129602 0.61320108 4278190080
-0.23188916 0.099967197 0.61320752 4278190080
-0.23238038 0.099263988 0.61382282 4278190080
-0.23287161 0.098560773 0.61443812 4278190080
-0.23336282 0.097857572 0.61505342 4278190080
-0.23385406 0.097154364 0.61566871 4278190080
-0.23434527 0.096451148 0.61628407 4278190080
-0.23421325 0.096365459 0.61751533 4278190080
-0.23470528 0.095661081 0.61813164 4278190080
-0.23519732 0.094956711 0.61874795 4278190080
-0.23568936 0.094252348 0.61936426 4278190080
-0.23618139 0.093547978 0.61998063 4278190080
-0.23667341 0.092843615 0.62059695 4278190080
-0.23716545 0.092139244 0.62121326 4278190080
-0.23765749 0.091434881 0.62182957 4278190080
-0.23814952 0.090730511 0.62244588 4278190080
-0.23864156 0.090026133 0.62306219 4278190080
-0.23913358 0.08932177 0.62367857 4278190080
-0.24023995 0.088012666 0.62366772 4278190080
-0.24073116 0.087309457 0.62428302 4278190080
-0.24122238 0.086606257 0.62489831 4278190080
-0.24110173 0.086504303 0.62614381 4278190080
-0.24220483 0.085199833 0.62612897 4278190080
-0.24269606 0.084496632 0.62674427 4278190080
-0.24318728 0.083793424 0.62735957 4278190080
-0.24306986 0.083686836 0.62860912 4278190080
-0.24356189 0.082982458 0.62922543 4278190080
-0.24405393 0.082278088 0.62984174 4278190080
-0.24454595 0.08157374 0.63045806 4278190080
-0.24503799 0.080869362 0.63107437 4278190080
-0.24553002 0.080164991 0.63169074 4278190080
-0.24602205 0.079460628 0.63230705 4278190080
-0.24530821 0.079933181 0.634206 4278190080
-0.24580187 0.079226486 0.63482434 4278190080
-0.24629553 0.078519799 0.63544267 4278190080
-0.24799018 0.076643161 0.6347723 4278190080
-0.24848221 0.075938784 0.63538867 4278190080
-0.24897425 0.075234413 0.63600498 4278190080
-0.24946629 0.07453005 0.6366213 4278190080
-0.24995832 0.073825687 0.63723761 4278190080
-0.25045034 0.073121317 0.63785392 4278190080
-0.25094238 0.072416954 0.63847023 4278190080
-0.25143442 0.071712583 0.63908654 4278190080
-0.25192645 0.071008213 0.63970292 4278190080
-0.25241849 0.07030385 0.64031923 4278190080
-0.25291052 0.069599487 0.64093554 4278190080
-0.22733432 0.10850208 0.60550541 4278190080
-0.22782473 0.10780003 0.60611969 4278190080
-0.22831514 0.10709798 0.60673404 4278190080
-0.22880556 0.10639593 0.60734832 4278190080
-0.22929597 0.10569388 0.60796261 4278190080
-0.22978638 0.10499185 0.60857689 4278190080
-0.22964503 0.10492241 0.60979539 4278190080
-0.23013625 0.10421921 0.61041069 4278190080
-0.23062748 0.103516 0.61102599 4278190080
-0.23111869 0.10281279 0.61164129 4278190080
-0.23160993 0.10210958 0.61225659 4278190080
-0.23210114 0.10140637 0.61287194 4278190080
-0.23420009 0.098673418 0.61410552 4278190080
-0.23567133 0.096567281 0.61594838 4278190080
-0.2355397 0.096483923 0.61717904 4278190080
-0.23603092 0.095780715 0.61779439 4278190080
-0.23652214 0.095077515 0.61840969 4278190080
-0.23701337 0.094374299 0.61902499 4278190080
-0.23750459 0.093671091 0.61964029 4278190080
-0.23799582 0.09296789 0.62025559 4278190080
-0.23897827 0.091561466 0.62148619 4278190080
-0.23946948 0.090858266 0.62210149 4278190080
-0.2399607 0.090155058 0.62271684 4278190080
-0.24045192 0.089451857 0.62333214 4278190080
-0.24155627 0.088142715 0.62331986 4278190080
-0.24204668 0.08744067 0.62393415 4278190080
-0.2425371 0.086738624 0.62454844 4278190080
-0.24302749 0.086036585 0.62516272 4278190080
-0.24351792 0.085334532 0.62577701 4278190080
-0.24400833 0.084632486 0.62639129 4278190080
-0.24449874 0.083930433 0.62700564 4278190080
-0.24498916 0.083228387 0.62761992 4278190080
-0.24536416 0.082419775 0.62948519 4278190080
-0.24585538 0.081716575 0.63010049 4278190080
-0.24634659 0.081013359 0.63071579 4278190080
-0.24623439 0.080902182 0.63197088 4278190080
-0.24672642 0.080197819 0.63258719 4278190080
-0.24721846 0.079493448 0.63320357 4278190080
-0.24771048 0.078789085 0.63381988 4278190080
-0.24820252 0.078084722 0.63443619 4278190080
-0.24869455 0.077380352 0.6350525 4278190080
-0.24978516 0.076090917 0.63502294 4278190080
-0.25027639 0.075387701 0.63563824 4278190080
-0.25076759 0.074684501 0.63625354 4278190080
-0.25125882 0.073981293 0.63686883 4278190080
-0.25175005 0.073278092 0.63748413 4278190080
-0.25224125 0.072574876 0.63809949 4278190080
-0.25273249 0.071871676 0.63871479 4278190080
-0.25322372 0.071168467 0.63933009 4278190080
-0.25371495 0.070465259 0.63994539 4278190080
-0.25420615 0.069762059 0.64056069 4278190080
-0.25469738 0.069058843 0.64117599 4278190080
-0.22720304 0.11069872 0.60334629 4278190080
-0.22818224 0.10929694 0.60457283 4278190080
-0.22803637 0.10923685 0.60578465 4278190080
-0.22852679 0.1085348 0.606399 4278190080
-0.2290172 0.10783274 0.60701329 4278190080
-0.22950761 0.1071307 0.60762757 4278190080
-0.22999802 0.10642865 0.60824186 4278190080
-0.23048843 0.10572661 0.60885614 4278190080
-0.23097885 0.10502456 0.60947043 4278190080
-0.23146926 0.10432252 0.61008471 4278190080
-0.23195967 0.10362046 0.610699 4278190080
-0.23245008 0.10291842 0.61131328 4278190080
-0.23343091 0.10151432 0.61254191 4278190080
-0.23392132 0.10081229 0.6131562 4278190080
-0.23441173 0.10011023 0.61377048 4278190080
-0.23588297 0.098004095 0.61561334 4278190080
-0.23637338 0.097302049 0.61622763 4278190080
-0.23686379 0.096600004 0.61684191 4278190080
-0.2373542 0.095897958 0.6174562 4278190080
-0.23722535 0.095813483 0.61868942 4278190080
-0.23771657 0.095110275 0.61930472 4278190080
-0.2382078 0.094407067 0.61992002 4278190080
-0.23869902 0.093703866 0.62053531 4278190080
-0.23919024 0.09300065 0.62115061 4278190080
-0.24029668 0.091685683 0.62114197 4278190080
-0.24078709 0.090983629 0.62175626 4278190080
-0.2412775 0.090281583 0.62237054 4278190080
-0.24176791 0.08957953 0.62298483 4278190080
-0.24225833 0.088877484 0.62359911 4278190080
-0.24274874 0.088175438 0.6242134 4278190080
-0.24323915 0.087473392 0.62482768 4278190080
-0.24372955 0.086771354 0.62544197 4278190080
-0.24421997 0.086069301 0.62605625 4278190080
-0.24531829 0.084765919 0.62603748 4278190080
-0.24580789 0.084065042 0.62665075 4278190080
-0.24629749 0.083364144 0.62726402 4278190080
-0.24606736 0.083155751 0.62976491 4278190080
-0.24655858 0.082452551 0.63038021 4278190080
-0.24704981 0.081749335 0.63099551 4278190080
-0.24754103 0.081046127 0.63161081 4278190080
-0.24803224 0.080342926 0.63222611 4278190080
-0.24792282 0.080230638 0.63348371 4278190080
-0.24841484 0.079526275 0.63410002 4278190080
-0.24950592 0.078233302 0.63407207 4278190080
-0.24999714 0.077530093 0.63468736 4278190080
-0.25048837 0.076826885 0.63530266 4278190080
-0.25097957 0.076123677 0.63591796 4278190080
-0.25255698 0.074134506 0.63649923 4278190080
-0.25304738 0.07343246 0.63711351 4278190080
-0.2535378 0.072730407 0.6377278 4278190080
-0.2540282 0.072028369 0.63834208 4278190080
-0.25451863 0.071326323 0.63895637 4278190080
-0.25500903 0.07062427 0.63957065 4278190080
-0.25549945 0.069922224 0.640185 4278190080
-0.25598985 0.069220178 0.64079928 4278190080
-0.2558918 0.069091618 0.64207101 4278190080
-0.22854067 0.11078678 0.60302907 4278190080
-0.22888313 0.11003048 0.6048516 4278190080
-0.22937272 0.10932961 0.60546488 4278190080
-0.22986233 0.10862871 0.60607815 4278190080
-0.23035192 0.10792783 0.60669148 4278190080
-0.23084153 0.10722695 0.60730469 4278190080
-0.23133114 0.10652605 0.60791802 4278190080
-0.23182073 0.10582517 0.6085313 4278190080
-0.23231034 0.10512428 0.60914457 4278190080
-0.23279993 0.1044234 0.60975784 4278190080
-0.23328954 0.10372251 0.61037111 4278190080
-0.23377913 0.10302163 0.61098439 4278190080
-0.23426874 0.10232073 0.61159766 4278190080
-0.23475835 0.10161985 0.61221093 4278190080
-0.23720635 0.098115422 0.61527729 4278190080
-0.23818555 0.096713647 0.61650383 4278190080
-0.23854665 0.095930666 0.61834973 4278190080
-0.23903707 0.09522862 0.61896408 4278190080
-0.23952749 0.094526567 0.61957836 4278190080
-0.24001789 0.093824528 0.62019265 4278190080
-0.2405083 0.093122475 0.62080693 4278190080
-0.24099872 0.092420436 0.62142122 4278190080
-0.24148913 0.091718391 0.6220355 4278190080
-0.24197954 0.091016337 0.62264979 4278190080
-0.24246995 0.090314291 0.62326407 4278190080
-0.24357116 0.089003891 0.62324989 4278190080
-0.24406077 0.088303007 0.62386316 4278190080
-0.24455036 0.087602124 0.62447643 4278190080
-0.24503997 0.08690124 0.6250897 4278190080
-0.24552958 0.086200349 0.62570298 4278190080
-0.24601917 0.085499465 0.62631625 4278190080
-0.24650878 0.084798582 0.62692952 4278190080
-0.24760351 0.083497465 0.62690723 4278190080
-0.24809229 0.082797743 0.62751949 4278190080
-0.24797758 0.082695916 0.62876934 4278190080
-0.24786448 0.08259178 0.63002127 4278190080
-0.2483549 0.081889734 0.63063556 4278190080
-0.24884531 0.08118768 0.63124985 4278190080
-0.24933572 0.080485635 0.63186413 4278190080
-0.24922667 0.080375686 0.63312113 4278190080
-0.24971791 0.079672478 0.63373649 4278190080
-0.25020912 0.078969277 0.63435179 4278190080
-0.25070035 0.078266062 0.63496709 4278190080
-0.25178778 0.076975405 0.63493562 4278190080
-0.25227821 0.076273359 0.6355499 4278190080
-0.25276861 0.075571306 0.63616419 4278190080
-0.253259 0.074869268 0.63677847 4278190080
-0.25374943 0.074167214 0.63739276 4278190080
-0.25423986 0.073465168 0.63800704 4278190080
-0.25473025 0.07276313 0.63862133 4278190080
-0.25522065 0.072061077 0.63923562 4278190080
-0.25571108 0.071359031 0.63984996 4278190080
-0.25620151 0.070656978 0.64046425 4278190080
-0.2566919 0.069954939 0.64107853 4278190080
-0.2571823 0.069252893 0.64169282 4278190080
-0.22093096 0.12341444 0.59289902 4278190080
-0.22826281 0.11291856 0.60208291 4278190080
-0.22924039 0.11151911 0.60330743 4278190080
-0.22972918 0.1108194 0.60391968 4278190080
-0.23021798 0.11011965 0.60453194 4278190080
-0.2300736 0.11006316 0.60574371 4278190080
-0.23119555 0.10872021 0.60575646 4278190080
-0.23168434 0.10802049 0.60636872 4278190080
-0.23217314 0.10732076 0.60698098 4278190080
-0.23266193 0.10662103 0.60759324 4278190080
-0.23315072 0.1059213 0.6082055 4278190080
-0.23363951 0.10522158 0.60881776 4278190080
-0.2341283 0.10452186 0.60943002 4278190080
-0.2346171 0.10382213 0.61004227 4278190080
-0.23559467 0.10242268 0.61126679 4278190080
-0.23754983 0.099623777 0.61371583 4278190080
-0.23803863 0.098924041 0.61432809 4278190080
-0.23852742 0.098224327 0.61494035 4278190080
-0.23986565 0.096045412 0.61800921 4278190080
-0.24035524 0.095344536 0.61862248 4278190080
-0.24022953 0.095261328 0.61985761 4278190080
-0.24071994 0.094559282 0.62047189 4278190080
-0.24121036 0.093857236 0.62108618 4278190080
-0.24170075 0.093155198 0.62170047 4278190080
-0.24219118 0.092453144 0.62231475 4278190080
-0.24268159 0.091751099 0.62292904 4278190080
-0.24378246 0.090438329 0.62291539 4278190080
-0.24427205 0.089737438 0.62352866 4278190080
-0.24476166 0.089036554 0.62414193 4278190080
-0.24525125 0.088335678 0.6247552 4278190080
-0.24574086 0.087634787 0.62536848 4278190080
-0.24623045 0.086933896 0.62598181 4278190080
-0.24732566 0.085629247 0.62596101 4278190080
-0.24781445 0.084929533 0.62657326 4278190080
-0.24890721 0.083628356 0.62654948 4278190080
-0.24939518 0.082929805 0.62716073 4278190080
-0.24988316 0.082231238 0.62777197 4278190080
-0.24916807 0.08272858 0.62966144 4278190080
-0.24965768 0.082027689 0.63027471 4278190080
-0.25014725 0.081326813 0.63088799 4278190080
-0.25063688 0.080625914 0.63150126 4278190080
-0.25052819 0.080518343 0.63275772 4278190080
-0.25101858 0.079816304 0.63337201 4278190080
-0.25150901 0.079114251 0.63398629 4278190080
-0.25199941 0.078412212 0.63460058 4278190080
-0.25248984 0.077710167 0.63521487 4278190080
-0.25298023 0.077008113 0.63582915 4278190080
-0.25406408 0.075719714 0.63579416 4278190080
-0.25455368 0.075018831 0.63640743 4278190080
-0.25504327 0.074317947 0.63702071 4278190080
-0.25494188 0.07419993 0.63828629 4278190080
-0.25543231 0.073497884 0.63890058 4278190080
-0.25651208 0.072215281 0.63886058 4278190080
-0.2570017 0.071514398 0.63947386 4278190080
-0.25749129 0.070813522 0.64008713 4278190080
-0.25798088 0.070112631 0.6407004 4278190080
-0.25788435 0.069987647 0.64197206 4278190080
-0.2263373 0.11792965 0.59628958 4278190080
-0.23008655 0.1123021 0.60237759 4278190080
-0.23106252 0.11090496 0.60360008 4278190080
-0.2315505 0.1102064 0.60421133 4278190080
-0.23203847 0.10950784 0.60482258 4278190080
-0.23252647 0.10880926 0.60543382 4278190080
-0.23301445 0.1081107 0.60604507 4278190080
-0.23350242 0.10741214 0.60665625 4278190080
-0.2339904 0.10671358 0.6072675 4278190080
-0.23447837 0.10601501 0.60787874 4278190080
-0.23496635 0.10531645 0.60848999 4278190080
-0.23545435 0.10461787 0.6091013 4278190080
-0.2358056 0.10385473 0.61093289 4278190080
-0.2362944 0.103155 0.61154515 4278190080
-0.23789424 0.10112505 0.61215746 4278190080
-0.23838222 0.10042648 0.61276871 4278190080
-0.2388702 0.099727921 0.61337996 4278190080
-0.23935817 0.099029355 0.6139912 4278190080
-0.24033414 0.097632229 0.61521369 4278190080
-0.24056654 0.096778959 0.61828798 4278190080
-0.24105613 0.096078083 0.61890125 4278190080
-0.24154572 0.095377192 0.61951452 4278190080
-0.24203533 0.094676301 0.6201278 4278190080
-0.24252494 0.093975417 0.62074107 4278190080
-0.24301453 0.093274534 0.62135434 4278190080
-0.24350414 0.092573635 0.62196767 4278190080
-0.24399373 0.091872759 0.62258095 4278190080
-0.24448334 0.091171876 0.62319422 4278190080
-0.24497294 0.090470985 0.62380749 4278190080
-0.24607021 0.089160487 0.62379032 4278190080
-0.24655901 0.088460758 0.62440258 4278190080
-0.2470478 0.08776103 0.62501484 4278190080
-0.24753658 0.087061316 0.6256271 4278190080
-0.24911778 0.085058048 0.62621611 4278190080
-0.24960577 0.084359474 0.62682736 4278190080
-0.25009373 0.083660915 0.6274386 4278190080
-0.25058171 0.082962349 0.62804985 4278190080
-0.25046933 0.082862951 0.62930065 4278190080
-0.25095811 0.08216323 0.62991291 4278190080
-0.2514469 0.081463501 0.63052517 4278190080
-0.25193569 0.080763772 0.63113743 4278190080
-0.25182736 0.080658577 0.6323933 4278190080
-0.25231695 0.079957694 0.63300663 4278190080
-0.25280657 0.079256803 0.6336199 4278190080
-0.25329617 0.078555912 0.63423318 4278190080
-0.25378576 0.077855036 0.63484645 4278190080
-0.25427535 0.077154145 0.63545972 4278190080
-0.25476497 0.076453261 0.63607299 4278190080
-0.25584602 0.075165965 0.6360355 4278190080
-0.25633481 0.074466243 0.63664776 4278190080
-0.25623378 0.074350595 0.63791281 4278190080
-0.25672337 0.073649719 0.63852608 4278190080
-0.25721297 0.072948828 0.63913935 4278190080
-0.25770259 0.072247937 0.63975263 4278190080
-0.25819218 0.071547061 0.6403659 4278190080
-0.25868177 0.07084617 0.64097917 4278190080
-0.25858641 0.070722409 0.64225131 4278190080
-0.23078513 0.11303323 0.60265547 4278190080
-0.2312731 0.11233466 0.60326672 4278190080
-0.2317611 0.11163608 0.60387796 4278190080
-0.23224907 0.11093753 0.60448915 4278190080
-0.23273705 0.11023896 0.60510039 4278190080
-0.23385508 0.10889588 0.60511017 4278190080
-0.23434226 0.10819846 0.6057204 4278190080
-0.23482943 0.10750107 0.60633063 4278190080
-0.23531659 0.10680367 0.60694087 4278190080
-0.23580377 0.10610625 0.6075511 4278190080
-0.23615292 0.105349 0.60937911 4278190080
-0.23664089 0.10465044 0.60999036 4278190080
-0.23712887 0.10395187 0.6106016 4278190080
-0.23761685 0.1032533 0.61121285 4278190080
-0.24018829 0.099829614 0.61304319 4278190080
-0.24116263 0.098434798 0.61426365 4278190080
-0.24164979 0.097737394 0.61487383 4278190080
-0.24213697 0.09703999 0.61548406 4278190080
-0.24249665 0.096267648 0.61732531 4278190080
-0.24237083 0.096190356 0.61855829 4278190080
-0.24285962 0.095490627 0.61917055 4278190080
-0.2433484 0.094790913 0.61978281 4278190080
-0.24383721 0.094091177 0.62039512 4278190080
-0.24432598 0.093391456 0.62100732 4278190080
-0.24420503 0.09330719 0.62224644 4278190080
-0.24530357 0.091992006 0.62223184 4278190080
-0.24579236 0.091292277 0.62284416 4278190080
-0.24628115 0.090592548 0.62345642 4278190080
-0.24676995 0.08989282 0.62406868 4278190080
-0.24725874 0.089193098 0.62468094 4278190080
-0.24774753 0.08849337 0.6252932 4278190080
-0.24884039 0.087186292 0.6252715 4278190080
-0.24932837 0.086487733 0.62588274 4278190080
-0.24981636 0.085789166 0.62649399 4278190080
-0.25090602 0.084486693 0.62646824 4278190080
-0.25139317 0.083789304 0.62707841 4278190080
-0.25188035 0.083091885 0.62768865 4278190080
-0.25176829 0.082994893 0.62893897 4278190080
-0.2528547 0.081697077 0.62890911 4278190080
-0.25431621 0.079604864 0.63073981 4278190080
-0.25361302 0.080096655 0.6326403 4278190080
-0.25469616 0.078803502 0.63260645 4278190080
-0.25518414 0.07810495 0.63321769 4278190080
-0.25567213 0.077406369 0.63382894 4278190080
-0.25616011 0.07670781 0.63444018 4278190080
-0.25605696 0.076598033 0.6357016 4278190080
-0.25654575 0.075898305 0.63631386 4278190080
-0.25703454 0.075198576 0.63692611 4278190080
-0.25752333 0.074498855 0.63753837 4278190080
-0.25801215 0.073799126 0.63815063 4278190080
-0.2585009 0.073099405 0.63876289 4278190080
-0.25898972 0.072399668 0.63937515 4278190080
-0.25947851 0.071699955 0.63998741 4278190080
-0.25938267 0.071579725 0.641258 4278190080
-0.22837232 0.1187275 0.59625667 4278190080
-0.23065513 0.11520503 0.60050577 4278190080
-0.2311423 0.11450762 0.601116 4278190080
-0.23162946 0.11381022 0.60172623 4278190080
-0.2314837 0.11376434 0.60293329 4278190080
-0.23197167 0.11306578 0.60354453 4278190080
-0.23245966 0.1123672 0.60415584 4278190080
-0.23294763 0.11166865 0.60476702 4278190080
-0.23406532 0.11032318 0.60477734 4278190080
-0.23455249 0.10962578 0.60538757 4278190080
-0.23503967 0.10892837 0.6059978 4278190080
-0.23552683 0.10823097 0.60660803 4278190080
-0.23601399 0.10753357 0.60721827 4278190080
-0.23650117 0.10683616 0.6078285 4278190080
-0.23698834 0.10613875 0.60843873 4278190080
-0.23747551 0.10544135 0.60904896 4278190080
-0.23796268 0.10474394 0.60965919 4278190080
-0.23844984 0.10404654 0.61026943 4278190080
-0.23893702 0.10334913 0.61087966 4278190080
-0.23942418 0.10265173 0.61148989 4278190080
-0.23991136 0.10195432 0.61210012 4278190080
-0.24088569 0.10055952 0.61332059 4278190080
-0.24137285 0.099862114 0.61393082 4278190080
-0.24186003 0.099164702 0.61454105 4278190080
-0.2423472 0.098467298 0.61515129 4278190080
-0.24283437 0.097769894 0.61576152 4278190080
-0.24332155 0.097072475 0.61637175 4278190080
-0.24380872 0.096375085 0.61698192 4278190080
-0.24368319 0.0963002 0.61821443 4278190080
-0.24417119 0.095601626 0.61882567 4278190080
-0.24465916 0.094903074 0.61943692 4278190080
-0.24514714 0.0942045 0.62004817 4278190080
-0.24563512 0.093505934 0.62065941 4278190080
-0.2455145 0.093424059 0.62189794 4278190080
-0.24661109 0.092108801 0.6218819 4278190080
-0.24709906 0.091410242 0.62249315 4278190080
-0.24758704 0.090711676 0.62310439 4278190080
-0.24807502 0.090013102 0.62371564 4278190080
-0.24856299 0.08931455 0.62432688 4278190080
-0.24905097 0.088615984 0.62493813 4278190080
-0.24953896 0.08791741 0.62554938 4278190080
-0.2506291 0.086611405 0.62552518 4278190080
-0.25111625 0.085914001 0.62613541 4278190080
-0.25160342 0.085216597 0.62674564 4278190080
-0.25209057 0.0845192 0.62735581 4278190080
-0.25257775 0.083821788 0.62796611 4278190080
-0.25306493 0.083124384 0.62857628 4278190080
-0.25355211 0.08242698 0.62918651 4278190080
-0.25403929 0.081729569 0.62979674 4278190080
-0.25452644 0.081032172 0.63040698 4278190080
-0.25501361 0.080334768 0.63101721 4278190080
-0.25550076 0.079637364 0.63162744 4278190080
-0.25598794 0.078939952 0.63223767 4278190080
-0.25647512 0.078242548 0.63284791 4278190080
-0.2569623 0.077545144 0.63345814 4278190080
-0.25744945 0.076847747 0.63406837 4278190080
-0.25734663 0.076740369 0.63532931 4278190080
-0.25783461 0.076041795 0.63594055 4278190080
-0.2583226 0.075343236 0.63655174 4278190080
-0.25881058 0.07464467 0.63716298 4278190080
-0.25929856 0.073946096 0.63777429 4278190080
-0.25978655 0.073247544 0.63838547 4278190080
-0.26027453 0.072548978 0.63899672 4278190080
-0.26017821 0.07243228 0.64026576 4278190080
-0.26066703 0.071732543 0.64087802 4278190080
-0.22906856 0.11945619 0.59653366 4278190080
-0.23198672 0.11527873 0.60018891 4278190080
-0.23247308 0.11458247 0.60079813 4278190080
-0.23295943 0.11388624 0.60140735 4278190080
-0.23344579 0.11318999 0.60201657 4278190080
-0.23393215 0.11249374 0.60262579 4278190080
-0.23378839 0.11244789 0.60383433 4278190080
-0.23427555 0.11175048 0.60444456 4278190080
-0.23476271 0.11105308 0.6050548 4278190080
-0.23524989 0.11035568 0.60566503 4278190080
-0.23573706 0.10965826 0.60627526 4278190080
-0.23685031 0.10831627 0.60628104 4278190080
-0.23733667 0.10762003 0.60689026 4278190080
-0.23782302 0.10692378 0.60749948 4278190080
-0.23830938 0.10622754 0.6081087 4278190080
-0.2381729 0.10617124 0.60932636 4278190080
-0.23866008 0.10547383 0.60993659 4278190080
-0.23914725 0.10477643 0.61054683 4278190080
-0.23963441 0.10407903 0.61115706 4278190080
-0.2417139 0.10135382 0.61237323 4278190080
-0.24220026 0.10065758 0.61298239 4278190080
-0.24268661 0.09996134 0.61359161 4278190080
-0.24317297 0.099265091 0.61420083 4278190080
-0.24365933 0.098568849 0.61481005 4278190080
-0.24414569 0.0978726 0.61541927 4278190080
-0.24463205 0.097176358 0.61602849 4278190080
-0.24450611 0.097104982 0.61725938 4278190080
-0.24499328 0.096407577 0.61786956 4278190080
-0.24548045 0.095710173 0.61847979 4278190080
-0.24535772 0.095634185 0.6197148 4278190080
-0.24584571 0.094935611 0.62032604 4278190080
-0.24633369 0.094237044 0.62093729 4278190080
-0.24682166 0.093538485 0.62154853 4278190080
-0.24730964 0.092839912 0.62215978 4278190080
-0.24779762 0.09214136 0.62277102 4278190080
-0.24889064 0.090828329 0.62275141 4278190080
-0.24937782 0.090130918 0.62336165 4278190080
-0.24986498 0.089433521 0.62397188 4278190080
-0.25035214 0.088736117 0.62458211 4278190080
-0.25083932 0.088038713 0.62519234 4278190080
-0.2513265 0.087341301 0.62580258 4278190080
-0.25181365 0.086643897 0.62641281 4278190080
-0.25290015 0.085340202 0.62638515 4278190080
-0.2533865 0.084643953 0.62699431 4278190080
-0.25387287 0.083947711 0.62760353 4278190080
-0.25435922 0.083251469 0.62821275 4278190080
-0.25484559 0.082555227 0.62882197 4278190080
-0.25533193 0.081858985 0.62943119 4278190080
-0.25630465 0.080466487 0.63064963 4278190080
-0.25619817 0.08036726 0.63190484 4278190080
-0.25727737 0.079074003 0.63186806 4278190080
-0.25776374 0.078377761 0.63247728 4278190080
-0.25825009 0.077681519 0.63308644 4278190080
-0.25873646 0.076985262 0.63369566 4278190080
-0.25863403 0.076880231 0.634956 4278190080
-0.25912121 0.076182827 0.63556623 4278190080
-0.25960836 0.075485423 0.63617647 4278190080
-0.2606819 0.074200295 0.63613254 4278190080
-0.26116824 0.073504038 0.63674176 4278190080
-0.26106986 0.073393211 0.63800716 4278190080
-0.26155704 0.072695807 0.6386174 4278190080
-0.26204422 0.071998388 0.63922763 4278190080
-0.2625314 0.071300983 0.63983786 4278190080
-0.20447414 0.15638962 0.56513143 4278190080
-0.21274225 0.14455344 0.57548809 4278190080
-0.23040271 0.11952051 0.59622198 4278190080
-0.23283044 0.1160451 0.59926295 4278190080
-0.23331599 0.11535001 0.59987116 4278190080
-0.23380153 0.11465493 0.60047936 4278190080
-0.23428708 0.11395985 0.60108757 4278190080
-0.23414204 0.11391868 0.60229349 4278190080
-0.23462841 0.11322243 0.60290271 4278190080
-0.23511475 0.11252619 0.60351193 4278190080
-0.23560113 0.11182994 0.60412115 4278190080
-0.23608747 0.11113371 0.60473037 4278190080
-0.23657383 0.11043746 0.60533959 4278190080
-0.23706019 0.10974121 0.60594881 4278190080
-0.23754656 0.10904496 0.60655802 4278190080
-0.23803292 0.10834872 0.60716724 4278190080
-0.23851927 0.10765248 0.60777646 4278190080
-0.23900563 0.10695624 0.60838568 4278190080
-0.23949198 0.10625999 0.60899484 4278190080
-0.23997836 0.10556374 0.60960406 4278190080
-0.24046472 0.1048675 0.61021328 4278190080
-0.24143742 0.10347501 0.61143172 4278190080
-0.24192378 0.10277877 0.61204094 4278190080
-0.24241015 0.10208251 0.61265016 4278190080
-0.24289651 0.10138627 0.61325938 4278190080
-0.24338286 0.10069003 0.61386859 4278190080
-0.24386922 0.099993788 0.61447781 4278190080
-0.24435557 0.099297546 0.61508703 4278190080
-0.24484195 0.098601289 0.61569625 4278190080
-0.24532831 0.097905047 0.61630541 4278190080
-0.24581465 0.097208805 0.61691463 4278190080
-0.24630101 0.096512564 0.61752385 4278190080
-0.24678737 0.095816322 0.61813307 4278190080
-0.24727374 0.095120065 0.61874229 4278190080
-0.2477601 0.094423823 0.61935151 4278190080
-0.24824645 0.093727581 0.61996073 4278190080
-0.24812652 0.093650453 0.62119812 4278190080
-0.2486137 0.092953041 0.62180835 4278190080
-0.24910086 0.092255637 0.62241858 4278190080
-0.24958804 0.091558233 0.62302881 4278190080
-0.25007522 0.090860821 0.62363905 4278190080
-0.25056237 0.090163425 0.62424928 4278190080
-0.25165096 0.088853873 0.6242252 4278190080
-0.25213733 0.088157617 0.62483442 4278190080
-0.25262368 0.087461375 0.62544364 4278190080
-0.25311005 0.086765133 0.62605286 4278190080
-0.25419456 0.085461378 0.62602371 4278190080
-0.25468013 0.084766299 0.62663192 4278190080
-0.25516567 0.084071212 0.62724012 4278190080
-0.25565121 0.083376125 0.62784833 4278190080
-0.25613678 0.082681045 0.62845647 4278190080
-0.25602818 0.082587674 0.62970811 4278190080
-0.25651455 0.081891432 0.63031733 4278190080
-0.25700092 0.081195183 0.63092655 4278190080
-0.25748727 0.080498941 0.63153577 4278190080
-0.25797364 0.079802692 0.63214499 4278190080
-0.25845999 0.07910645 0.63275421 4278190080
-0.25894633 0.078410208 0.63336343 4278190080
-0.2594327 0.077713959 0.63397264 4278190080
-0.25991908 0.077017717 0.63458186 4278190080
-0.26040542 0.076321468 0.63519108 4278190080
-0.26089177 0.075625226 0.6358003 4278190080
-0.26137814 0.074928984 0.63640946 4278190080
-0.26186451 0.074232735 0.63701868 4278190080
-0.26235086 0.073536493 0.6376279 4278190080
-0.26283723 0.072840251 0.63823712 4278190080
-0.26332358 0.072144002 0.63884634 4278190080
-0.26380995 0.071447752 0.63945556 4278190080
-0.21070474 0.14944153 0.57095414 4278190080
-0.21167584 0.14805137 0.5721705 4278190080
-0.21361805 0.145271 0.57460332 4278190080
-0.21410359 0.14457592 0.57521152 4278190080
-0.22769894 0.12511358 0.59224105 4278190080
-0.23012668 0.12163816 0.59528208 4278190080
-0.23158333 0.1195529 0.59710664 4278190080
-0.23206888 0.11885782 0.59771484 4278190080
-0.23255442 0.11816274 0.59832305 4278190080
-0.23352551 0.11677256 0.59953946 4278190080
-0.23464294 0.11541887 0.59955251 4278190080
-0.23512767 0.11472493 0.60015965 4278190080
-0.23561241 0.11403102 0.60076684 4278190080
-0.23609714 0.11333709 0.60137403 4278190080
-0.23658188 0.11264317 0.60198122 4278190080
-0.23643881 0.11260206 0.60318863 4278190080
-0.23692437 0.11190696 0.60379684 4278190080
-0.23678371 0.1118624 0.60500729 4278190080
-0.23727007 0.11116614 0.60561651 4278190080
-0.23775643 0.1104699 0.60622573 4278190080
-0.23824281 0.10977365 0.60683495 4278190080
-0.23872916 0.1090774 0.60744417 4278190080
-0.23921552 0.10838116 0.60805339 4278190080
-0.23970187 0.10768492 0.60866261 4278190080
-0.24018823 0.10698868 0.60927182 4278190080
-0.2406746 0.10629243 0.60988104 4278190080
-0.24116096 0.10559618 0.61049026 4278190080
-0.24164732 0.10489994 0.61109948 4278190080
-0.24323648 0.10287087 0.6117034 4278190080
-0.24372204 0.10217579 0.6123116 4278190080
-0.24420758 0.10148071 0.61291981 4278190080
-0.24469313 0.10078562 0.61352801 4278190080
-0.24517868 0.10009054 0.61413622 4278190080
-0.24566422 0.099395461 0.61474442 4278190080
-0.24614978 0.098700367 0.61535263 4278190080
-0.24663533 0.098005287 0.61596084 4278190080
-0.24712087 0.0973102 0.61656898 4278190080
-0.24760643 0.096615121 0.61717719 4278190080
-0.24809197 0.095920041 0.61778539 4278190080
-0.24857752 0.095224947 0.6183936 4278190080
-0.24906307 0.09452986 0.61900181 4278190080
-0.24954861 0.09383478 0.61961001 4278190080
-0.24942905 0.093760021 0.62084687 4278190080
-0.24991541 0.093063779 0.62145609 4278190080
-0.25197637 0.09035936 0.62265098 4278190080
-0.25246191 0.089664266 0.62325919 4278190080
-0.25294745 0.088969186 0.62386739 4278190080
-0.25343302 0.088274106 0.6244756 4278190080
-0.25391856 0.087579027 0.6250838 4278190080
-0.2544041 0.08688394 0.62569201 4278190080
-0.2559714 0.084886208 0.62626857 4278190080
-0.25586075 0.084798679 0.62751657 4278190080
-0.25694087 0.083498359 0.62748289 4278190080
-0.25742561 0.082804434 0.62809008 4278190080
-0.25731739 0.082713433 0.62934119 4278190080
-0.25780293 0.082018353 0.62994939 4278190080
-0.2582885 0.081323259 0.6305576 4278190080
-0.25818351 0.081227623 0.63181275 4278190080
-0.25925958 0.079933099 0.63177395 4278190080
-0.25974512 0.079238005 0.63238215 4278190080
-0.26023069 0.078542925 0.63299036 4278190080
-0.26071623 0.077847846 0.63359857 4278190080
-0.26120177 0.077152751 0.63420677 4278190080
-0.26110166 0.077050157 0.63546801 4278190080
-0.26158801 0.076353915 0.63607723 4278190080
-0.26314399 0.074372418 0.6366396 4278190080
-0.2630471 0.074265175 0.63790488 4278190080
-0.26353347 0.073568933 0.6385141 4278190080
-0.26401982 0.072872691 0.63912326 4278190080
-0.26450619 0.072176442 0.63973254 4278190080
-0.21237092 0.14877884 0.572447 4278190080
-0.21285647 0.14808375 0.57305521 4278190080
-0.21334201 0.14738868 0.57366341 4278190080
-0.21382757 0.14669359 0.57427162 4278190080
-0.21497788 0.14528993 0.57432681 4278190080
-0.22144976 0.13626815 0.58104777 4278190080
-0.22709632 0.12794183 0.58950639 4278190080
-0.23291318 0.11961474 0.59679258 4278190080
-0.2333979 0.11892083 0.59739977 4278190080
-0.23388265 0.11822689 0.59800696 4278190080
-0.23485212 0.11683904 0.59922135 4278190080
-0.23596759 0.11548524 0.59923285 4278190080
-0.23853076 0.112059 0.60105783 4278190080
-0.23838723 0.11202142 0.60226369 4278190080
-0.23824529 0.11198157 0.60347164 4278190080
-0.23873003 0.11128765 0.60407877 4278190080
-0.23859054 0.11124428 0.60528976 4278190080
-0.23907609 0.1105492 0.6058979 4278190080
-0.23956163 0.10985412 0.60650611 4278190080
-0.24004719 0.10915903 0.60711432 4278190080
-0.24053274 0.10846394 0.60772252 4278190080
-0.24101828 0.10776886 0.60833073 4278190080
-0.24150383 0.10707378 0.60893893 4278190080
-0.24198939 0.10637869 0.60954714 4278190080
-0.24247493 0.1056836 0.61015534 4278190080
-0.24296048 0.10498852 0.61076349 4278190080
-0.24344602 0.10429344 0.6113717 4278190080
-0.24393158 0.10359835 0.6119799 4278190080
-0.24441712 0.10290327 0.61258811 4278190080
-0.24490267 0.10220819 0.61319631 4278190080
-0.24538822 0.1015131 0.61380452 4278190080
-0.24587376 0.10081802 0.61441272 4278190080
-0.24697056 0.099490955 0.61440092 4278190080
-0.2474553 0.098797023 0.61500812 4278190080
-0.24903361 0.096780628 0.61559939 4278190080
-0.24951755 0.096087858 0.61620551 4278190080
-0.25048542 0.094702333 0.61741787 4278190080
-0.25133321 0.093245633 0.61986554 4278190080
-0.25327218 0.090469934 0.62229431 4278190080
-0.25375691 0.089776009 0.6229015 4278190080
-0.25424165 0.089082092 0.62350863 4278190080
-0.25472638 0.08838816 0.62411582 4278190080
-0.25521111 0.087694243 0.62472302 4278190080
-0.25569585 0.087000325 0.62533021 4278190080
-0.25618058 0.086306393 0.6259374 4278190080
-0.25666532 0.085612476 0.62654459 4278190080
-0.25715005 0.084918551 0.62715173 4278190080
-0.25763479 0.084224619 0.62775892 4278190080
-0.25811955 0.083530694 0.62836611 4278190080
-0.25860429 0.08283677 0.62897331 4278190080
-0.25908902 0.082142852 0.6295805 4278190080
-0.25898358 0.082050741 0.63083404 4278190080
-0.25946912 0.081355654 0.63144225 4278190080
-0.25995466 0.080660574 0.63205045 4278190080
-0.26044023 0.07996548 0.63265866 4278190080
-0.2615127 0.078673229 0.6326164 4278190080
-0.26199743 0.077979311 0.63322359 4278190080
-0.26248217 0.077285379 0.63383079 4278190080
-0.2629669 0.076591462 0.63443798 4278190080
-0.26286796 0.076490067 0.63569963 4278190080
-0.2633535 0.075794987 0.63630784 4278190080
-0.26383907 0.075099893 0.63691604 4278190080
-0.26374334 0.074993871 0.63818181 4278190080
-0.26422971 0.074297622 0.63879102 4278190080
-0.26471606 0.07360138 0.63940024 4278190080
-0.26520243 0.072905131 0.64000946 4278190080
-0.21373284 0.14879188 0.57217407 4278190080
-0.21585149 0.1459991 0.57344317 4278190080
-0.22472887 0.13353093 0.58317834 4278190080
-0.22553001 0.13214386 0.58556652 4278190080
-0.22843359 0.12798727 0.58920354 4278190080
-0.23424073 0.1196741 0.59647757 4278190080
-0.23409182 0.11964708 0.5976758 4278190080
-0.23666035 0.11621029 0.5995084 4278190080
-0.23825613 0.11416604 0.60012263 4278190080
-0.23873927 0.11347442 0.6007278 4278190080
-0.23922236 0.11278284 0.6013329 4278190080
-0.23908 0.11274646 0.60253924 4278190080
-0.23956391 0.11205371 0.60314542 4278190080
-0.23942395 0.11201391 0.6043548 4278190080
-0.23990868 0.11131999 0.60496199 4278190080
-0.23977117 0.11127666 0.60617441 4278190080
-0.24025671 0.11058158 0.60678262 4278190080
-0.24074227 0.1098865 0.60739082 4278190080
-0.24122782 0.10919141 0.60799903 4278190080
-0.24233237 0.10785037 0.60799789 4278190080
-0.24281712 0.10715644 0.60860509 4278190080
-0.24330185 0.10646252 0.60921228 4278190080
-0.24427132 0.10507467 0.61042666 4278190080
-0.24475606 0.10438075 0.61103386 4278190080
-0.24524081 0.10368682 0.61164099 4278190080
-0.24572554 0.1029929 0.61224818 4278190080
-0.24621028 0.10229897 0.61285537 4278190080
-0.24669501 0.10160505 0.61346257 4278190080
-0.24717975 0.10091113 0.61406976 4278190080
-0.24827461 0.099583961 0.61405641 4278190080
-0.24875852 0.098891199 0.61466259 4278190080
-0.24985093 0.097567566 0.61464626 4278190080
-0.25033405 0.096875958 0.61525142 4278190080
-0.25117818 0.095427379 0.61769342 4278190080
-0.25166211 0.094734617 0.6182996 4278190080
-0.25214604 0.094041854 0.61890578 4278190080
-0.25262994 0.093349092 0.61951196 4278190080
-0.25251186 0.093277961 0.62074876 4278190080
-0.25299659 0.092584036 0.62135595 4278190080
-0.25348133 0.091890119 0.62196314 4278190080
-0.25396609 0.091196187 0.62257034 4278190080
-0.25553352 0.08919251 0.62314892 4278190080
-0.25650138 0.087806985 0.62436128 4278190080
-0.25698531 0.087114215 0.62496746 4278190080
-0.25746921 0.086421452 0.62557364 4278190080
-0.25795317 0.08572869 0.62617981 4278190080
-0.25843707 0.085035928 0.62678593 4278190080
-0.258921 0.084343158 0.62739211 4278190080
-0.25940493 0.083650403 0.62799829 4278190080
-0.25929821 0.08356303 0.62924933 4278190080
-0.25978294 0.082869105 0.62985653 4278190080
-0.26026767 0.08217518 0.63046372 4278190080
-0.26075241 0.081481256 0.63107085 4278190080
-0.26123714 0.080787338 0.63167804 4278190080
-0.26172188 0.080093406 0.63228524 4278190080
-0.26279244 0.078801051 0.63224149 4278190080
-0.26327634 0.078108288 0.63284761 4278190080
-0.26376027 0.077415526 0.63345379 4278190080
-0.26472813 0.076029994 0.63466614 4278190080
