# .PCD v0.7 - Point Cloud Data file format
VERSION 0.7
FIELDS x y z rgba
SIZE 4 4 4 4
TYPE F F F U
COUNT 1 1 1 1
WIDTH 1021
HEIGHT 1
VIEWPOINT 0 0 0 1 0 0 0
POINTS 1021
DATA ascii
-0.12218703 -0.047785204 0.75714135 4278190080
-0.12122957 -0.049229518 0.757469 4278190080
-0.12008514 -0.049680728 0.75787133 4278190080
-0.1189407 -0.050131936 0.75827372 4278190080
-0.11779626 -0.050583147 0.75867611 4278190080
-0.11645716 -0.050044287 0.75915593 4278190080
-0.1155074 -0.051485565 0.75948089 4278190080
-0.32426849 0.016714908 0.6873098 4278190080
-0.32314405 0.016271582 0.68770516 4278190080
-0.30740234 0.01006518 0.69323993 4278190080
-0.30402914 0.0087352414 0.69442594 4278190080
-0.30296171 0.0093808901 0.69481206 4278190080
-0.30183575 0.0089369612 0.69520795 4278190080
-0.30070981 0.0084930416 0.69560385 4278190080
-0.29845792 0.0076052034 0.69639564 4278190080
-0.296206 0.0067173545 0.69718736 4278190080
-0.29282814 0.0053855865 0.69837505 4278190080
-0.27029681 -0.0045642154 0.70628619 4278190080
-0.26242751 -0.0066003143 0.70906389 4278190080
-0.26130155 -0.0070442338 0.70945972 4278190080
-0.26017562 -0.0074881529 0.70985562 4278190080
-0.25904965 -0.0079320827 0.71025151 4278190080
-0.25792831 -0.0094406772 0.71063495 4278190080
-0.2568039 -0.0098839933 0.71103024 4278190080
-0.25567952 -0.0103273 0.7114256 4278190080
-0.24441229 -0.013703073 0.71539801 4278190080
-0.24210806 -0.012478497 0.71622986 4278190080
-0.23984998 -0.013368771 0.71702379 4278190080
-0.23872095 -0.013813911 0.71742076 4278190080
-0.23759192 -0.014259046 0.71781772 4278190080
-0.23646289 -0.014704186 0.71821469 4278190080
-0.23533386 -0.01514932 0.71861166 4278190080
-0.23420483 -0.015594461 0.71900862 4278190080
-0.23307581 -0.016039589 0.71940559 4278190080
-0.23081775 -0.016929865 0.72019953 4278190080
-0.22968872 -0.017375 0.72059649 4278190080
-0.22855969 -0.01782014 0.72099346 4278190080
-0.22743066 -0.018265273 0.72139043 4278190080
-0.22630163 -0.018710414 0.72178739 4278190080
-0.22517258 -0.019155554 0.72218436 4278190080
-0.22404356 -0.019600689 0.72258133 4278190080
-0.22291455 -0.020045819 0.72297823 4278190080
-0.22065648 -0.020936092 0.72377217 4278190080
-0.21941349 -0.01929317 0.72423095 4278190080
-0.21839842 -0.021826368 0.7245661 4278190080
-0.21614036 -0.022716643 0.72536004 4278190080
-0.21501133 -0.023161776 0.725757 4278190080
-0.21388228 -0.023606917 0.72615397 4278190080
-0.2104952 -0.024942327 0.72734487 4278190080
-0.20823714 -0.025832601 0.7281388 4278190080
-0.20710811 -0.026277736 0.72853577 4278190080
-0.20597908 -0.026722876 0.72893274 4278190080
-0.20485005 -0.027168011 0.72932971 4278190080
-0.20372102 -0.027613146 0.72972667 4278190080
-0.20259199 -0.028058285 0.73012364 4278190080
-0.20146295 -0.02850342 0.73052061 4278190080
-0.19937432 -0.03145995 0.7312333 4278190080
-0.19833462 -0.032936364 0.73158801 4278190080
-0.19721021 -0.033379681 0.73198336 4278190080
-0.19626446 -0.035885543 0.7322942 4278190080
-0.19514313 -0.036327645 0.73268843 4278190080
-0.19402181 -0.036769744 0.73308271 4278190080
-0.19290046 -0.037211847 0.73347694 4278190080
-0.19177914 -0.037653949 0.73387122 4278190080
-0.19065782 -0.038096044 0.73426551 4278190080
-0.18953648 -0.03853815 0.73465973 4278190080
-0.18841515 -0.038980246 0.73505402 4278190080
-0.18729381 -0.039422352 0.73544824 4278190080
-0.1861725 -0.039864447 0.73584253 4278190080
-0.18505117 -0.040306542 0.73623675 4278190080
-0.18392983 -0.040748648 0.73663104 4278190080
-0.18280852 -0.041190747 0.73702526 4278190080
-0.18168718 -0.041632853 0.73741955 4278190080
-0.18056586 -0.042074949 0.73781383 4278190080
-0.17944451 -0.042517055 0.73820806 4278190080
-0.17832319 -0.04295915 0.73860234 4278190080
-0.17697084 -0.041359343 0.7390995 4278190080
-0.17584641 -0.041802663 0.73949486 4278190080
-0.17436624 -0.039186701 0.74004781 4278190080
-0.1732372 -0.039631836 0.74044478 4278190080
-0.17210816 -0.040076975 0.74084175 4278190080
-0.17097914 -0.04052211 0.74123871 4278190080
-0.1698501 -0.040967248 0.74163568 4278190080
-0.16872108 -0.041412383 0.74203265 4278190080
-0.16733637 -0.039825331 0.74254119 4278190080
-0.16620426 -0.040271685 0.74293923 4278190080
-0.16507216 -0.040718038 0.74333727 4278190080
-0.16380759 -0.04015005 0.74379271 4278190080
-0.16267392 -0.040597014 0.74419135 4278190080
-0.16154027 -0.041043971 0.74458992 4278190080
-0.16040662 -0.041490935 0.7449885 4278190080
-0.15927298 -0.041937888 0.74538708 4278190080
-0.15813932 -0.042384852 0.74578571 4278190080
-0.15700568 -0.042831805 0.74618429 4278190080
-0.15587202 -0.043278765 0.74658287 4278190080
-0.15473838 -0.043725718 0.74698144 4278190080
-0.15331209 -0.042155065 0.74750465 4278190080
-0.15217535 -0.042603239 0.7479043 4278190080
-0.15103862 -0.04305141 0.74830401 4278190080
-0.14990187 -0.043499589 0.74870366 4278190080
-0.14861268 -0.04294138 0.7491678 4278190080
-0.14747441 -0.043390159 0.74956799 4278190080
-0.14633612 -0.043838948 0.74996823 4278190080
-0.14519785 -0.044287723 0.75036842 4278190080
-0.14374229 -0.042728543 0.75090188 4278190080
-0.14260094 -0.043178543 0.7513032 4278190080
-0.14145958 -0.04362854 0.75170451 4278190080
-0.14031823 -0.044078529 0.75210577 4278190080
-0.13917689 -0.044528522 0.75250709 4278190080
-0.13770285 -0.042976692 0.75304705 4278190080
-0.13655841 -0.043427907 0.75344944 4278190080
-0.13541397 -0.043879114 0.75385183 4278190080
-0.13426954 -0.044330325 0.75425416 4278190080
-0.13312511 -0.044781532 0.75465655 4278190080
-0.13198067 -0.045232747 0.75505894 4278190080
-0.13066067 -0.044686683 0.75553393 4278190080
-0.12951469 -0.045138501 0.75593686 4278190080
-0.12836872 -0.045590319 0.75633973 4278190080
-0.12722273 -0.046042137 0.75674266 4278190080
-0.12571326 -0.044504214 0.75729507 4278190080
-0.12456422 -0.044957243 0.75769913 4278190080
-0.12378482 -0.047397584 0.75795144 4278190080
-0.12263884 -0.047849402 0.75835437 4278190080
-0.12168078 -0.049293626 0.7586804 4278190080
-0.12053634 -0.049744841 0.75908279 4278190080
-0.11939191 -0.050196048 0.75948513 4278190080
-0.11824747 -0.050647259 0.75988752 4278190080
-0.11710305 -0.051098466 0.76028991 4278190080
-0.32341674 0.014008973 0.68892998 4278190080
-0.30559683 0.0091155572 0.69522083 4278190080
-0.30447245 0.0086722514 0.69561613 4278190080
-0.2999748 0.0068989843 0.6971975 4278190080
-0.29885039 0.0064556678 0.69759285 4278190080
-0.29664993 0.0066542779 0.69837922 4278190080
-0.28198424 -0.00019404988 0.70352298 4278190080
-0.27183563 -0.0063276333 0.70706582 4278190080
-0.27071425 -0.0067697447 0.70746011 4278190080
-0.26286927 -0.0077304114 0.71024376 4278190080
-0.26174489 -0.0081737172 0.71063912 4278190080
-0.26062047 -0.0086170342 0.71103448 4278190080
-0.25949603 -0.0090603502 0.71142983 4278190080
-0.24600314 -0.014380129 0.71617389 4278190080
-0.24487874 -0.01482344 0.71656924 4278190080
-0.235779 -0.01521257 0.71980673 4278190080
-0.23464997 -0.01565771 0.72020376 4278190080
-0.23352095 -0.016102839 0.72060066 4278190080
-0.23126289 -0.016993115 0.7213946 4278190080
-0.23013386 -0.01743825 0.72179157 4278190080
-0.22900483 -0.017883388 0.72218853 4278190080
-0.2278758 -0.018328523 0.7225855 4278190080
-0.22674675 -0.018773664 0.72298247 4278190080
-0.22561772 -0.019218804 0.72337943 4278190080
-0.21107775 -0.027083803 0.72846633 4278190080
-0.20995179 -0.027527727 0.72886223 4278190080
-0.20657393 -0.028859496 0.73004985 4278190080
-0.20319608 -0.030191263 0.73123753 4278190080
-0.19894922 -0.035064157 0.7326926 4278190080
-0.19782788 -0.035506263 0.73308688 4278190080
-0.19670656 -0.035948362 0.73348117 4278190080
-0.19558524 -0.036390461 0.73387539 4278190080
-0.19446389 -0.036832564 0.73426968 4278190080
-0.19334257 -0.037274662 0.7346639 4278190080
-0.19222124 -0.037716765 0.73505819 4278190080
-0.19109993 -0.03815886 0.73545241 4278190080
-0.18997857 -0.038600966 0.7358467 4278190080
-0.18885726 -0.039043061 0.73624092 4278190080
-0.18773592 -0.039485168 0.73663521 4278190080
-0.1866146 -0.039927267 0.73702949 4278190080
-0.18549328 -0.040369362 0.73742372 4278190080
-0.18416061 -0.03876245 0.73791766 4278190080
-0.18325062 -0.041253563 0.73821223 4278190080
-0.18212928 -0.041695669 0.73860651 4278190080
-0.18100795 -0.042137764 0.73900074 4278190080
-0.17988661 -0.042579871 0.73939502 4278190080
-0.17741416 -0.041422334 0.74028969 4278190080
-0.17594039 -0.038804814 0.74084598 4278190080
-0.17481136 -0.039249949 0.74124289 4278190080
-0.17368235 -0.039695084 0.74163985 4278190080
-0.17231119 -0.038103346 0.74214733 4278190080
-0.17117906 -0.038549703 0.74254543 4278190080
-0.17004696 -0.038996052 0.74294347 4278190080
-0.16891484 -0.039442401 0.74334151 4278190080
-0.16778274 -0.039888751 0.74373955 4278190080
-0.16665061 -0.040335108 0.74413759 4278190080
-0.16551851 -0.040781457 0.74453562 4278190080
-0.16425455 -0.040213559 0.74499273 4278190080
-0.16312088 -0.040660519 0.74539131 4278190080
-0.16198723 -0.041107479 0.74578995 4278190080
-0.16085358 -0.041554444 0.74618852 4278190080
-0.15971993 -0.042001396 0.7465871 4278190080
-0.15830718 -0.040426057 0.74710923 4278190080
-0.15717044 -0.040874228 0.74750888 4278190080
-0.15603371 -0.041322403 0.74790853 4278190080
-0.15489697 -0.041770577 0.74830824 4278190080
-0.15376025 -0.042218745 0.74870789 4278190080
-0.15247625 -0.041658811 0.74917203 4278190080
-0.151338 -0.04210759 0.74957228 4278190080
-0.15019973 -0.042556368 0.74997246 4278190080
-0.14906146 -0.043005146 0.75037271 4278190080
-0.14792319 -0.043453928 0.75077289 4278190080
-0.14647499 -0.041892495 0.75130743 4278190080
-0.14533363 -0.042342491 0.75170875 4278190080
-0.14419229 -0.042792484 0.75211006 4278190080
-0.14305094 -0.043242481 0.75251132 4278190080
-0.14158735 -0.041687183 0.75305134 4278190080
-0.14044292 -0.04213839 0.75345367 4278190080
-0.13929848 -0.042589597 0.75385606 4278190080
-0.13815406 -0.043040805 0.75425845 4278190080
-0.13700962 -0.043492019 0.75466084 4278190080
-0.1358652 -0.043943226 0.75506324 4278190080
-0.13472076 -0.044394437 0.75546563 4278190080
-0.13357632 -0.044845644 0.75586796 4278190080
-0.13225845 -0.044299066 0.75634402 4278190080
-0.13111247 -0.044750884 0.75674695 4278190080
-0.12961346 -0.043209493 0.75729936 4278190080
-0.1284644 -0.043662522 0.75770342 4278190080
-0.12731534 -0.044115555 0.75810742 4278190080
-0.12423664 -0.047461785 0.75916451 4278190080
-0.12309066 -0.0479136 0.75956744 4278190080
-0.122132 -0.049357738 0.75989181 4278190080
-0.12098755 -0.049808953 0.7602942 4278190080
-0.11984313 -0.05026016 0.76069659 4278190080
-0.11869868 -0.050711371 0.76109892 4278190080
-0.30379131 0.0081659341 0.69720173 4278190080
-0.30266693 0.0077226274 0.69759709 4278190080
-0.30154252 0.0072793108 0.69799238 4278190080
-0.30041811 0.0068359943 0.69838774 4278190080
-0.2992937 0.0063926778 0.6987831 4278190080
-0.29816929 0.0059493612 0.69917846 4278190080
-0.2970449 0.005506055 0.69957376 4278190080
-0.28909764 0.00024104395 0.70233893 4278190080
-0.28570005 -0.0021643385 0.70351899 4278190080
-0.28458029 -0.0026058264 0.70391273 4278190080
-0.27562198 -0.0061377725 0.70706242 4278190080
-0.27450219 -0.0065792711 0.70745617 4278190080
-0.27338243 -0.0070207487 0.70784986 4278190080
-0.26667103 -0.0086009661 0.71022409 4278190080
-0.26106441 -0.010811461 0.7121954 4278190080
-0.25770041 -0.012137764 0.71337819 4278190080
-0.24079636 -0.015604909 0.71936524 4278190080
-0.2396704 -0.016048832 0.71976113 4278190080
-0.2329147 -0.018712364 0.72213638 4278190080
-0.23178875 -0.019156283 0.72253227 4278190080
-0.23066282 -0.019600201 0.72292817 4278190080
-0.21608739 -0.026412621 0.72803831 4278190080
-0.21496297 -0.026855936 0.72843367 4278190080
-0.21377356 -0.026259037 0.7288664 4278190080
-0.21264762 -0.026702961 0.72926229 4278190080
-0.21046534 -0.028629193 0.73001504 4278190080
-0.20934093 -0.02907251 0.7304104 4278190080
-0.20709211 -0.029959142 0.73120105 4278190080
-0.20596771 -0.030402454 0.73159641 4278190080
-0.20163397 -0.034242779 0.73309106 4278190080
-0.19939132 -0.035126977 0.73387957 4278190080
-0.19826998 -0.035569083 0.73427385 4278190080
-0.19714867 -0.036011178 0.73466814 4278190080
-0.19602734 -0.036453281 0.73506236 4278190080
-0.194906 -0.036895379 0.73545665 4278190080
-0.19378467 -0.037337482 0.73585087 4278190080
-0.19266334 -0.037779585 0.73624516 4278190080
-0.19154201 -0.03822168 0.73663938 4278190080
-0.19042067 -0.038663786 0.73703367 4278190080
-0.18929936 -0.039105881 0.73742789 4278190080
-0.18817802 -0.039547987 0.73782218 4278190080
-0.18705669 -0.039990082 0.73821646 4278190080
-0.18593538 -0.040432177 0.73861068 4278190080
-0.18460391 -0.038825437 0.73910791 4278190080
-0.18347952 -0.039268751 0.7395032 4278190080
-0.18235511 -0.039712068 0.73989856 4278190080
-0.18112102 -0.039132781 0.74034703 4278190080
-0.17999507 -0.039576702 0.74074286 4278190080
-0.17886911 -0.040020626 0.74113876 4278190080
-0.17751457 -0.038422924 0.74164408 4278190080
-0.17638552 -0.038868066 0.74204105 4278190080
-0.17502174 -0.037274074 0.74254966 4278190080
-0.17388964 -0.037720416 0.7429477 4278190080
-0.17275754 -0.038166769 0.74334574 4278190080
-0.17162541 -0.038613122 0.74374378 4278190080
-0.1704933 -0.039059475 0.74414182 4278190080
-0.16936119 -0.039505824 0.74453986 4278190080
-0.16810244 -0.038936198 0.74499696 4278190080
-0.16696881 -0.039383151 0.74539554 4278190080
-0.16583514 -0.039830111 0.74579418 4278190080
-0.16470151 -0.040277064 0.74619275 4278190080
-0.16330229 -0.038697042 0.74671376 4278190080
-0.16216555 -0.039145216 0.74711347 4278190080
-0.16102882 -0.039593387 0.74751312 4278190080
-0.15747814 -0.039927453 0.74877608 4278190080
-0.15633987 -0.040376235 0.74917626 4278190080
-0.1552016 -0.040825009 0.74957651 4278190080
-0.15406333 -0.041273791 0.74997669 4278190080
-0.15292504 -0.041722577 0.75037694 4278190080
-0.15178677 -0.042171355 0.75077713 4278190080
-0.1506485 -0.042620137 0.75117737 4278190080
-0.14951023 -0.043068912 0.75157756 4278190080
-0.14806633 -0.041506443 0.7521143 4278190080
-0.14692499 -0.041956436 0.75251561 4278190080
-0.14578363 -0.042406432 0.75291693 4278190080
-0.14432742 -0.040848874 0.75345796 4278190080
-0.14318299 -0.041300081 0.75386035 4278190080
-0.14203855 -0.041751295 0.75426275 4278190080
-0.14089413 -0.042202502 0.75466514 4278190080
-0.13746083 -0.043556131 0.75587225 4278190080
-0.12776837 -0.044179928 0.75932372 4278190080
-0.31957448 0.0088232402 0.69291663 4278190080
-0.30965713 0.0070442832 0.69643629 4278190080
-0.30853733 0.0066027953 0.69682997 4278190080
-0.30741757 0.0061613075 0.69722372 4278190080
-0.30635968 0.0068097315 0.69761205 4278190080
-0.30523837 0.006367641 0.69800627 4278190080
-0.28614157 -0.0022270698 0.70470434 4278190080
-0.28502178 -0.0026685577 0.70509803 4278190080
-0.28390202 -0.0031100458 0.70549172 4278190080
-0.2827822 -0.0035515444 0.70588547 4278190080
-0.27942285 -0.004876019 0.7070666 4278190080
-0.27830306 -0.0053175171 0.70746034 4278190080
-0.27718326 -0.0057590054 0.70785403 4278190080
-0.27494368 -0.0066420021 0.70864147 4278190080
-0.27378944 -0.0092281718 0.70901459 4278190080
-0.27267271 -0.0096684545 0.70940721 4278190080
-0.27155602 -0.010108727 0.70979983 4278190080
-0.26150623 -0.011939911 0.71336609 4278190080
-0.26038644 -0.012381399 0.71375978 4278190080
-0.24806875 -0.017237831 0.71809071 4278190080
-0.24470939 -0.018562309 0.71927184 4278190080
-0.24239212 -0.016279371 0.72013569 4278190080
-0.23789449 -0.018052626 0.72171706 4278190080
-0.23677009 -0.018495938 0.72211242 4278190080
-0.23564567 -0.01893926 0.72250777 4278190080
-0.23235196 -0.022368886 0.72363305 4278190080
-0.21877952 -0.025588982 0.7284379 4278190080
-0.21765511 -0.026032299 0.7288332 4278190080
-0.20544006 -0.032979295 0.73309523 4278190080
-0.20207608 -0.034305599 0.73427802 4278190080
-0.19871208 -0.035631899 0.73546082 4278190080
-0.19767827 -0.037105016 0.73580796 4278190080
-0.19655848 -0.037546508 0.73620164 4278190080
-0.1953481 -0.036958199 0.73664355 4278190080
-0.19422677 -0.037400298 0.73703784 4278190080
-0.19310544 -0.0378424 0.73743212 4278190080
-0.19198412 -0.038284495 0.73782635 4278190080
-0.19086277 -0.038726602 0.73822063 4278190080
-0.18974146 -0.039168697 0.73861486 4278190080
-0.18862012 -0.039610803 0.73900914 4278190080
-0.18729605 -0.038001802 0.73950744 4278190080
-0.18617165 -0.038445111 0.73990273 4278190080
-0.18504724 -0.038888428 0.74029809 4278190080
-0.18392283 -0.039331742 0.74069345 4278190080
-0.18269087 -0.038751937 0.74114299 4278190080
-0.18156494 -0.039195858 0.74153888 4278190080
-0.180439 -0.039639775 0.74193472 4278190080
-0.17931303 -0.040083703 0.74233061 4278190080
-0.17795971 -0.038486175 0.74283922 4278190080
-0.17660019 -0.036891144 0.74334997 4278190080
-0.17546809 -0.037337493 0.74374801 4278190080
-0.17433599 -0.037783839 0.74414605 4278190080
-0.17320389 -0.038230188 0.74454409 4278190080
-0.17195037 -0.037658826 0.7450012 4278190080
-0.1708167 -0.03810579 0.74539977 4278190080
-0.16968307 -0.038552742 0.74579841 4278190080
-0.1682974 -0.036968026 0.74631834 4278190080
-0.16716065 -0.037416205 0.74671799 4278190080
-0.16602391 -0.03786438 0.7471177 4278190080
-0.16488717 -0.038312554 0.74751735 4278190080
-0.16361828 -0.037747316 0.74797988 4278190080
-0.16248 -0.038196098 0.74838012 4278190080
-0.16134173 -0.03864488 0.74878031 4278190080
-0.15992987 -0.037070427 0.74930948 4278190080
-0.1587885 -0.037520424 0.7497108 4278190080
-0.15792692 -0.039991219 0.74998099 4278190080
-0.15678865 -0.040440001 0.75038117 4278190080
-0.15565038 -0.040888779 0.75078142 4278190080
-0.15451211 -0.041337557 0.7511816 4278190080
-0.15337382 -0.041786347 0.75158185 4278190080
-0.15223555 -0.042235121 0.75198203 4278190080
-0.15109728 -0.042683903 0.75238228 4278190080
-0.14995903 -0.043132678 0.75278246 4278190080
-0.14851633 -0.041570384 0.75332248 4278190080
-0.14737499 -0.042020373 0.75372374 4278190080
-0.32113147 0.0092009641 0.69370604 4278190080
-0.31324273 0.0050255321 0.6964615 4278190080
-0.31108108 0.0052384594 0.69723976 4278190080
-0.30996436 0.0047981767 0.69763237 4278190080
-0.30785906 0.0060985759 0.69840902 4278190080
-0.30673927 0.0056570778 0.69880277 4278190080
-0.30561948 0.0052155894 0.69919646 4278190080
-0.30337986 0.0043325927 0.69998389 4278190080
-0.30226013 0.0038911151 0.70037758 4278190080
-0.28539681 -0.0048879427 0.70627028 4278190080
-0.2831634 -0.0057684984 0.70705557 4278190080
-0.27757984 -0.0079698917 0.70901871 4278190080
-0.27646312 -0.0084101744 0.70941138 4278190080
-0.27534643 -0.0088504581 0.709804 4278190080
-0.27422974 -0.0092907306 0.71019661 4278190080
-0.27311301 -0.0097310133 0.71058929 4278190080
-0.27199632 -0.010171286 0.71098191 4278190080
-0.26530707 -0.010678167 0.71337026 4278190080
-0.26418731 -0.011119655 0.71376395 4278190080
-0.26306748 -0.011561154 0.7141577 4278190080
-0.26194772 -0.012002642 0.71455139 4278190080
-0.26082793 -0.01244413 0.71494514 4278190080
-0.24851024 -0.017300561 0.71927601 4278190080
-0.24739045 -0.01774206 0.71966976 4278190080
-0.24627069 -0.018183542 0.72006345 4278190080
-0.24515088 -0.018625041 0.72045714 4278190080
-0.24288602 -0.018452803 0.72127169 4278190080
-0.23952202 -0.019779107 0.72245449 4278190080
-0.23840071 -0.020221202 0.72284871 4278190080
-0.23727937 -0.020663304 0.723243 4278190080
-0.23615806 -0.021105399 0.72363722 4278190080
-0.23391539 -0.021989606 0.72442579 4278190080
-0.23171341 -0.023922956 0.72518176 4278190080
-0.22611448 -0.026130415 0.72715032 4278190080
-0.2227021 -0.026410606 0.72836834 4278190080
-0.22158077 -0.026852708 0.72876263 4278190080
-0.22045945 -0.027294809 0.72915685 4278190080
-0.21709545 -0.028621111 0.73033965 4278190080
-0.21597412 -0.029063208 0.73073387 4278190080
-0.2148528 -0.029505309 0.73112816 4278190080
-0.21373147 -0.029947409 0.73152244 4278190080
-0.21261014 -0.03038951 0.73191667 4278190080
-0.20924614 -0.031715814 0.73309946 4278190080
-0.20812483 -0.032157909 0.73349369 4278190080
-0.20700349 -0.032600015 0.73388797 4278190080
-0.20588216 -0.033042111 0.7342822 4278190080
-0.20251818 -0.034368414 0.73546499 4278190080
-0.20139684 -0.034810517 0.73585927 4278190080
-0.20027553 -0.035252612 0.7362535 4278190080
-0.19915418 -0.035694718 0.73664778 4278190080
-0.19811976 -0.037167747 0.73699325 4278190080
-0.19699997 -0.037609242 0.73738694 4278190080
-0.1957902 -0.037021015 0.73783052 4278190080
-0.19466887 -0.037463117 0.7382248 4278190080
-0.19354755 -0.037905216 0.73861909 4278190080
-0.19242622 -0.038347315 0.73901331 4278190080
-0.19130488 -0.038789421 0.7394076 4278190080
-0.19018357 -0.039231516 0.73980182 4278190080
-0.18906222 -0.039673623 0.74019611 4278190080
-0.18773936 -0.038064793 0.74069762 4278190080
-0.18661496 -0.038508102 0.74109298 4278190080
-0.18549055 -0.038951419 0.74148834 4278190080
-0.18426076 -0.03837109 0.74193895 4278190080
-0.18313481 -0.038815014 0.74233484 4278190080
-0.18179192 -0.037214018 0.74284345 4278190080
-0.1806629 -0.03765915 0.74324036 4278190080
-0.17953387 -0.038104288 0.74363732 4278190080
-0.17817867 -0.03650821 0.74415028 4278190080
-0.17704655 -0.036954567 0.74454832 4278190080
-0.17579827 -0.036381464 0.74500543 4278190080
-0.17466463 -0.036828417 0.74540401 4278190080
-0.17353097 -0.037275381 0.74580264 4278190080
-0.17239733 -0.037722334 0.74620122 4278190080
-0.17101902 -0.036135364 0.74672228 4278190080
-0.16988228 -0.036583539 0.74712193 4278190080
-0.16874556 -0.037031706 0.74752158 4278190080
-0.16760881 -0.037479889 0.74792129 4278190080
-0.16634361 -0.036913522 0.74838436 4278190080
-0.16520531 -0.037362307 0.74878454 4278190080
-0.16406706 -0.037811086 0.74918479 4278190080
-0.16292879 -0.038259864 0.74958497 4278190080
-0.16179051 -0.038708646 0.74998522 4278190080
-0.1592385 -0.037584364 0.75091892 4278190080
-0.15809715 -0.038034361 0.75132024 4278190080
-0.15695581 -0.038484354 0.7517215 4278190080
-0.15581444 -0.03893435 0.75212282 4278190080
-0.1546731 -0.039384343 0.75252414 4278190080
-0.15353175 -0.039834339 0.75292546 4278190080
-0.15239038 -0.040284336 0.75332671 4278190080
-0.15124904 -0.040734328 0.75372803 4278190080
-0.32037342 0.0076010791 0.69528937 4278190080
-0.31814307 0.0067217392 0.69607353 4278190080
-0.31256726 0.0045233895 0.69803399 4278190080
-0.31145209 0.00408372 0.69842607 4278190080
-0.31040466 0.0047356179 0.69881445 4278190080
-0.30928794 0.0042953352 0.69920707 4278190080
-0.30705452 0.0034147799 0.69999236 4278190080
-0.30593783 0.0029745074 0.70038497 4278190080
-0.30046201 0.0029453868 0.70235038 4278190080
-0.29934224 0.0025038987 0.70274407 4278190080
-0.28580323 -0.0060287192 0.70744419 4278190080
-0.28134254 -0.0077874092 0.70901257 4278190080
-0.27799705 -0.009106419 0.71018887 4278190080
-0.27688187 -0.009546089 0.71058095 4278190080
-0.2757867 -0.0089130159 0.71098608 4278190080
-0.27467 -0.0093532884 0.71137869 4278190080
-0.27353638 -0.010865099 0.71175718 4278190080
-0.26908645 -0.011554683 0.71334189 4278190080
-0.26796973 -0.011994965 0.71373451 4278190080
-0.26685303 -0.012435238 0.71412712 4278190080
-0.26350293 -0.013756076 0.71530503 4278190080
-0.2623862 -0.014196359 0.71569765 4278190080
-0.26126951 -0.014636631 0.71609032 4278190080
-0.25233582 -0.018158864 0.71923137 4278190080
-0.25121909 -0.018599147 0.71962398 4278190080
-0.24675229 -0.020360252 0.72119451 4278190080
-0.24223301 -0.020012252 0.72282362 4278190080
-0.23887365 -0.021336727 0.72400481 4278190080
-0.23775384 -0.021778226 0.72439849 4278190080
-0.23663408 -0.022219714 0.72479224 4278190080
-0.23551428 -0.022661207 0.72518593 4278190080
-0.23439448 -0.023102704 0.72557968 4278190080
-0.22991535 -0.024868667 0.72715449 4278190080
-0.22879554 -0.025310166 0.72754824 4278190080
-0.22767575 -0.02575166 0.72794193 4278190080
-0.22655597 -0.026193148 0.72833568 4278190080
-0.22538684 -0.025589228 0.7287668 4278190080
-0.22426552 -0.026031328 0.72916102 4278190080
-0.2231442 -0.026473423 0.72955531 4278190080
-0.22202288 -0.026915526 0.72994959 4278190080
-0.22090153 -0.027357627 0.73034382 4278190080
-0.21978021 -0.027799727 0.7307381 4278190080
-0.21865888 -0.028241828 0.73113233 4278190080
-0.21759765 -0.029725099 0.73148543 4278190080
-0.21647786 -0.030166592 0.73187912 4278190080
-0.21535809 -0.03060808 0.7322728 4278190080
-0.21311851 -0.031491067 0.73306024 4278190080
-0.21199872 -0.031932559 0.73345399 4278190080
-0.21080957 -0.031336531 0.73389214 4278190080
-0.20968825 -0.03177863 0.73428643 4278190080
-0.20856692 -0.032220729 0.73468065 4278190080
-0.20639977 -0.034140024 0.73542255 4278190080
-0.20527999 -0.03458152 0.7358163 4278190080
-0.2041602 -0.035023011 0.73620999 4278190080
-0.20304041 -0.035464507 0.73660374 4278190080
-0.20192063 -0.035905994 0.73699743 4278190080
-0.20080082 -0.036347494 0.73739117 4278190080
-0.19968104 -0.036788985 0.73778486 4278190080
-0.19856125 -0.03723048 0.73817861 4278190080
-0.19744146 -0.037671972 0.7385723 4278190080
-0.19632168 -0.03811346 0.73896599 4278190080
-0.19511098 -0.037525933 0.73941177 4278190080
-0.19398963 -0.037968036 0.739806 4278190080
-0.19286832 -0.038410131 0.74020028 4278190080
-0.19174698 -0.038852237 0.74059451 4278190080
-0.19062565 -0.039294332 0.74098879 4278190080
-0.18950431 -0.039736439 0.74138308 4278190080
-0.18818268 -0.03812778 0.74188787 4278190080
-0.18705828 -0.038571093 0.74228323 4278190080
-0.18583064 -0.037990242 0.74273491 4278190080
-0.18470468 -0.038434166 0.7431308 4278190080
-0.18336609 -0.036832128 0.74364156 4278190080
-0.18223706 -0.037277266 0.74403852 4278190080
-0.18110804 -0.037722398 0.74443549 4278190080
-0.179979 -0.038167536 0.74483246 4278190080
-0.17851253 -0.035551049 0.74540824 4278190080
-0.17737888 -0.035998009 0.74580687 4278190080
-0.17624523 -0.036444969 0.74620545 4278190080
-0.17511158 -0.036891926 0.74660403 4278190080
-0.17397793 -0.037338886 0.7470026 4278190080
-0.17260392 -0.035750873 0.74752587 4278190080
-0.17146719 -0.036199044 0.74792552 4278190080
-0.17033045 -0.036647219 0.74832517 4278190080
-0.16919373 -0.037095387 0.74872488 4278190080
-0.16805699 -0.037543569 0.74912453 4278190080
-0.16679239 -0.036977287 0.74958926 4278190080
-0.16565409 -0.037426073 0.74998945 4278190080
-0.16451584 -0.037874851 0.7503897 4278190080
-0.16337757 -0.038323633 0.75078988 4278190080
-0.16223928 -0.038772415 0.75119013 4278190080
-0.32415861 0.0088576265 0.69529355 4278190080
-0.32304344 0.0084179565 0.69568563 4278190080
-0.32192823 0.0079782763 0.6960777 4278190080
-0.32081309 0.0075386069 0.69646978 4278190080
-0.31969792 0.0070989369 0.69686192 4278190080
-0.31077659 0.0035815774 0.69999862 4278190080
-0.30966142 0.0031419075 0.7003907 4278190080
-0.30861151 0.0037925041 0.70078176 4278190080
-0.30749479 0.0033522211 0.70117438 4278190080
-0.3063781 0.0029119486 0.70156705 4278190080
-0.30526137 0.0024716656 0.70195967 4278190080
-0.30414465 0.0020313829 0.70235229 4278190080
-0.30079457 0.00071055494 0.70353019 4278190080
-0.29173443 -0.006055152 0.70665002 4278190080
-0.29062232 -0.0064936168 0.70704103 4278190080
-0.28289738 -0.007410212 0.7098009 4278190080
-0.27950147 -0.010878181 0.71095109 4278190080
-0.27727729 -0.011755089 0.7117331 4278190080
-0.27620637 -0.010048231 0.71215349 4278190080
-0.27509123 -0.010487901 0.71254557 4278190080
-0.27397606 -0.010927571 0.71293765 4278190080
-0.27286088 -0.011367241 0.71332973 4278190080
-0.27174574 -0.011806911 0.71372181 4278190080
-0.27063054 -0.012246591 0.71411395 4278190080
-0.26728505 -0.013565601 0.71529019 4278190080
-0.26616988 -0.014005271 0.71568227 4278190080
-0.26505989 -0.013378362 0.71609449 4278190080
-0.2639432 -0.013818635 0.71648711 4278190080
-0.25055751 -0.020160671 0.72117156 4278190080
-0.24944235 -0.020600341 0.7215637 4278190080
-0.24830927 -0.019982537 0.72198397 4278190080
-0.24495916 -0.021303367 0.72316188 4278190080
-0.24160904 -0.022624204 0.72433978 4278190080
-0.23379207 -0.025706159 0.72708821 4278190080
-0.23267537 -0.026146431 0.72748083 4278190080
-0.2314766 -0.024489917 0.72794616 4278190080
-0.23035684 -0.024931399 0.72833985 4278190080
-0.22923703 -0.025372898 0.72873354 4278190080
-0.22811724 -0.02581439 0.72912729 4278190080
-0.22699748 -0.026255878 0.72952098 4278190080
-0.22587767 -0.026697377 0.72991472 4278190080
-0.22475788 -0.02713887 0.73030841 4278190080
-0.22363809 -0.027580364 0.73070216 4278190080
-0.22251831 -0.028021852 0.73109585 4278190080
-0.22139852 -0.028463351 0.7314896 4278190080
-0.22027873 -0.028904844 0.73188329 4278190080
-0.21915895 -0.029346332 0.73227704 4278190080
-0.21467978 -0.03111231 0.73385191 4278190080
-0.21356 -0.031553797 0.7342456 4278190080
-0.21020064 -0.032878276 0.73542672 4278190080
-0.20908085 -0.033319771 0.73582047 4278190080
-0.20796105 -0.033761263 0.73621416 4278190080
-0.20684126 -0.034202758 0.73660791 4278190080
-0.20252423 -0.038033955 0.73808193 4278190080
-0.20124231 -0.036410224 0.73857647 4278190080
-0.20012254 -0.036851715 0.73897022 4278190080
-0.19900274 -0.037293211 0.73936391 4278190080
-0.19788295 -0.037734702 0.73975766 4278190080
-0.19676317 -0.03817619 0.74015135 4278190080
-0.19555306 -0.037588753 0.74059874 4278190080
-0.19443174 -0.038030852 0.74099296 4278190080
-0.19331042 -0.03847295 0.74138725 4278190080
-0.19218908 -0.038915057 0.74178147 4278190080
-0.19106776 -0.039357152 0.74217576 4278190080
-0.18994641 -0.039799258 0.74257004 4278190080
-0.18862599 -0.038190771 0.74307811 4278190080
-0.18750159 -0.038634084 0.74347341 4278190080
-0.18627456 -0.038053319 0.74392676 4278190080
-0.1851486 -0.038497243 0.74432266 4278190080
-0.18381123 -0.036895376 0.74483669 4278190080
-0.18268219 -0.037340518 0.74523365 4278190080
-0.18155318 -0.037785646 0.74563062 4278190080
-0.18020348 -0.036188703 0.74614894 4278190080
-0.17895949 -0.035614558 0.74660826 4278190080
-0.17782584 -0.036061514 0.74700683 4278190080
-0.17669217 -0.036508478 0.74740547 4278190080
-0.17555854 -0.036955431 0.74780405 4278190080
-0.17442487 -0.037402395 0.74820262 4278190080
-0.17329124 -0.037849348 0.7486012 4278190080
-0.17215759 -0.038296312 0.74899983 4278190080
-0.17077863 -0.036710899 0.74952847 4278190080
-0.16964191 -0.03715907 0.74992812 4278190080
-0.16850516 -0.037607249 0.75032783 4278190080
-0.16724117 -0.037041053 0.75079411 4278190080
-0.16584526 -0.035462268 0.75132877 4278190080
-0.16470391 -0.03591226 0.75173002 4278190080
-0.16382635 -0.038387399 0.75199479 4278190080
-0.32553548 0.0070362305 0.69609696 4278190080
-0.3244234 0.0065977764 0.69648796 4278190080
-0.3233113 0.0061593219 0.69687897 4278190080
-0.32219923 0.0057208678 0.69726998 4278190080
-0.32108715 0.0052824132 0.69766098 4278190080
-0.31767267 0.0028719313 0.69883776 4278190080
-0.31545159 0.001996238 0.69961864 4278190080
-0.31434104 0.0015583863 0.70000911 4278190080
-0.31323048 0.0011205345 0.70039958 4278190080
-0.31211996 0.00068269315 0.70079005 4278190080
-0.31107837 0.0013363033 0.70118004 4278190080
-0.30898595 0.0026397652 0.70196325 4278190080
-0.30787078 0.0022000952 0.70235533 4278190080
-0.3067556 0.0017604254 0.7027474 4278190080
-0.30564043 0.0013207451 0.70313954 4278190080
-0.30452526 0.00088107516 0.70353162 4278190080
-0.30341005 0.00044139486 0.7039237 4278190080
-0.29324064 -0.0067607556 0.70742804 4278190080
-0.29213011 -0.0071985968 0.70781845 4278190080
-0.28879845 -0.0085121524 0.70898986 4278190080
-0.27993992 -0.010940481 0.71212828 4278190080
-0.27771577 -0.011817389 0.71291029 4278190080
-0.27660364 -0.012255854 0.7133013 4278190080
-0.2755309 -0.010550373 0.71372598 4278190080
-0.27218542 -0.011869383 0.71490228 4278190080
-0.27107021 -0.012309064 0.71529436 4278190080
-0.26995504 -0.012748734 0.71568644 4278190080
-0.2688399 -0.013188403 0.71607858 4278190080
-0.26659486 -0.016201964 0.71682042 4278190080
-0.26549438 -0.014507413 0.71725482 4278190080
-0.2643792 -0.014947094 0.7176469 4278190080
-0.25992423 -0.019896235 0.71914202 4278190080
-0.25437152 -0.022085473 0.72109437 4278190080
-0.25102565 -0.022340355 0.72229451 4278190080
-0.24988203 -0.020662813 0.72274411 4278190080
-0.24876685 -0.021102488 0.72313619 4278190080
-0.24542136 -0.022421498 0.72431248 4278190080
-0.24319103 -0.023300838 0.72509664 4278190080
-0.24207586 -0.023740508 0.72548872 4278190080
-0.23199892 -0.026649272 0.72905552 4278190080
-0.23088223 -0.027089546 0.7294482 4278190080
-0.22976552 -0.027529828 0.72984082 4278190080
-0.2286488 -0.027970111 0.73023343 4278190080
-0.2275321 -0.028410384 0.73062605 4278190080
-0.22631916 -0.026760109 0.73110002 4278190080
-0.22529867 -0.029290944 0.73141134 4278190080
-0.22418196 -0.029731221 0.73180395 4278190080
-0.22083186 -0.031052055 0.73298186 4278190080
-0.2130149 -0.034134004 0.73573029 4278190080
-0.21189819 -0.034574281 0.73612297 4278190080
-0.21078148 -0.035014559 0.73651558 4278190080
-0.20966478 -0.035454836 0.7369082 4278190080
-0.20854805 -0.03589512 0.73730087 4278190080
-0.20631465 -0.036775675 0.7380861 4278190080
-0.20519795 -0.037215952 0.73847872 4278190080
-0.20296451 -0.038096514 0.73926401 4278190080
-0.20184781 -0.038536791 0.73965663 4278190080
-0.2007311 -0.038977068 0.7400493 4278190080
-0.19961439 -0.039417345 0.74044192 4278190080
-0.1984977 -0.039857626 0.74083453 4278190080
-0.19738099 -0.040297903 0.74122715 4278190080
-0.19608487 -0.038680419 0.74173039 4278190080
-0.19496508 -0.039121915 0.74212408 4278190080
-0.1938453 -0.039563403 0.74251783 4278190080
-0.19263119 -0.038977873 0.74296844 4278190080
-0.19150986 -0.039419968 0.74336272 4278190080
-0.19038852 -0.039862074 0.74375695 4278190080
-0.18906932 -0.038253762 0.7442683 4278190080
-0.1879449 -0.038697071 0.74466366 4278190080
-0.18671848 -0.038116395 0.74511862 4278190080
-0.18559252 -0.03856032 0.74551451 4278190080
-0.18425636 -0.036958624 0.74603176 4278190080
-0.18312733 -0.037403766 0.74642873 4278190080
-0.18199831 -0.037848894 0.7468257 4278190080
-0.18086928 -0.038294036 0.74722266 4278190080
-0.17940645 -0.035678066 0.74780828 4278190080
-0.1782728 -0.036125023 0.74820685 4278190080
-0.17691046 -0.034533717 0.74873334 4278190080
-0.17577372 -0.034981892 0.74913305 4278190080
-0.174637 -0.035430059 0.7495327 4278190080
-0.1737382 -0.037912857 0.74980122 4278190080
-0.17260453 -0.038359821 0.75019979 4278190080
-0.1712268 -0.036774579 0.75073171 4278190080
-0.17009008 -0.03722275 0.75113142 4278190080
-0.16895333 -0.037670929 0.75153106 4278190080
-0.16768995 -0.037104823 0.75199902 4278190080
-0.32699493 0.0063125212 0.69688952 4278190080
-0.32588434 0.0058746594 0.69727999 4278190080
-0.32486185 0.0065354765 0.6976651 4278190080
-0.32374978 0.006097022 0.6980561 4278190080
-0.32263768 0.0056585674 0.69844711 4278190080
-0.3215256 0.0052201133 0.69883811 4278190080
-0.32033163 0.0036854211 0.69923234 4278190080
-0.31795293 0.00061980548 0.70001751 4278190080
-0.31684548 0.00018316925 0.70040691 4278190080
-0.31144723 0.00018261746 0.7023561 4278190080
-0.30929264 0.00039709467 0.70313925 4278190080
-0.30831045 0.0021376228 0.7035358 4278190080
-0.30719528 0.001697953 0.70392787 4278190080
-0.30034178 -0.004195869 0.70626074 4278190080
-0.29701012 -0.0055094245 0.70743215 4278190080
-0.2958996 -0.0059472658 0.70782262 4278190080
-0.29367849 -0.0068229693 0.70860356 4278190080
-0.29256797 -0.0072608106 0.70899403 4278190080
-0.29145741 -0.0076986621 0.7093845 4278190080
-0.29034686 -0.0081365136 0.70977497 4278190080
-0.28923631 -0.0085743656 0.71016544 4278190080
-0.28812578 -0.0090122074 0.71055591 4278190080
-0.28371465 -0.0096874069 0.71213245 4278190080
-0.28035197 -0.012077149 0.71328914 4278190080
-0.27815422 -0.011879689 0.71408749 4278190080
-0.27704212 -0.012318154 0.71447849 4278190080
-0.27593002 -0.012756608 0.7148695 4278190080
-0.27481794 -0.013195063 0.71526051 4278190080
-0.27370587 -0.013633518 0.71565151 4278190080
-0.2725938 -0.014071971 0.71604252 4278190080
-0.27148166 -0.014510436 0.71643353 4278190080
-0.27036959 -0.014948891 0.71682453 4278190080
-0.26591486 -0.017769191 0.71836525 4278190080
-0.26480427 -0.018207053 0.71875572 4278190080
-0.26369375 -0.018644894 0.71914619 4278190080
-0.2625832 -0.019082746 0.71953666 4278190080
-0.26147264 -0.019520598 0.71992713 4278190080
-0.26036209 -0.01995845 0.72031754 4278190080
-0.25814101 -0.020834142 0.72109848 4278190080
-0.25703046 -0.021271994 0.72148895 4278190080
-0.25591993 -0.021709835 0.72187942 4278190080
-0.25480938 -0.022147687 0.72226989 4278190080
-0.25369883 -0.022585539 0.72266036 4278190080
-0.24701576 -0.024156479 0.72503573 4278190080
-0.24590367 -0.024594938 0.72542673 4278190080
-0.24479158 -0.025033392 0.72581774 4278190080
-0.24363071 -0.023363311 0.72627711 4278190080
-0.24251553 -0.023802979 0.72666919 4278190080
-0.24140036 -0.024242654 0.72706127 4278190080
-0.23247902 -0.027760025 0.73019803 4278190080
-0.23136385 -0.028199695 0.73059011 4278190080
-0.23024867 -0.028639369 0.73098218 4278190080
-0.22913352 -0.029079039 0.73137426 4278190080
-0.22801834 -0.029518709 0.7317664 4278190080
-0.22685567 -0.028913224 0.7322008 4278190080
-0.22573896 -0.029353503 0.73259342 4278190080
-0.21463633 -0.034794763 0.73647147 4278190080
-0.21352117 -0.035234433 0.73686355 4278190080
-0.21240599 -0.035674103 0.73725569 4278190080
-0.21010506 -0.035517395 0.73809028 4278190080
-0.20898834 -0.035957679 0.73848289 4278190080
-0.20683016 -0.037872463 0.73921615 4278190080
-0.20571499 -0.038312133 0.73960823 4278190080
-0.20459983 -0.038751803 0.74000031 4278190080
-0.20348465 -0.039191473 0.74039239 4278190080
-0.20228809 -0.03859935 0.74083871 4278190080
-0.20125432 -0.040070817 0.74117661 4278190080
-0.20013914 -0.040510494 0.74156868 4278190080
-0.19893797 -0.039920185 0.74201661 4278190080
-0.19782126 -0.040360462 0.74240923 4278190080
-0.19652636 -0.038743153 0.74291575 4278190080
-0.19540657 -0.039184645 0.74330944 4278190080
-0.19428679 -0.039626133 0.74370313 4278190080
-0.19307327 -0.039040692 0.74415541 4278190080
-0.19195196 -0.039482787 0.74454969 4278190080
-0.19083062 -0.039924894 0.74494392 4278190080
-0.18951263 -0.038316753 0.74545854 4278190080
-0.18838823 -0.038760062 0.74585384 4278190080
-0.1871624 -0.038179472 0.74631047 4278190080
-0.18603645 -0.038623396 0.74670637 4278190080
-0.1847015 -0.037021875 0.74722689 4278190080
-0.18357246 -0.037467014 0.74762386 4278190080
-0.18244345 -0.037912145 0.74802083 4278190080
-0.18131441 -0.038357284 0.74841779 4278190080
-0.17985341 -0.035741575 0.7490083 4278190080
-0.3206045 0.0014310369 0.70041102 4278190080
-0.31949705 0.00099440059 0.70080042 4278190080
-0.31838956 0.00055776443 0.70118982 4278190080
-0.3149924 -0.0018451854 0.70235682 4278190080
-0.31278053 -0.0027172423 0.70313448 4278190080
-0.31174478 -0.0020620425 0.70352608 4278190080
-0.31077456 -0.00031743757 0.70392209 4278190080
-0.30966401 -0.00075528934 0.70431256 4278190080
-0.30855346 -0.0011931411 0.70470303 4278190080
-0.30750692 -0.00054212421 0.70509845 4278190080
-0.30639485 -0.0009805786 0.70548946 4278190080
-0.30411127 -0.0029445377 0.70626491 4278190080
-0.30300075 -0.0033823792 0.70665538 4278190080
-0.30189019 -0.003820231 0.70704585 4278190080
-0.30077964 -0.0042580827 0.70743632 4278190080
-0.29966909 -0.0046959342 0.70782679 4278190080
-0.29855856 -0.005133776 0.7082172 4278190080
-0.29624024 -0.0081749288 0.70897746 4278190080
-0.29513279 -0.0086115645 0.70936686 4278190080
-0.29411635 -0.006885183 0.70977908 4278190080
-0.29300582 -0.0073230243 0.71016955 4278190080
-0.29189527 -0.0077608759 0.71056002 4278190080
-0.29078472 -0.0081987279 0.71095049 4278190080
-0.28967416 -0.0086365798 0.71134096 4278190080
-0.28856364 -0.0090744207 0.71173143 4278190080
-0.28745309 -0.0095122727 0.7121219 4278190080
-0.28634253 -0.0099501247 0.71251237 4278190080
-0.28523198 -0.010387976 0.71290284 4278190080
-0.28412145 -0.010825817 0.71329331 4278190080
-0.28301087 -0.01126368 0.71368378 4278190080
-0.28190035 -0.011701521 0.71407425 4278190080
-0.28078982 -0.012139362 0.71446472 4278190080
-0.27856871 -0.013015066 0.71524566 4278190080
-0.27745816 -0.013452917 0.71563613 4278190080
-0.27634761 -0.013890769 0.7160266 4278190080
-0.27523705 -0.014328621 0.71641707 4278190080
-0.27412653 -0.014766462 0.71680748 4278190080
-0.26968434 -0.016517859 0.71836936 4278190080
-0.26744613 -0.019527428 0.71910143 4278190080
-0.26633865 -0.019964075 0.71949083 4278190080
-0.2619088 -0.021710608 0.72104836 4278190080
-0.26080132 -0.022147246 0.72143775 4278190080
-0.25969389 -0.02258387 0.72182715 4278190080
-0.25857887 -0.020896357 0.72227407 4278190080
-0.25746831 -0.021334209 0.72266454 4278190080
-0.25637147 -0.023893779 0.72299528 4278190080
-0.25413668 -0.022647753 0.72383595 4278190080
-0.25302613 -0.023085605 0.72422642 4278190080
-0.2519156 -0.023523446 0.72461683 4278190080
-0.25080502 -0.023961304 0.7250073 4278190080
-0.24969448 -0.02439915 0.72539777 4278190080
-0.24858393 -0.024837 0.72578824 4278190080
-0.24747339 -0.025274849 0.72617871 4278190080
-0.24634212 -0.024657238 0.72660393 4278190080
-0.24523005 -0.025095692 0.72699493 4278190080
-0.24189378 -0.02641106 0.72816795 4278190080
-0.22743665 -0.032110997 0.73325104 4278190080
-0.22632456 -0.032549459 0.73364204 4278190080
-0.22193082 -0.035345383 0.73515946 4278190080
-0.22082026 -0.035783231 0.73554993 4278190080
-0.21853994 -0.035618655 0.73637915 4278190080
-0.21061534 -0.036615923 0.73922032 4278190080
-0.20950015 -0.037055597 0.7396124 4278190080
-0.20838499 -0.037495267 0.74000448 4278190080
-0.20726982 -0.037934937 0.74039656 4278190080
-0.20615466 -0.038374607 0.74078864 4278190080
-0.2050395 -0.038814276 0.74118078 4278190080
-0.20392433 -0.039253946 0.74157286 4278190080
-0.20280917 -0.039693616 0.74196494 4278190080
-0.20169398 -0.04013329 0.74235702 4278190080
-0.20057881 -0.040572967 0.74274909 4278190080
-0.19946365 -0.041012637 0.74314123 4278190080
-0.19834848 -0.041452307 0.74353331 4278190080
-0.19714484 -0.040863298 0.74398392 4278190080
-0.19602813 -0.041303575 0.7443766 4278190080
-0.19472829 -0.039688867 0.74488848 4278190080
-0.19360849 -0.040130362 0.74528217 4278190080
-0.19239406 -0.039545603 0.7457366 4278190080
-0.19127272 -0.039987709 0.74613088 4278190080
-0.18985823 -0.037354704 0.74671054 4278190080
-0.18873227 -0.037798628 0.74710643 4278190080
-0.18760632 -0.038242549 0.74750233 4278190080
-0.18627568 -0.036639985 0.74802506 4278190080
-0.18514664 -0.037085123 0.74842203 4278190080
-0.1840176 -0.037530262 0.74881899 4278190080
-0.18288858 -0.037975393 0.74921596 4278190080
-0.31874621 -0.00059905997 0.70236093 4278190080
-0.31764027 -0.0010350832 0.70274973 4278190080
-0.31653434 -0.0014711168 0.70313859 4278190080
-0.31542844 -0.00190714 0.70352745 4278190080
-0.3143225 -0.0023431634 0.70391631 4278190080
-0.31321657 -0.0027791969 0.70430511 4278190080
-0.31218141 -0.0021240832 0.70469838 4278190080
-0.31121242 -0.00037965112 0.70509762 4278190080
-0.31010187 -0.00081750291 0.70548809 4278190080
-0.30788079 -0.001693196 0.70626903 4278190080
-0.30677024 -0.0021310479 0.7066595 4278190080
-0.30565968 -0.0025688997 0.70704997 4278190080
-0.30454913 -0.0030067514 0.70744044 4278190080
-0.3034386 -0.0034445927 0.70783091 4278190080
-0.30232805 -0.0038824445 0.70822138 4278190080
-0.30110675 -0.006490435 0.70859224 4278190080
-0.2999993 -0.0069270609 0.70898157 4278190080
-0.29889181 -0.0073637073 0.70937097 4278190080
-0.29778436 -0.0078003332 0.70976037 4278190080
-0.29667687 -0.0082369689 0.71014977 4278190080
-0.29556942 -0.0086736055 0.71053916 4278190080
-0.29446194 -0.0091102421 0.7109285 4278190080
-0.29335448 -0.0095468778 0.7113179 4278190080
-0.292247 -0.0099835144 0.71170729 4278190080
-0.29113957 -0.01042014 0.71209669 4278190080
-0.29003206 -0.010856787 0.71248609 4278190080
-0.28900149 -0.0091366349 0.71290696 4278190080
-0.28789094 -0.0095744859 0.71329743 4278190080
-0.28678039 -0.010012338 0.7136879 4278190080
-0.28566983 -0.01045019 0.71407837 4278190080
-0.28455931 -0.010888031 0.71446884 4278190080
-0.28344873 -0.011325893 0.71485931 4278190080
-0.2823382 -0.011763735 0.71524978 4278190080
-0.28122765 -0.012201576 0.71564025 4278190080
-0.28011709 -0.012639438 0.71603072 4278190080
-0.27895743 -0.015223128 0.71637988 4278190080
-0.27784994 -0.015659764 0.71676928 4278190080
-0.27342007 -0.017406309 0.71832681 4278190080
-0.27120516 -0.018279571 0.7191056 4278190080
-0.27009767 -0.018716207 0.71949494 4278190080
-0.26899022 -0.019152842 0.71988434 4278190080
-0.26345289 -0.021336013 0.72183126 4278190080
-0.26234543 -0.021772649 0.72222066 4278190080
-0.26123795 -0.022209287 0.72261006 4278190080
-0.26013052 -0.022645911 0.72299939 4278190080
-0.25902301 -0.023082558 0.72338879 4278190080
-0.25791556 -0.023519184 0.72377819 4278190080
-0.2568081 -0.02395582 0.72416759 4278190080
-0.25348571 -0.025265718 0.72533572 4278190080
-0.25237823 -0.025702365 0.72572511 4278190080
-0.24794838 -0.027448894 0.72728264 4278190080
-0.24569015 -0.026212759 0.72813517 4278190080
-0.24457958 -0.026650617 0.7285257 4278190080
-0.24233225 -0.02647336 0.72934514 4278190080
-0.23899597 -0.027788734 0.73051816 4278190080
-0.2378839 -0.028227188 0.73090917 4278190080
-0.23677179 -0.028665649 0.73130018 4278190080
-0.23125304 -0.031904802 0.73321128 4278190080
-0.2279214 -0.03321835 0.73438269 4278190080
-0.22236866 -0.035407595 0.73633498 4278190080
-0.22125812 -0.035845447 0.73672545 4278190080
-0.21459483 -0.038472548 0.73906827 4278190080
-0.21348427 -0.038910393 0.73945874 4278190080
-0.21237373 -0.039348245 0.73984921 4278190080
-0.20896962 -0.039627064 0.7410754 4278190080
-0.20785753 -0.04006552 0.7414664 4278190080
-0.20674545 -0.040503979 0.74185741 4278190080
-0.20563336 -0.04094243 0.74224842 4278190080
-0.20452127 -0.04138089 0.74263942 4278190080
-0.20340918 -0.041819345 0.74303043 4278190080
-0.20229709 -0.042257804 0.74342144 4278190080
-0.201185 -0.04269626 0.74381244 4278190080
-0.20007291 -0.043134719 0.74420345 4278190080
-0.19896083 -0.043573175 0.74459445 4278190080
-0.19767299 -0.041954447 0.7451058 4278190080
-0.19655782 -0.042394117 0.74549794 4278190080
-0.1953517 -0.041806411 0.74595129 4278190080
-0.19423498 -0.042246696 0.74634391 4278190080
-0.19283617 -0.039608423 0.74692357 4278190080
-0.19171482 -0.040050529 0.74731785 4278190080
-0.19030215 -0.037417781 0.74790239 4278190080
-0.18917619 -0.037861705 0.74829829 4278190080
-0.18784983 -0.036258098 0.74882317 4278190080
-0.18672082 -0.036703233 0.74922013 4278190080
-0.18559177 -0.037148371 0.7496171 4278190080
-0.18446274 -0.037593514 0.75001407 4278190080
-0.31918222 -0.00066101475 0.70353156 4278190080
-0.31807631 -0.0010970379 0.70392042 4278190080
-0.31475854 -0.002405118 0.70508695 4278190080
-0.3136526 -0.0028411516 0.70547581 4278190080
-0.31261805 -0.0021861242 0.70587069 4278190080
-0.31151059 -0.0026227606 0.70626003 4278190080
-0.31053969 -0.00087971642 0.70666367 4278190080
-0.30942914 -0.0013175682 0.70705414 4278190080
-0.30831861 -0.0017554095 0.70744461 4278190080
-0.30720806 -0.0021932614 0.70783508 4278190080
-0.30609751 -0.0026311132 0.70822555 4278190080
-0.30498695 -0.0030689649 0.70861602 4278190080
-0.30375832 -0.0056792037 0.70898575 4278190080
-0.30265087 -0.0061158296 0.70937508 4278190080
-0.30154338 -0.006552476 0.70976448 4278190080
-0.30043593 -0.0069891019 0.71015388 4278190080
-0.29927558 -0.0085095055 0.71053076 4278190080
-0.29816961 -0.0089455396 0.71091956 4278190080
-0.29711351 -0.0082990108 0.71132201 4278190080
-0.29600605 -0.0087356465 0.71171141 4278190080
-0.29489857 -0.0091722831 0.7121008 4278190080
-0.29379112 -0.0096089188 0.7124902 4278190080
-0.29268363 -0.010045555 0.7128796 4278190080
-0.29157621 -0.010482181 0.71326894 4278190080
-0.29046869 -0.010918828 0.71365833 4278190080
-0.28936127 -0.011355453 0.71404773 4278190080
-0.28825378 -0.01179209 0.71443713 4278190080
-0.28714633 -0.012228725 0.71482646 4278190080
-0.28603888 -0.012665352 0.71521586 4278190080
-0.28493139 -0.013101998 0.71560526 4278190080
-0.28382394 -0.013538624 0.71599466 4278190080
-0.28271645 -0.01397526 0.71638399 4278190080
