# .PCD v0.7 - Point Cloud Data file format
VERSION 0.7
FIELDS x y z rgba
SIZE 4 4 4 4
TYPE F F F U
COUNT 1 1 1 1
WIDTH 1070
HEIGHT 1
VIEWPOINT 0 0 0 1 0 0 0
POINTS 1070
DATA ascii
0.20924048 -0.16436233 0.85447502 4278190080
0.21067229 -0.16477488 0.85484248 4278190080
0.21210408 -0.16518743 0.85521001 4278190080
0.21353589 -0.16559999 0.85557747 4278190080
0.21496768 -0.16601254 0.85594499 4278190080
0.21639951 -0.16642509 0.85631245 4278190080
0.22678685 -0.17154455 0.85926533 4278190080
0.22821541 -0.17195617 0.85963202 4278190080
0.22964397 -0.1723678 0.85999864 4278190080
0.23107252 -0.17277941 0.86036533 4278190080
0.23250106 -0.17319103 0.86073196 4278190080
0.2339296 -0.17360264 0.86109865 4278190080
0.23535815 -0.17401426 0.86146528 4278190080
0.23821528 -0.1748375 0.86219865 4278190080
0.25678644 -0.18018854 0.86696517 4278190080
0.25821501 -0.18060017 0.86733186 4278190080
0.25964355 -0.18101178 0.86769849 4278190080
0.2610721 -0.1814234 0.86806518 4278190080
0.26250064 -0.18183501 0.86843181 4278190080
0.26392919 -0.18224663 0.86879849 4278190080
0.26535773 -0.18265824 0.86916512 4278190080
0.26847881 -0.18568407 0.87025303 4278190080
0.26990414 -0.18609476 0.87061888 4278190080
0.27442449 -0.18952373 0.8720659 4278190080
0.27407041 -0.19261146 0.87240523 4278190080
0.27548757 -0.19301979 0.872769 4278190080
0.28115627 -0.19465317 0.87422395 4278190080
0.28419775 -0.19765599 0.87529141 4278190080
0.28561163 -0.19806337 0.87565428 4278190080
0.28580895 -0.20024677 0.87599176 4278190080
0.28721964 -0.20065324 0.87635386 4278190080
0.28863034 -0.20105971 0.8767159 4278190080
0.290041 -0.20146617 0.877078 4278190080
0.29022211 -0.20364483 0.87741131 4278190080
0.29162952 -0.20405036 0.87777251 4278190080
0.29427305 -0.20268558 0.87816417 4278190080
0.29568371 -0.20309205 0.87852627 4278190080
0.29709437 -0.20349851 0.87888831 4278190080
0.29850504 -0.20390499 0.87925041 4278190080
0.30116484 -0.20254484 0.87964624 4278190080
0.30257875 -0.20295224 0.88000917 4278190080
0.30399269 -0.20335963 0.88037205 4278190080
0.30414772 -0.20553084 0.88069868 4278190080
0.30555841 -0.20593731 0.88106078 4278190080
0.30570376 -0.20810567 0.88138491 4278190080
0.30711117 -0.2085112 0.88174611 4278190080
0.30851859 -0.20891672 0.88210738 4278190080
0.309926 -0.20932226 0.88246858 4278190080
0.31133345 -0.20972779 0.88282984 4278190080
0.31274086 -0.21013331 0.88319105 4278190080
0.31414831 -0.21053885 0.88355231 4278190080
0.31684384 -0.20918906 0.88395733 4278190080
0.31954587 -0.20784108 0.88436401 4278190080
0.32095978 -0.20824848 0.88472694 4278190080
0.32237369 -0.20865589 0.88508981 4278190080
0.32378763 -0.20906329 0.88545275 4278190080
0.32520157 -0.2094707 0.88581568 4278190080
0.32792309 -0.20812841 0.88622737 4278190080
0.32934022 -0.20853673 0.88659108 4278190080
0.33075741 -0.20894508 0.88695484 4278190080
0.3321746 -0.20935343 0.88731855 4278190080
0.33359176 -0.20976175 0.88768232 4278190080
0.33500895 -0.21017011 0.88804609 4278190080
0.33642611 -0.21057844 0.88840979 4278190080
0.33784327 -0.21098678 0.8887735 4278190080
0.33926049 -0.21139513 0.88913727 4278190080
0.34067762 -0.21180347 0.88950104 4278190080
0.34209484 -0.2122118 0.88986474 4278190080
0.34351197 -0.21262014 0.89022851 4278190080
0.34492916 -0.21302848 0.89059222 4278190080
0.34634635 -0.21343683 0.89095598 4278190080
0.34776351 -0.21384516 0.89131969 4278190080
0.3491807 -0.21425352 0.89168346 4278190080
0.35059786 -0.21466185 0.89204717 4278190080
0.35201502 -0.21507019 0.89241093 4278190080
0.35343224 -0.21547854 0.8927747 4278190080
0.3548494 -0.21588686 0.89313841 4278190080
0.35626659 -0.21629521 0.89350218 4278190080
0.35768375 -0.21670355 0.89386588 4278190080
0.35772181 -0.21884099 0.89416248 4278190080
0.35913575 -0.2192484 0.89452535 4278190080
0.36054969 -0.21965581 0.89488828 4278190080
0.16873746 -0.15293013 0.84565854 4278190080
0.17160106 -0.15375523 0.84639353 4278190080
0.17303288 -0.15416779 0.84676105 4278190080
0.17446467 -0.15458034 0.84712851 4278190080
0.17589648 -0.15499291 0.84749603 4278190080
0.17637593 -0.15725698 0.8479023 4278190080
0.17780447 -0.15766859 0.84826899 4278190080
0.17923301 -0.15808021 0.84863561 4278190080
0.18305549 -0.15705568 0.84933347 4278190080
0.18351868 -0.15931506 0.84973562 4278190080
0.18494722 -0.15972668 0.85010225 4278190080
0.1873509 -0.15829334 0.85043597 4278190080
0.1902145 -0.15911846 0.85117096 4278190080
0.19164629 -0.15953101 0.85153848 4278190080
0.19307812 -0.15994357 0.85190594 4278190080
0.19351853 -0.1621964 0.85230225 4278190080
0.19780418 -0.16343126 0.8534022 4278190080
0.19923274 -0.16384287 0.85376889 4278190080
0.2006613 -0.16425449 0.85413551 4278190080
0.20208985 -0.16466612 0.8545022 4278190080
0.20351839 -0.16507773 0.85486883 4278190080
0.20637551 -0.16590096 0.85560215 4278190080
0.20780405 -0.16631259 0.85596883 4278190080
0.2092326 -0.16672421 0.85633546 4278190080
0.21066116 -0.16713582 0.85670215 4278190080
0.21818258 -0.17142901 0.85891587 4278190080
0.21960787 -0.17183968 0.85928166 4278190080
0.2310103 -0.17512515 0.86220825 4278190080
0.2324356 -0.17553583 0.8625741 4278190080
0.23956209 -0.17758924 0.86440325 4278190080
0.24923207 -0.17824952 0.86660194 4278190080
0.25381511 -0.18169606 0.86806148 4278190080
0.25524041 -0.18210675 0.86842728 4278190080
0.25552809 -0.18431556 0.86878437 4278190080
0.26236692 -0.18416016 0.87025642 4278190080
0.26379222 -0.18457083 0.87062228 4278190080
0.26521751 -0.18498151 0.87098807 4278190080
0.26832655 -0.18800327 0.8720693 4278190080
0.2697486 -0.18841301 0.87243426 4278190080
0.27117065 -0.18882276 0.87279928 4278190080
0.27259269 -0.1892325 0.87316424 4278190080
0.27401477 -0.18964225 0.87352926 4278190080
0.27507925 -0.19313793 0.87422734 4278190080
0.27933073 -0.19436294 0.87531853 4278190080
0.28074795 -0.19477129 0.87568229 4278190080
0.28216511 -0.19517963 0.876046 4278190080
0.28237641 -0.19736645 0.87638348 4278190080
0.28379032 -0.19777384 0.87674642 4278190080
0.28399181 -0.19995789 0.87708133 4278190080
0.28540251 -0.20036435 0.87744337 4278190080
0.28681317 -0.20077083 0.87780547 4278190080
0.28700173 -0.20295107 0.87813711 4278190080
0.28840914 -0.20335661 0.87849832 4278190080
0.28981659 -0.20376214 0.87885958 4278190080
0.291224 -0.20416768 0.87922084 4278190080
0.29386657 -0.20280316 0.87961584 4278190080
0.29527724 -0.20320964 0.87997788 4278190080
0.2966879 -0.2036161 0.88033998 4278190080
0.29809856 -0.20402257 0.88070202 4278190080
0.29950926 -0.20442903 0.88106412 4278190080
0.30091992 -0.2048355 0.88142616 4278190080
0.30233058 -0.20524196 0.88178825 4278190080
0.30374125 -0.20564842 0.88215035 4278190080
0.30515194 -0.2060549 0.88251239 4278190080
0.30529824 -0.20822299 0.88283318 4278190080
0.30670565 -0.20862851 0.88319445 4278190080
0.30811307 -0.20903404 0.88355565 4278190080
0.30952048 -0.20943958 0.88391691 4278190080
0.31092793 -0.20984511 0.88427812 4278190080
0.31233534 -0.21025063 0.88463938 4278190080
0.31374276 -0.21065617 0.88500059 4278190080
0.31643736 -0.20930664 0.885409 4278190080
0.31913844 -0.20795894 0.88581902 4278190080
0.32055238 -0.20836635 0.88618195 4278190080
0.32196629 -0.20877375 0.88654482 4278190080
0.32338023 -0.20918116 0.88690776 4278190080
0.32479417 -0.20958856 0.88727063 4278190080
0.32751474 -0.20824653 0.88768572 4278190080
0.3289319 -0.20865487 0.88804942 4278190080
0.33034906 -0.2090632 0.88841319 4278190080
0.33176625 -0.20947155 0.8887769 4278190080
0.33318341 -0.20987989 0.88914067 4278190080
0.33460063 -0.21028824 0.88950437 4278190080
0.33601776 -0.21069656 0.88986814 4278190080
0.33743495 -0.21110491 0.89023185 4278190080
0.33885214 -0.21151325 0.89059561 4278190080
0.3402693 -0.21192159 0.89095932 4278190080
0.34168649 -0.21232994 0.89132309 4278190080
0.34310365 -0.21273828 0.8916868 4278190080
0.34452081 -0.21314661 0.89205056 4278190080
0.34593803 -0.21355496 0.89241433 4278190080
0.34735516 -0.21396329 0.89277804 4278190080
0.34877238 -0.21437164 0.89314181 4278190080
0.35018951 -0.21477997 0.89350551 4278190080
0.3516067 -0.21518831 0.89386928 4278190080
0.35302389 -0.21559666 0.89423299 4278190080
0.35444105 -0.216005 0.89459676 4278190080
0.35585824 -0.21641335 0.89496046 4278190080
0.3572754 -0.21682167 0.89532423 4278190080
0.35869256 -0.21723002 0.89568794 4278190080
0.35872832 -0.21936625 0.89598036 4278190080
0.36014229 -0.21977367 0.89634329 4278190080
0.167393 -0.15490635 0.84717238 4278190080
0.16882154 -0.15531796 0.84753907 4278190080
0.17025009 -0.15572958 0.8479057 4278190080
0.17167865 -0.15614119 0.84827238 4278190080
0.17310719 -0.15655282 0.84863901 4278190080
0.17453575 -0.15696444 0.8490057 4278190080
0.17596431 -0.15737605 0.84937233 4278190080
0.17739286 -0.15778767 0.84973902 4278190080
0.1788214 -0.1581993 0.85010564 4278190080
0.18024994 -0.15861091 0.85047233 4278190080
0.1816785 -0.15902252 0.85083902 4278190080
0.18310706 -0.15943414 0.85120565 4278190080
0.18453561 -0.15984575 0.85157233 4278190080
0.18596417 -0.16025738 0.85193896 4278190080
0.18739271 -0.160669 0.85230565 4278190080
0.18882126 -0.16108061 0.85267228 4278190080
0.1902498 -0.16149223 0.85303897 4278190080
0.19167838 -0.16190386 0.85340559 4278190080
0.19310692 -0.16231547 0.85377228 4278190080
0.19453546 -0.16272709 0.85413891 4278190080
0.19596402 -0.16313872 0.8545056 4278190080
0.19739257 -0.16355033 0.85487223 4278190080
0.19781768 -0.16579828 0.85526103 4278190080
0.19924298 -0.16620895 0.85562682 4278190080
0.20066828 -0.16661963 0.85599267 4278190080
0.20209357 -0.16703032 0.85635847 4278190080
0.20636949 -0.16826236 0.85745597 4278190080
0.20779479 -0.16867304 0.85782176 4278190080
0.21207067 -0.16990508 0.85891926 4278190080
0.21349598 -0.17031577 0.85928512 4278190080
0.21492128 -0.17072645 0.85965091 4278190080
0.21634659 -0.17113714 0.86001676 4278190080
0.2177719 -0.17154782 0.86038256 4278190080
0.2191972 -0.17195849 0.86074841 4278190080
0.23094347 -0.17746842 0.86404288 4278190080
0.25796247 -0.18525359 0.8709777 4278190080
0.25938448 -0.18566333 0.87134272 4278190080
0.26080653 -0.18607308 0.87170768 4278190080
0.26049915 -0.18917266 0.87204826 4278190080
0.26191631 -0.18958099 0.87241203 4278190080
0.26507267 -0.18730231 0.87280267 4278190080
0.26649475 -0.18771206 0.87316763 4278190080
0.2679168 -0.18812181 0.87353265 4278190080
0.26933885 -0.18853155 0.87389761 4278190080
0.27325374 -0.19284771 0.87532192 4278190080
0.2746709 -0.19325605 0.87568569 4278190080
0.27608809 -0.1936644 0.8760494 4278190080
0.27750525 -0.19407274 0.87641317 4278190080
0.27892241 -0.19448107 0.87677687 4278190080
0.27914113 -0.19666947 0.87711263 4278190080
0.28055507 -0.19707689 0.87747556 4278190080
0.28196901 -0.1974843 0.87783849 4278190080
0.28338292 -0.1978917 0.87820137 4278190080
0.28358537 -0.20007548 0.87853301 4278190080
0.28499603 -0.20048194 0.87889504 4278190080
0.2864067 -0.20088841 0.87925714 4278190080
0.28659618 -0.20306839 0.87958539 4278190080
0.28800359 -0.20347393 0.87994665 4278190080
0.28941104 -0.20387946 0.88030785 4278190080
0.29081845 -0.20428498 0.88066912 4278190080
0.2934601 -0.20292075 0.88106751 4278190080
0.29487076 -0.20332722 0.88142955 4278190080
0.29628143 -0.20373368 0.88179165 4278190080
0.29769212 -0.20414016 0.88215369 4278190080
0.29910278 -0.20454662 0.88251579 4278190080
0.30051345 -0.20495309 0.88287783 4278190080
0.30192411 -0.20535955 0.88323992 4278190080
0.30333477 -0.20576602 0.88360196 4278190080
0.3047455 -0.2061725 0.88396406 4278190080
0.30489272 -0.2083403 0.88428146 4278190080
0.30630013 -0.20874582 0.88464272 4278190080
0.30770755 -0.20915136 0.88500392 4278190080
0.30911496 -0.20955688 0.88536519 4278190080
0.31052241 -0.20996243 0.88572639 4278190080
0.31192982 -0.21036795 0.88608766 4278190080
0.3146202 -0.20901775 0.88649857 4278190080
0.31603089 -0.20942423 0.88686061 4278190080
0.31744155 -0.2098307 0.88722271 4278190080
0.31885225 -0.21023716 0.88758475 4278190080
0.32026291 -0.21064363 0.88794684 4278190080
0.3229728 -0.20929901 0.88836271 4278190080
0.32438678 -0.20970643 0.88872564 4278190080
0.32580066 -0.21011381 0.88908851 4278190080
0.3272146 -0.21052122 0.88945144 4278190080
0.32994071 -0.20918134 0.88987148 4278190080
0.33135793 -0.20958968 0.89023525 4278190080
0.33277506 -0.20999801 0.89059895 4278190080
0.33419228 -0.21040636 0.89096272 4278190080
0.33560941 -0.2108147 0.89132649 4278190080
0.3370266 -0.21122304 0.89169019 4278190080
0.33844379 -0.21163139 0.89205396 4278190080
0.33986095 -0.21203972 0.89241767 4278190080
0.34127814 -0.21244806 0.89278144 4278190080
0.3426953 -0.2128564 0.89314514 4278190080
0.34411249 -0.21326473 0.89350891 4278190080
0.34552968 -0.21367308 0.89387262 4278190080
0.34694684 -0.21408142 0.89423639 4278190080
0.34836403 -0.21448977 0.89460009 4278190080
0.34978119 -0.21489809 0.89496386 4278190080
0.35119835 -0.21530645 0.89532757 4278190080
0.35261557 -0.2157148 0.89569134 4278190080
0.3540327 -0.21612312 0.8960551 4278190080
0.35544991 -0.21653147 0.89641881 4278190080
0.35686705 -0.21693981 0.89678258 4278190080
0.35828424 -0.21734814 0.89714628 4278190080
0.35832092 -0.21948411 0.89743537 4278190080
0.35973489 -0.21989152 0.89779824 4278190080
0.15322265 -0.15318593 0.8453871 4278190080
0.15464795 -0.15359661 0.84575295 4278190080
0.15607324 -0.15400729 0.84611875 4278190080
0.15892386 -0.15482865 0.8468504 4278190080
0.16269572 -0.15379056 0.84754246 4278190080
0.16412427 -0.15420218 0.84790909 4278190080
0.16555281 -0.15461379 0.84827578 4278190080
0.16698137 -0.15502542 0.84864241 4278190080
0.16840993 -0.15543704 0.8490091 4278190080
0.16890097 -0.15770343 0.84941119 4278190080
0.17032626 -0.15811412 0.84977704 4278190080
0.17460217 -0.15934616 0.85087448 4278190080
0.17602746 -0.15975684 0.85124034 4278190080
0.17745279 -0.16016753 0.85160613 4278190080
0.17887808 -0.16057821 0.85197198 4278190080
0.18126689 -0.1591416 0.85230905 4278190080
0.18269543 -0.15955321 0.85267568 4278190080
0.18412399 -0.15996484 0.85304236 4278190080
0.18457927 -0.16222093 0.85343528 4278190080
0.18600458 -0.16263162 0.85380107 4278190080
0.18742989 -0.16304229 0.85416692 4278190080
0.18885517 -0.16345298 0.85453272 4278190080
0.19028048 -0.16386366 0.85489857 4278190080
0.19170578 -0.16427435 0.85526443 4278190080
0.19313109 -0.16468503 0.85563022 4278190080
0.19455639 -0.1650957 0.85599607 4278190080
0.19598168 -0.16550639 0.85636187 4278190080
0.19740701 -0.16591707 0.85672772 4278190080
0.19883229 -0.16632776 0.85709351 4278190080
0.20025758 -0.16673844 0.85745937 4278190080
0.2016829 -0.16714913 0.85782516 4278190080
0.2049368 -0.17021154 0.85893637 4278190080
0.20635886 -0.17062129 0.85930139 4278190080
0.22324423 -0.17867392 0.86404938 4278190080
0.22466141 -0.17908226 0.86441314 4278190080
0.24475424 -0.1816844 0.86915612 4278190080
0.24733622 -0.1856157 0.87023294 4278190080
0.2487534 -0.18602405 0.87059671 4278190080
0.25017056 -0.18643239 0.87096041 4278190080
0.2544221 -0.18765742 0.87205166 4278190080
0.25583929 -0.18806575 0.87241536 4278190080
0.25725642 -0.18847409 0.87277913 4278190080
0.26150799 -0.18969911 0.87387031 4278190080
0.26292515 -0.19010746 0.87423408 4278190080
0.26717669 -0.19133247 0.87532532 4278190080
0.26859385 -0.19174083 0.87568903 4278190080
0.27001104 -0.19214916 0.8760528 4278190080
0.27142817 -0.1925575 0.8764165 4278190080
0.27307805 -0.19515772 0.87711602 4278190080
0.27567974 -0.19378252 0.87750775 4278190080
0.2770969 -0.19419086 0.87787145 4278190080
0.27731982 -0.19637993 0.87820476 4278190080
0.27873373 -0.19678734 0.87856764 4278190080
0.28014764 -0.19719474 0.87893057 4278190080
0.28035754 -0.19938013 0.87926048 4278190080
0.28176823 -0.1997866 0.87962258 4278190080
0.2831789 -0.20019306 0.87998462 4278190080
0.28458956 -0.20059952 0.88034672 4278190080
0.28600022 -0.201006 0.88070875 4278190080
0.28619066 -0.20318571 0.88103372 4278190080
0.28759807 -0.20359124 0.88139492 4278190080
0.28900552 -0.20399678 0.88175619 4278190080
0.29041293 -0.2044023 0.88211739 4278190080
0.29305363 -0.20303833 0.88251913 4278190080
0.29446429 -0.20344481 0.88288122 4278190080
0.29587498 -0.20385127 0.88324326 4278190080
0.29728565 -0.20425774 0.88360536 4278190080
0.29869631 -0.2046642 0.8839674 4278190080
0.30010697 -0.20507067 0.8843295 4278190080
0.30151764 -0.20547713 0.88469154 4278190080
0.30292833 -0.20588361 0.88505363 4278190080
0.30433902 -0.20629008 0.88541567 4278190080
0.30574968 -0.20669654 0.88577777 4278190080
0.30716035 -0.20710301 0.88613981 4278190080
0.30857101 -0.20750947 0.88650191 4278190080
0.30870941 -0.20967419 0.88681346 4278190080
0.31011686 -0.21007973 0.88717473 4278190080
0.31152427 -0.21048526 0.88753599 4278190080
0.31421372 -0.20913535 0.88795018 4278190080
0.31562442 -0.20954183 0.88831228 4278190080
0.31703511 -0.20994829 0.88867432 4278190080
0.31844577 -0.21035475 0.88903642 4278190080
0.31985644 -0.21076122 0.88939846 4278190080
0.32256541 -0.20941687 0.88981771 4278190080
0.32397935 -0.20982428 0.89018065 4278190080
0.32539326 -0.21023168 0.89054352 4278190080
0.32680717 -0.21063907 0.89090645 4278190080
0.32953238 -0.20929946 0.89132982 4278190080
0.33094957 -0.20970781 0.89169359 4278190080
0.33236673 -0.21011615 0.8920573 4278190080
0.33378392 -0.21052448 0.89242107 4278190080
0.33520108 -0.21093282 0.89278477 4278190080
0.33661824 -0.21134116 0.89314854 4278190080
0.33803546 -0.21174951 0.89351231 4278190080
0.33945259 -0.21215785 0.89387602 4278190080
0.34086981 -0.2125662 0.89423978 4278190080
0.34228694 -0.21297453 0.89460349 4278190080
0.34370413 -0.21338287 0.89496726 4278190080
0.34512132 -0.21379122 0.89533097 4278190080
0.34653848 -0.21419954 0.89569473 4278190080
0.34998599 -0.21200557 0.89616549 4278190080
0.35140806 -0.21241532 0.89653045 4278190080
0.35283011 -0.21282506 0.89689547 4278190080
0.35425216 -0.21323481 0.89726043 4278190080
0.35362437 -0.21624126 0.89751339 4278190080
0.35504156 -0.21664961 0.89787716 4278190080
0.35645872 -0.21705793 0.89824086 4278190080
0.35787588 -0.21746628 0.89860463 4278190080
0.35791352 -0.21960196 0.89889038 4278190080
0.14853606 -0.15207268 0.84575635 4278190080
0.14996137 -0.15248337 0.84612215 4278190080
0.15138666 -0.15289405 0.846488 4278190080
0.15333323 -0.15557924 0.84726006 4278190080
0.15475528 -0.15598898 0.84762508 4278190080
0.15617733 -0.15639873 0.84799004 4278190080
0.16278908 -0.1561795 0.84941459 4278190080
0.16421437 -0.15659019 0.84978038 4278190080
0.16706498 -0.15741156 0.85051209 4278190080
0.16849028 -0.15782224 0.85087788 4278190080
0.16991559 -0.15823293 0.85124373 4278190080
0.17134088 -0.1586436 0.85160953 4278190080
0.17276619 -0.15905428 0.85197538 4278190080
0.17419149 -0.15946497 0.85234118 4278190080
0.17561679 -0.15987565 0.85270703 4278190080
0.1770421 -0.16028634 0.85307282 4278190080
0.17846739 -0.16069701 0.85343868 4278190080
0.17989269 -0.16110769 0.85380447 4278190080
0.181318 -0.16151838 0.85417032 4278190080
0.1827433 -0.16192906 0.85453612 4278190080
0.18416859 -0.16233973 0.85490197 4278190080
0.1855939 -0.16275042 0.85526776 4278190080
0.1870192 -0.1631611 0.85563362 4278190080
0.1884445 -0.16357179 0.85599941 4278190080
0.18986981 -0.16398247 0.85636526 4278190080
0.1912951 -0.16439314 0.85673106 4278190080
0.19272041 -0.16480383 0.85709691 4278190080
0.19414571 -0.16521451 0.85746276 4278190080
0.19557101 -0.16562518 0.85782856 4278190080
0.19599476 -0.16787159 0.85820979 4278190080
0.1974168 -0.16828135 0.85857481 4278190080
0.19883886 -0.16869108 0.85893977 4278190080
0.20026091 -0.16910084 0.85930479 4278190080
0.24125919 -0.18410048 0.87023634 4278190080
0.24721999 -0.18794231 0.87203872 4278190080
0.24863391 -0.18834971 0.87240165 4278190080
0.25146177 -0.18916452 0.87312746 4278190080
0.25287566 -0.18957192 0.87349033 4278190080
0.25428963 -0.18997933 0.87385327 4278190080
0.26251683 -0.19022559 0.87569243 4278190080
0.26393396 -0.19063392 0.87605613 4278190080
0.26701495 -0.19364597 0.87711942 4278190080
0.26842886 -0.19405337 0.8774823 4278190080
0.2698428 -0.19446078 0.87784523 4278190080
0.27125672 -0.19486818 0.8782081 4278190080
0.27267063 -0.19527559 0.87857103 4278190080
0.27408457 -0.19568299 0.87893391 4278190080
0.27549848 -0.19609039 0.87929684 4278190080
0.27691239 -0.1964978 0.87965971 4278190080
0.27832633 -0.1969052 0.88002264 4278190080
0.27974024 -0.19731259 0.88038552 4278190080
0.27995107 -0.19949771 0.88071215 4278190080
0.28136176 -0.19990419 0.88107419 4278190080
0.28277242 -0.20031065 0.88143629 4278190080
0.28418308 -0.20071712 0.88179833 4278190080
0.28559375 -0.20112358 0.88216043 4278190080
0.28578511 -0.20330302 0.88248199 4278190080
0.28719252 -0.20370856 0.88284326 4278190080
0.28859997 -0.20411409 0.88320446 4278190080
0.29000741 -0.20451961 0.88356572 4278190080
0.29264715 -0.20315592 0.8839708 4278190080
0.29405785 -0.20356239 0.88433284 4278190080
0.29546851 -0.20396885 0.88469493 4278190080
0.29687917 -0.20437533 0.88505697 4278190080
0.29828984 -0.20478179 0.88541907 4278190080
0.2997005 -0.20518826 0.88578111 4278190080
0.30111119 -0.20559472 0.88614321 4278190080
0.30252185 -0.20600119 0.88650525 4278190080
0.30393255 -0.20640767 0.88686734 4278190080
0.30534321 -0.20681413 0.88722944 4278190080
0.30675387 -0.2072206 0.88759148 4278190080
0.30816457 -0.20762706 0.88795358 4278190080
0.30957526 -0.20803353 0.88831562 4278190080
0.31098592 -0.20844001 0.88867772 4278190080
0.31239659 -0.20884646 0.88903975 4278190080
0.31380725 -0.20925294 0.88940185 4278190080
0.3165023 -0.20790511 0.88982111 4278190080
0.31662863 -0.21006587 0.89012599 4278190080
0.3180393 -0.21047235 0.89048803 4278190080
0.31944996 -0.2108788 0.89085013 4278190080
0.32215801 -0.20953472 0.89127272 4278190080
0.32357195 -0.20994213 0.8916356 4278190080
0.32628971 -0.20860091 0.8920607 4278190080
0.32770687 -0.20900925 0.8924244 4278190080
0.32912403 -0.20941758 0.89278817 4278190080
0.33054125 -0.20982593 0.89315188 4278190080
0.33195838 -0.21023427 0.89351565 4278190080
0.3333756 -0.21064262 0.89387935 4278190080
0.33479273 -0.21105096 0.89424312 4278190080
0.33620992 -0.21145929 0.89460683 4278190080
0.33762711 -0.21186765 0.8949706 4278190080
0.33904427 -0.21227597 0.8953343 4278190080
0.34046146 -0.21268432 0.89569807 4278190080
0.34187862 -0.21309265 0.89606184 4278190080
0.34329578 -0.21350099 0.89642555 4278190080
0.34673217 -0.21130462 0.89689887 4278190080
0.34815422 -0.21171436 0.89726382 4278190080
0.34957626 -0.21212411 0.89762884 4278190080
0.35099831 -0.21253386 0.8979938 4278190080
0.35242036 -0.2129436 0.89835882 4278190080
0.35520476 -0.21162158 0.89880097 4278190080
0.35663006 -0.21203226 0.89916682 4278190080
0.3566865 -0.21417284 0.89945376 4278190080
0.35810855 -0.21458258 0.89981878 4278190080
0.35953063 -0.21499233 0.90018374 4278190080
0.14723527 -0.15405878 0.84726346 4278190080
0.14865734 -0.15446854 0.84762847 4278190080
0.15007938 -0.15487827 0.84799343 4278190080
0.15150143 -0.15528803 0.84835845 4278190080
0.15292348 -0.15569776 0.84872341 4278190080
0.15434554 -0.15610752 0.84908843 4278190080
0.15576757 -0.15651725 0.84945339 4278190080
0.1609531 -0.15588763 0.85051548 4278190080
0.16237839 -0.15629831 0.85088128 4278190080
0.16380368 -0.156709 0.85124713 4278190080
0.16522899 -0.15711968 0.85161293 4278190080
0.16572194 -0.15938547 0.85200834 4278190080
0.16714399 -0.15979522 0.85237336 4278190080
0.16856605 -0.16020498 0.85273832 4278190080
0.1685749 -0.16339323 0.85314393 4278190080
0.16999207 -0.16380158 0.8535077 4278190080
0.17283221 -0.1614342 0.85383332 4278190080
0.17425424 -0.16184396 0.85419828 4278190080
0.1756763 -0.16225369 0.8545633 4278190080
0.17709835 -0.16266344 0.85492826 4278190080
0.17948201 -0.1612265 0.85527116 4278190080
0.18090731 -0.16163719 0.85563701 4278190080
0.18136451 -0.16389269 0.85602325 4278190080
0.18278655 -0.16430242 0.85638821 4278190080
0.1842086 -0.16471218 0.85675323 4278190080
0.18563065 -0.16512191 0.85711819 4278190080
0.18705271 -0.16553167 0.85748321 4278190080
0.18847474 -0.1659414 0.85784817 4278190080
0.18989681 -0.16635115 0.85821319 4278190080
0.19131885 -0.16676089 0.85857821 4278190080
0.1927409 -0.16717064 0.85894316 4278190080
0.19416295 -0.16758038 0.85930818 4278190080
0.19558501 -0.16799013 0.85967314 4278190080
0.19550122 -0.1711517 0.86005497 4278190080
0.19691841 -0.17156005 0.86041874 4278190080
0.19833557 -0.17196839 0.86078244 4278190080
0.21005054 -0.17746766 0.8640582 4278190080
0.22136194 -0.18072689 0.86696142 4278190080
0.22701763 -0.18235651 0.86841303 4278190080
0.22843157 -0.18276392 0.86877596 4278190080
0.22984548 -0.18317132 0.86913884 4278190080
0.23408726 -0.18439353 0.87022758 4278190080
0.23550119 -0.18480094 0.87059045 4278190080
0.23691511 -0.18520834 0.87095338 4278190080
0.24115689 -0.18643054 0.87204212 4278190080
0.24368519 -0.18503529 0.87242216 4278190080
0.24539867 -0.18765277 0.8731308 4278190080
0.2468126 -0.18806016 0.87349373 4278190080
0.24822649 -0.18846756 0.8738566 4278190080
0.25246826 -0.18968977 0.87494534 4278190080
0.26095182 -0.1921342 0.87712276 4278190080
0.26236579 -0.19254161 0.87748569 4278190080
0.2637797 -0.19294903 0.87784857 4278190080
0.26519358 -0.19335641 0.8782115 4278190080
0.26660755 -0.19376382 0.87857437 4278190080
0.26802146 -0.19417123 0.8789373 4278190080
0.26943538 -0.19457863 0.87930018 4278190080
0.26966989 -0.19677003 0.87962925 4278190080
0.27249125 -0.19758296 0.88035345 4278190080
0.27390191 -0.19798943 0.88071549 4278190080
0.2753126 -0.19839591 0.88107759 4278190080
0.27672327 -0.19880237 0.88143963 4278190080
0.27813393 -0.19920883 0.88180172 4278190080
0.27954459 -0.1996153 0.88216376 4278190080
0.28095528 -0.20002177 0.88252586 4278190080
0.28236595 -0.20042823 0.8828879 4278190080
0.28377661 -0.20083471 0.88325 4278190080
0.2851873 -0.20124117 0.88361204 4278190080
0.28537959 -0.20342034 0.88393033 4278190080
0.286787 -0.20382586 0.88429153 4278190080
0.28819445 -0.20423141 0.88465279 4278190080
0.29082999 -0.20286705 0.88506037 4278190080
0.29224071 -0.20327352 0.88542241 4278190080
0.29365137 -0.20367998 0.88578451 4278190080
0.29506204 -0.20408644 0.88614655 4278190080
0.2964727 -0.20449291 0.88650864 4278190080
0.29788336 -0.20489937 0.88687068 4278190080
0.29929405 -0.20530584 0.88723278 4278190080
0.30070472 -0.2057123 0.88759482 4278190080
0.30211538 -0.20611878 0.88795692 4278190080
0.30352607 -0.20652525 0.88831896 4278190080
0.30493674 -0.20693171 0.88868105 4278190080
0.30634743 -0.20733818 0.88904315 4278190080
0.30902529 -0.20598595 0.88946152 4278190080
0.30916879 -0.20815112 0.88976729 4278190080
0.31057945 -0.20855759 0.89012933 4278190080
0.31326705 -0.20720816 0.89055026 4278190080
0.31468099 -0.20761557 0.89091319 4278190080
0.31609491 -0.20802297 0.89127606 4278190080
0.31750885 -0.20843036 0.89163899 4278190080
0.31763282 -0.21058993 0.8919397 4278190080
0.31904349 -0.21099639 0.89230174 4278190080
0.32175061 -0.20965259 0.89272767 4278190080
0.32316455 -0.21005999 0.89309061 4278190080
0.32588136 -0.20871904 0.89351904 4278190080
0.32729852 -0.20912738 0.89388275 4278190080
0.32871568 -0.20953572 0.89424652 4278190080
0.3301329 -0.20994407 0.89461023 4278190080
0.33155006 -0.21035239 0.89497399 4278190080
0.33296725 -0.21076074 0.8953377 4278190080
0.33438441 -0.21116908 0.89570147 4278190080
0.33580157 -0.21157742 0.89606518 4278190080
0.33721879 -0.21198577 0.89642894 4278190080
0.33863592 -0.2123941 0.89679271 4278190080
0.34005314 -0.21280245 0.89715642 4278190080
0.34147027 -0.21321078 0.89752018 4278190080
0.34490037 -0.21101341 0.8979972 4278190080
0.34632242 -0.21142316 0.89836222 4278190080
0.34774446 -0.2118329 0.89872718 4278190080
0.34916651 -0.21224265 0.8990922 4278190080
0.35058859 -0.21265239 0.89945716 4278190080
0.35201061 -0.21306214 0.89982218 4278190080
0.35343266 -0.21347187 0.90018713 4278190080
0.35621938 -0.21215107 0.90063351 4278190080
0.35627678 -0.21429136 0.90091711 4278190080
0.3576988 -0.21470112 0.90128213 4278190080
0.35912088 -0.21511087 0.90164709 4278190080
0.14824758 -0.15458708 0.84909183 4278190080
0.1483261 -0.15779459 0.84950989 4278190080
0.14974329 -0.15820293 0.84987366 4278190080
0.15399481 -0.15942796 0.8509649 4278190080
0.15541199 -0.15983629 0.85132861 4278190080
0.15962398 -0.15786503 0.85201174 4278190080
0.16104604 -0.15827477 0.8523767 4278190080
0.16246809 -0.15868452 0.85274172 4278190080
0.16389015 -0.15909427 0.85310668 4278190080
0.16391502 -0.16228634 0.85351104 4278190080
0.1653322 -0.16269468 0.8538748 4278190080
0.16674937 -0.16310301 0.85423851 4278190080
0.16816656 -0.16351137 0.85460228 4278190080
0.16958374 -0.1639197 0.85496604 4278190080
0.1710009 -0.16432804 0.85532975 4278190080
0.17241807 -0.16473638 0.85569352 4278190080
0.17383525 -0.16514473 0.85605723 4278190080
0.17525244 -0.16555306 0.85642099 4278190080
0.18984818 -0.17188185 0.86043251 4278190080
0.19126211 -0.17228927 0.86079538 4278190080
0.1969178 -0.17391887 0.86224699 4278190080
0.20398745 -0.17595591 0.86406153 4278190080
0.20540135 -0.1763633 0.86442447 4278190080
0.20681529 -0.17677072 0.86478734 4278190080
0.21847913 -0.18225479 0.8680464 4278190080
0.2198898 -0.18266125 0.86840844 4278190080
0.22130048 -0.18306772 0.86877054 4278190080
0.22271115 -0.18347418 0.86913258 4278190080
0.22412185 -0.18388066 0.86949468 4278190080
0.22553252 -0.18428713 0.86985672 4278190080
0.22694318 -0.18469359 0.87021881 4278190080
0.22835384 -0.18510005 0.87058085 4278190080
0.22976454 -0.18550652 0.87094295 4278190080
0.23117521 -0.185913 0.87130499 4278190080
0.23258588 -0.18631946 0.87166709 4278190080
0.23509377 -0.18491879 0.87204546 4278190080
0.23650771 -0.1853262 0.87240839 4278190080
0.23792163 -0.1857336 0.87277126 4278190080
0.23822857 -0.18794532 0.87311536 4278190080
0.23963924 -0.1883518 0.87347746 4278190080
0.2421634 -0.18695581 0.87386 4278190080
0.24640518 -0.18817802 0.87494868 4278190080
0.2478191 -0.18858543 0.87531161 4278190080
0.24923305 -0.18899283 0.87567449 4278190080
0.24951398 -0.19119707 0.87601197 4278190080
0.253746 -0.19241647 0.87709814 4278190080
0.26221004 -0.19485527 0.87927055 4278190080
0.26362073 -0.19526175 0.87963265 4278190080
0.2650314 -0.19566822 0.87999475 4278190080
0.26644206 -0.19607468 0.88035679 4278190080
0.26785272 -0.19648115 0.88071889 4278190080
0.26926345 -0.19688763 0.88108093 4278190080
0.27067411 -0.19729409 0.88144302 4278190080
0.27208477 -0.19770055 0.88180506 4278190080
0.27349544 -0.19810702 0.88216716 4278190080
0.27490613 -0.19851349 0.8825292 4278190080
0.27512208 -0.20069894 0.88284993 4278190080
0.27652952 -0.20110448 0.8832112 4278190080
0.27793697 -0.20151 0.8835724 4278190080
0.27934438 -0.20191553 0.88393366 4278190080
0.28195947 -0.20054582 0.88433957 4278190080
0.28337017 -0.20095229 0.88470167 4278190080
0.28478083 -0.20135875 0.88506371 4278190080
0.28497407 -0.20353766 0.8853786 4278190080
0.28638148 -0.20394318 0.88573986 4278190080
0.28901285 -0.20257816 0.88614994 4278190080
0.29042354 -0.20298463 0.88651198 4278190080
0.29183424 -0.2033911 0.88687408 4278190080
0.2932449 -0.20379756 0.88723612 4278190080
0.29465556 -0.20420404 0.88759822 4278190080
0.29606622 -0.2046105 0.88796026 4278190080
0.29872042 -0.20325197 0.88837618 4278190080
0.30013433 -0.20365939 0.88873911 4278190080
0.30029824 -0.20582989 0.88904649 4278190080
0.30170891 -0.20623636 0.88940859 4278190080
0.3043761 -0.20488159 0.88982779 4278190080
0.30579004 -0.20528899 0.89019072 4278190080
0.30720395 -0.20569639 0.89055365 4278190080
0.30861786 -0.2061038 0.89091653 4278190080
0.31003183 -0.20651121 0.89127946 4278190080
0.31144574 -0.20691861 0.89164233 4278190080
0.31285962 -0.20732601 0.89200526 4278190080
0.3142736 -0.20773342 0.89236814 4278190080
0.31568751 -0.20814082 0.89273107 4278190080
0.31710142 -0.20854823 0.89309394 4278190080
0.31851536 -0.20895563 0.89345688 4278190080
0.31992927 -0.20936303 0.89381975 4278190080
0.32134321 -0.20977044 0.89418268 4278190080
0.32275715 -0.21017785 0.89454561 4278190080
0.32547304 -0.20883717 0.89497739 4278190080
0.32689017 -0.2092455 0.8953411 4278190080
0.32830736 -0.20965384 0.89570487 4278190080
0.32972455 -0.21006219 0.89606857 4278190080
0.33311421 -0.20785397 0.89654064 4278190080
0.33453625 -0.20826373 0.8969056 4278190080
0.3359583 -0.20867346 0.89727062 4278190080
0.33738035 -0.20908321 0.89763558 4278190080
0.33880243 -0.20949297 0.8980006 4278190080
0.34022444 -0.2099027 0.89836556 4278190080
0.34164649 -0.21031244 0.89873058 4278190080
0.34306857 -0.21072219 0.89909559 4278190080
0.34449062 -0.21113195 0.89946055 4278190080
0.34591267 -0.2115417 0.89982557 4278190080
0.34733471 -0.21195143 0.90019053 4278190080
0.34875676 -0.21236117 0.90055555 4278190080
0.35017884 -0.21277092 0.90092051 4278190080
0.35160089 -0.21318068 0.90128553 4278190080
0.3530229 -0.21359041 0.90165049 4278190080
0.35580871 -0.21226987 0.90210021 4278190080
0.35586703 -0.2144099 0.90238047 4278190080
0.35728908 -0.21481965 0.90274549 4278190080
0.35871112 -0.21522939 0.90311044 4278190080
0.14650059 -0.15750438 0.85060453 4278190080
0.1555066 -0.16222203 0.85317779 4278190080
0.15783799 -0.1607711 0.85351443 4278190080
0.15925516 -0.16117944 0.85387814 4278190080
0.16067235 -0.16158779 0.85424191 4278190080
0.16208953 -0.16199613 0.85460567 4278190080
0.16350669 -0.16240446 0.85496938 4278190080
0.16399013 -0.16466644 0.8553552 4278190080
0.16540405 -0.16507384 0.85571808 4278190080
0.16681798 -0.16548125 0.85608101 4278190080
0.16823189 -0.16588865 0.85644388 4278190080
0.16964583 -0.16629606 0.85680681 4278190080
0.17105976 -0.16670346 0.85716975 4278190080
0.17247367 -0.16711088 0.85753262 4278190080
0.1738876 -0.16751827 0.85789555 4278190080
0.17530154 -0.16792569 0.85825843 4278190080
0.17671545 -0.16833308 0.85862136 4278190080
0.17812937 -0.16874048 0.85898423 4278190080
0.17857379 -0.17099129 0.85936004 4278190080
0.17998447 -0.17139775 0.85972208 4278190080
0.18139513 -0.17180422 0.86008418 4278190080
0.18280581 -0.17221068 0.86044621 4278190080
0.19126986 -0.17464949 0.86261868 4278190080
0.19368255 -0.17322193 0.86297619 4278190080
0.19509648 -0.17362933 0.86333913 4278190080
0.20255525 -0.17790124 0.86551523 4278190080
0.2053766 -0.17871417 0.86623937 4278190080
0.20678727 -0.17912063 0.86660147 4278190080
0.20819795 -0.1795271 0.86696351 4278190080
0.21242997 -0.1807465 0.86804974 4278190080
0.21384065 -0.18115297 0.86841178 4278190080
0.21525133 -0.18155944 0.86877388 4278190080
0.21666199 -0.1819659 0.86913592 4278190080
0.21701218 -0.18418948 0.86948752 4278190080
0.2184196 -0.18459502 0.86984879 4278190080
0.22123444 -0.18540607 0.87057126 4278190080
0.22264189 -0.18581161 0.87093246 4278190080
0.2240493 -0.18621714 0.87129372 4278190080
0.22545671 -0.18662266 0.87165493 4278190080
0.22794737 -0.18521763 0.87203252 4278190080
0.22935808 -0.18562411 0.87239456 4278190080
0.23076874 -0.18603058 0.87275666 4278190080
0.23217942 -0.18643704 0.8731187 4278190080
0.23359008 -0.18684351 0.8734808 4278190080
0.23500077 -0.18724999 0.8738429 4278190080
0.23641145 -0.18765645 0.87420493 4278190080
0.2378221 -0.18806292 0.87456703 4278190080
0.23923278 -0.18846938 0.87492907 4278190080
0.24175599 -0.18707366 0.87531501 4278190080
0.24205413 -0.18928231 0.87565321 4278190080
0.24346481 -0.18968879 0.87601531 4278190080
0.24487548 -0.19009525 0.87637734 4278190080
0.24628617 -0.19050172 0.87673944 4278190080
0.24769685 -0.19090819 0.87710148 4278190080
0.24910751 -0.19131465 0.87746358 4278190080
0.25051817 -0.19172113 0.87782568 4278190080
0.25192887 -0.1921276 0.87818772 4278190080
0.25333956 -0.19253406 0.87854981 4278190080
0.25501263 -0.19513883 0.87924093 4278190080
0.25642005 -0.19554435 0.87960213 4278190080
0.25782746 -0.19594988 0.8799634 4278190080
0.26204976 -0.19716647 0.88104713 4278190080
0.26345718 -0.19757201 0.88140833 4278190080
0.26486459 -0.19797754 0.8817696 4278190080
0.26744628 -0.19659874 0.8821705 4278190080
0.26885697 -0.19700521 0.8825326 4278190080
0.27026764 -0.19741167 0.88289464 4278190080
0.2716783 -0.19781815 0.88325673 4278190080
0.27308896 -0.1982246 0.88361877 4278190080
0.27449968 -0.19863108 0.88398087 4278190080
0.27471656 -0.20081626 0.88429826 4278190080
0.276124 -0.20122179 0.88465947 4278190080
0.27753142 -0.20162731 0.88502073 4278190080
0.27893883 -0.20203285 0.88538194 4278190080
0.28034624 -0.20243837 0.8857432 4278190080
0.28296369 -0.20106988 0.88615328 4278190080
0.28437436 -0.20147634 0.88651538 4278190080
0.28456852 -0.20365497 0.88682687 4278190080
0.28597593 -0.20406049 0.88718814 4278190080
0.28860641 -0.20269574 0.88760155 4278190080
0.29001707 -0.20310222 0.88796365 4278190080
0.29265732 -0.20174022 0.88837957 4278190080
0.2940712 -0.20214762 0.88874245 4278190080
0.29548514 -0.20255502 0.88910538 4278190080
0.29689908 -0.20296243 0.88946831 4278190080
0.29831299 -0.20336984 0.88983119 4278190080
0.29972693 -0.20377724 0.89019412 4278190080
0.30114084 -0.20418464 0.89055699 4278190080
0.30255479 -0.20459205 0.89091992 4278190080
0.30522421 -0.20323852 0.89134336 4278190080
0.3066414 -0.20364687 0.89170706 4278190080
0.30805859 -0.2040552 0.89207083 4278190080
0.30947572 -0.20446354 0.89243454 4278190080
0.31089294 -0.20487189 0.8927983 4278190080
0.31231007 -0.20528023 0.89316201 4278190080
0.31372729 -0.20568858 0.89352578 4278190080
0.31514445 -0.20609692 0.89388955 4278190080
0.31528011 -0.20825869 0.89418608 4278190080
0.31669402 -0.20866609 0.89454895 4278190080
0.31810796 -0.20907348 0.89491189 4278190080
0.31952187 -0.2094809 0.89527476 4278190080
0.32093579 -0.20988829 0.89563769 4278190080
0.32234976 -0.21029571 0.89600056 4278190080
0.32701626 -0.20633353 0.89654398 4278190080
0.32843831 -0.20674327 0.896909 4278190080
0.32986036 -0.20715302 0.89727402 4278190080
0.3325932 -0.20581777 0.89771372 4278190080
0.33270445 -0.20797251 0.898004 4278190080
0.33412653 -0.20838226 0.89836895 4278190080
0.33554858 -0.208792 0.89873397 4278190080
0.3369706 -0.20920174 0.89909893 4278190080
0.33839267 -0.20961149 0.89946395 4278190080
0.33981472 -0.21002124 0.89982891 4278190080
0.34123677 -0.21043098 0.90019393 4278190080
0.34265882 -0.21084073 0.90055889 4278190080
0.34408087 -0.21125047 0.90092391 4278190080
0.34550294 -0.21166022 0.90128887 4278190080
0.34692499 -0.21206997 0.90165389 4278190080
0.34834701 -0.21247971 0.90201885 4278190080
0.34976909 -0.21288946 0.90238386 4278190080
0.35119113 -0.2132992 0.90274882 4278190080
0.35397273 -0.211978 0.9032011 4278190080
0.35539803 -0.21238868 0.9035669 4278190080
0.35545728 -0.21452844 0.90384382 4278190080
0.35687932 -0.21493818 0.90420884 4278190080
0.15136451 -0.16338599 0.85393232 4278190080
0.15651309 -0.16274728 0.85499567 4278190080
0.15792704 -0.16315469 0.85535854 4278190080
0.15934095 -0.16356209 0.85572147 4278190080
0.16075487 -0.1639695 0.85608435 4278190080
0.1621688 -0.1643769 0.85644728 4278190080
0.16358273 -0.1647843 0.85681015 4278190080
0.16499665 -0.16519171 0.85717309 4278190080
0.16641058 -0.16559911 0.85753596 4278190080
0.17111395 -0.16907653 0.85900134 4278190080
0.17252462 -0.16948299 0.85936338 4278190080
0.17393529 -0.16988946 0.85972548 4278190080
0.17534596 -0.17029594 0.86008751 4278190080
0.17675665 -0.1707024 0.86044961 4278190080
0.17816731 -0.17110887 0.86081165 4278190080
0.17957801 -0.17151533 0.86117375 4278190080
0.18098867 -0.1719218 0.86153579 4278190080
0.18522069 -0.17314121 0.86262202 4278190080
0.18663137 -0.17354767 0.86298412 4278190080
0.18804204 -0.17395414 0.86334616 4278190080
0.18945271 -0.1743606 0.86370826 4278190080
0.1908634 -0.17476708 0.8640703 4278190080
0.19227406 -0.17517355 0.86443239 4278190080
0.19368473 -0.17558001 0.86479443 4278190080
0.1950954 -0.17598647 0.86515653 4278190080
0.19650608 -0.17639294 0.86551857 4278190080
0.19932744 -0.17720588 0.86624271 4278190080
0.2007381 -0.17761235 0.8666048 4278190080
0.20534724 -0.18106255 0.86804593 4278190080
0.20675465 -0.18146808 0.86840719 4278190080
0.2081621 -0.18187362 0.86876839 4278190080
0.20956951 -0.18227914 0.86912966 4278190080
0.21097693 -0.18268467 0.86949086 4278190080
0.21238436 -0.18309021 0.86985213 4278190080
0.21519923 -0.18390127 0.87057459 4278190080
0.21554704 -0.1861237 0.87092203 4278190080
0.21695122 -0.1865283 0.8712824 4278190080
0.2183554 -0.18693289 0.87164283 4278190080
0.21975955 -0.18733747 0.8720032 4278190080
0.22116373 -0.18774207 0.87236363 4278190080
0.2225679 -0.18814667 0.87272406 4278190080
0.22397208 -0.18855126 0.87308443 4278190080
0.22645859 -0.18714552 0.87346447 4278190080
0.22786602 -0.18755105 0.87382573 4278190080
0.22927347 -0.18795659 0.87418699 4278190080
0.23068088 -0.18836211 0.8745482 4278190080
0.2320883 -0.18876764 0.87490946 4278190080
0.23349573 -0.18917316 0.87527066 4278190080
0.23490316 -0.1895787 0.87563193 4278190080
0.23631057 -0.18998423 0.87599313 4278190080
0.23771802 -0.19038977 0.8763544 4278190080
0.23912543 -0.1907953 0.8767156 4278190080
0.24194027 -0.19160636 0.87743813 4278190080
0.24446902 -0.19021283 0.87782902 4278190080
0.24475513 -0.19241743 0.8781606 4278190080
0.24897739 -0.19363402 0.87924427 4278190080
0.25038481 -0.19403954 0.87960553 4278190080
0.25179222 -0.19444507 0.87996674 4278190080
0.25486389 -0.19745234 0.88101327 4278190080
0.25626808 -0.19785693 0.8813737 4278190080
0.25767225 -0.19826153 0.88173407 4278190080
0.26586649 -0.19850038 0.88357913 4278190080
0.2672739 -0.19890592 0.88394034 4278190080
0.26868135 -0.19931145 0.8843016 4278190080
0.27008876 -0.19971697 0.88466281 4278190080
0.27149618 -0.20012251 0.88502407 4278190080
0.27311817 -0.20271206 0.8856985 4278190080
0.27452233 -0.20311666 0.88605893 4278190080
0.2771259 -0.20174463 0.88646901 4278190080
0.27853331 -0.20215017 0.88683027 4278190080
0.27994072 -0.20255569 0.88719147 4278190080
0.28255722 -0.20118746 0.88760489 4278190080
0.28396788 -0.20159392 0.88796699 4278190080
0.28537861 -0.20200039 0.88832909 4278190080
0.28678927 -0.20240687 0.88869113 4278190080
0.28942204 -0.20104326 0.88910872 4278190080
0.29083598 -0.20145066 0.88947165 4278190080
0.29224992 -0.20185807 0.88983452 4278190080
0.2936638 -0.20226547 0.89019746 4278190080
0.29507774 -0.20267287 0.89056033 4278190080
0.29773 -0.20131494 0.89098299 4278190080
0.29914719 -0.20172329 0.89134669 4278190080
0.30056438 -0.20213163 0.89171046 4278190080
0.30198151 -0.20253997 0.89207417 4278190080
0.30339873 -0.20294832 0.89243793 4278190080
0.30669779 -0.20071563 0.89289749 4278190080
0.30811986 -0.20112538 0.89326251 4278190080
0.30954191 -0.20153512 0.89362746 4278190080
0.31096396 -0.20194486 0.89399248 4278190080
0.31238601 -0.20235461 0.89435744 4278190080
0.31380805 -0.20276436 0.89472246 4278190080
0.3152301 -0.2031741 0.89508742 4278190080
0.31473613 -0.20621504 0.89534783 4278190080
0.31615329 -0.20662338 0.8957116 4278190080
0.31628662 -0.20878394 0.89600396 4278190080
0.31770054 -0.20919134 0.89636683 4278190080
0.31911448 -0.20959875 0.89672977 4278190080
0.32182202 -0.20825675 0.89716655 4278190080
0.32323915 -0.20866507 0.89753026 4278190080
0.32660651 -0.20645207 0.89800733 4278190080
0.32802856 -0.20686181 0.89837235 4278190080
0.33075723 -0.20552589 0.89881456 4278190080
0.33218253 -0.20593657 0.89918041 4278190080
0.33360782 -0.20634726 0.89954621 4278190080
0.33503309 -0.20675793 0.89991206 4278190080
0.33513883 -0.20891054 0.90019733 4278190080
0.33457655 -0.21193181 0.90044022 4278190080
0.33599377 -0.21234015 0.90080392 4278190080
0.3374109 -0.21274848 0.90116769 4278190080
0.34082702 -0.21054952 0.90165728 4278190080
0.34224907 -0.21095927 0.90202224 4278190080
0.34367111 -0.21136901 0.90238726 4278190080
0.34509319 -0.21177876 0.90275222 4278190080
0.35063502 -0.20913123 0.90365839 4278190080
0.35206357 -0.20954284 0.90402502 4278190080
0.35078138 -0.21341774 0.90421224 4278190080
0.35220343 -0.21382748 0.9045772 4278190080
0.35498732 -0.21250749 0.90503359 4278190080
0.16694126 -0.17023054 0.85974085 4278190080
0.16834868 -0.17063607 0.86010212 4278190080
0.17538582 -0.17266372 0.86190826 4278190080
0.17679323 -0.17306925 0.86226952 4278190080
0.17820065 -0.17347477 0.86263072 4278190080
0.17960808 -0.17388031 0.86299199 4278190080
0.18383035 -0.1750969 0.86407572 4278190080
0.18523777 -0.17550243 0.86443692 4278190080
0.18664519 -0.17590797 0.86479819 4278190080
0.18805262 -0.1763135 0.86515939 4278190080
0.1922749 -0.17753009 0.86624312 4278190080
0.19368233 -0.17793562 0.86660433 4278190080
0.19931202 -0.17955774 0.86804932 4278190080
0.20071945 -0.17996328 0.86841053 4278190080
0.2067174 -0.18381317 0.87020457 4278190080
0.20812158 -0.18421777 0.87056494 4278190080
0.20952575 -0.18462236 0.87092537 4278190080
0.21197884 -0.18320753 0.87130046 4278190080
0.21338625 -0.18361305 0.87166166 4278190080
0.21373828 -0.18583615 0.87200654 4278190080
0.21514244 -0.18624075 0.87236696 4278190080
0.21654662 -0.18664533 0.87272739 4278190080
0.21795081 -0.18704993 0.87308776 4278190080
0.21828659 -0.18926829 0.87342852 4278190080
0.21968751 -0.18967195 0.87378806 4278190080
0.22108844 -0.19007561 0.87414765 4278190080
0.22356749 -0.18866831 0.87452936 4278190080
0.22497167 -0.18907291 0.87488979 4278190080
0.22637585 -0.1894775 0.87525016 4278190080
0.22778001 -0.18988208 0.87561059 4278190080
0.2291842 -0.19028668 0.87597102 4278190080
0.23058838 -0.19069128 0.87633139 4278190080
0.23339671 -0.19150047 0.87705219 4278190080
0.23480088 -0.19190507 0.87741262 4278190080
0.23620506 -0.19230965 0.87777299 4278190080
0.23760921 -0.19271424 0.87813342 4278190080
0.24012731 -0.19131814 0.87852514 4278190080
0.24153474 -0.19172367 0.8788864 4278190080
0.24294215 -0.19212919 0.87924767 4278190080
0.2443496 -0.19253474 0.87960887 4278190080
0.2446301 -0.19473723 0.87993544 4278190080
0.2488426 -0.195951 0.88101661 4278190080
0.25024679 -0.1963556 0.88137704 4278190080
0.25165096 -0.19676019 0.88173741 4278190080
0.25305516 -0.19716479 0.88209784 4278190080
0.25445932 -0.19756939 0.88245821 4278190080
0.25586349 -0.19797398 0.88281864 4278190080
0.25726765 -0.19837858 0.88317907 4278190080
0.26288435 -0.19999695 0.88462067 4278190080
0.26428851 -0.20040154 0.88498104 4278190080
0.26850104 -0.20161533 0.88606226 4278190080
0.27271357 -0.20282911 0.88714349 4278190080
0.27411774 -0.2032337 0.88750386 4278190080
0.27552193 -0.2036383 0.88786429 4278190080
0.2769261 -0.2040429 0.88822466 4278190080
0.2795352 -0.202673 0.88863981 4278190080
0.28215075 -0.20130505 0.88905656 4278190080
0.28356144 -0.20171151 0.8894186 4278190080
0.28618678 -0.20034632 0.88983792 4278190080
0.28760073 -0.20075372 0.89020085 4278190080
0.28901464 -0.20116112 0.89056373 4278190080
0.29042855 -0.20156853 0.89092666 4278190080
0.29184252 -0.20197594 0.89128953 4278190080
0.2944873 -0.20061639 0.8917138 4278190080
0.29590452 -0.20102474 0.89207757 4278190080
0.29732165 -0.20143308 0.89244127 4278190080
0.29873887 -0.20184143 0.89280504 4278190080
0.30015603 -0.20224977 0.89316881 4278190080
0.30157319 -0.2026581 0.89353251 4278190080
0.30299038 -0.20306644 0.89389628 4278190080
0.30628806 -0.20083416 0.89436084 4278190080
0.30771011 -0.20124391 0.89472586 4278190080
0.31039229 -0.19989514 0.89515972 4278190080
0.31181759 -0.20030583 0.89552552 4278190080
0.31324291 -0.20071651 0.89589137 4278190080
0.31466821 -0.2011272 0.89625716 4278190080
0.3160935 -0.20153788 0.89662302 4278190080
0.31624243 -0.20370239 0.89691579 4278190080
0.31766447 -0.20411213 0.89728075 4278190080
0.31716213 -0.20714985 0.89753366 4278190080
0.31857929 -0.20755818 0.89789736 4278190080
0.31999648 -0.20796654 0.89826113 4278190080
0.32141367 -0.20837487 0.8986249 4278190080
0.3228308 -0.20878321 0.8989886 4278190080
0.32892123 -0.20523401 0.89991546 4278190080
0.33165222 -0.20389925 0.90036184 4278190080
0.33177182 -0.20605537 0.9006471 4278190080
0.33319712 -0.20646606 0.9010129 4278190080
0.33462241 -0.20687674 0.90137875 4278190080
0.33472908 -0.20902908 0.90166068 4278190080
0.34041727 -0.21066806 0.90312064 4278190080
0.16090605 -0.16872573 0.85974419 4278190080
0.16231346 -0.16913125 0.86010545 4278190080
