# .PCD v0.7 - Point Cloud Data file format
VERSION 0.7
FIELDS x y z rgba
SIZE 4 4 4 4
TYPE F F F U
COUNT 1 1 1 1
WIDTH 1047
HEIGHT 1
VIEWPOINT 0 0 0 1 0 0 0
POINTS 1047
DATA ascii
-0.3514508 -0.20043948 0.89079052 4278190080
-0.35027915 -0.19970192 0.89012825 4278190080
-0.34742466 -0.20032144 0.88907087 4278190080
-0.34625569 -0.19958554 0.88841015 4278190080
-0.34340906 -0.20021011 0.88735723 4278190080
-0.34224278 -0.1994759 0.88669801 4278190080
-0.33940423 -0.20010547 0.88564968 4278190080
-0.33824056 -0.19937292 0.88499188 4278190080
-0.3370769 -0.19864038 0.88433415 4278190080
-0.33341682 -0.19996108 0.8830995 4278190080
-0.33225712 -0.19923104 0.88244402 4278190080
-0.33109748 -0.19850102 0.88178849 4278190080
-0.32993782 -0.19777097 0.88113302 4278190080
-0.32877815 -0.19704093 0.88047749 4278190080
-0.32761851 -0.19631092 0.87982202 4278190080
-0.32481053 -0.19695973 0.87879097 4278190080
-0.32365352 -0.19623137 0.87813699 4278190080
-0.32249653 -0.19550301 0.87748295 4278190080
-0.31969917 -0.19615857 0.87645793 4278190080
-0.3173905 -0.1947052 0.87515295 4278190080
-0.31138328 -0.18609042 0.87064505 4278190080
-0.31022364 -0.1853604 0.86998957 4278190080
-0.30906394 -0.18463036 0.86933404 4278190080
-0.3079043 -0.18390034 0.86867857 4278190080
-0.30674466 -0.1831703 0.8680231 4278190080
-0.29169461 -0.17007111 0.85868186 4278190080
-0.29053095 -0.16933855 0.85802406 4278190080
-0.28936732 -0.16860601 0.85736632 4278190080
-0.28587636 -0.16640837 0.85539305 4278190080
-0.28471273 -0.16567583 0.85473531 4278190080
-0.28354907 -0.16494328 0.85407758 4278190080
-0.28238544 -0.16421074 0.85341984 4278190080
-0.28005812 -0.16274564 0.85210431 4278190080
-0.27889448 -0.16201311 0.85144657 4278190080
-0.27773082 -0.16128056 0.85078877 4278190080
-0.27656719 -0.16054802 0.85013103 4278190080
-0.26035827 -0.15396895 0.84180319 4278190080
-0.25919861 -0.15323891 0.84114772 4278190080
-0.25803897 -0.15250888 0.84049225 4278190080
-0.25455999 -0.15031877 0.83852571 4278190080
-0.24644238 -0.14520854 0.83393723 4278190080
-0.23832476 -0.1400983 0.8293488 4278190080
-0.23716511 -0.13936827 0.82869327 4278190080
-0.23700313 -0.13564147 0.82776749 4278190080
-0.23583947 -0.13490891 0.82710975 4278190080
-0.23467582 -0.13417637 0.82645196 4278190080
-0.23351218 -0.13344383 0.82579422 4278190080
-0.23377609 -0.13119346 0.82538724 4278190080
-0.23260978 -0.13045923 0.82472801 4278190080
-0.23002124 -0.13124619 0.82382095 4278190080
-0.22885758 -0.13051364 0.82316321 4278190080
-0.22769393 -0.1297811 0.82250547 4278190080
-0.2218757 -0.12611838 0.81921673 4278190080
-0.22071204 -0.12538582 0.81855893 4278190080
-0.3857719 -0.20797999 0.90863991 4278190080
-0.38458431 -0.20723237 0.90796858 4278190080
-0.38339674 -0.20648476 0.90729731 4278190080
-0.38220915 -0.20573716 0.90662605 4278190080
-0.38102156 -0.20498954 0.90595478 4278190080
-0.379834 -0.20424192 0.90528345 4278190080
-0.37864637 -0.2034943 0.90461218 4278190080
-0.37573498 -0.20407711 0.90351868 4278190080
-0.37455007 -0.20333117 0.9028489 4278190080
-0.36960649 -0.20384239 0.90088278 4278190080
-0.36842558 -0.20309897 0.90021527 4278190080
-0.36724463 -0.20235552 0.8995477 4278190080
-0.36264801 -0.204293 0.89805377 4278190080
-0.3614724 -0.2035529 0.89738929 4278190080
-0.36029679 -0.20281284 0.89672476 4278190080
-0.35912114 -0.20207274 0.89606023 4278190080
-0.35794553 -0.20133267 0.8953957 4278190080
-0.35676995 -0.20059259 0.89473122 4278190080
-0.35559431 -0.19985251 0.89406669 4278190080
-0.35441869 -0.19911243 0.89340216 4278190080
-0.35071322 -0.20040312 0.89213586 4278190080
-0.3495416 -0.19966555 0.89147359 4278190080
-0.34836996 -0.19892798 0.89081132 4278190080
-0.34551978 -0.19954926 0.88975245 4278190080
-0.34435081 -0.19881336 0.88909167 4278190080
-0.34150854 -0.19943969 0.88803726 4278190080
-0.34034225 -0.19870548 0.88737798 4278190080
-0.33750802 -0.1993368 0.8863281 4278190080
-0.33634436 -0.19860426 0.88567036 4278190080
-0.33268678 -0.19992509 0.88443112 4278190080
-0.33152711 -0.19919504 0.88377559 4278190080
-0.33036748 -0.19846502 0.88312012 4278190080
-0.32920778 -0.19773498 0.88246459 4278190080
-0.32804814 -0.19700494 0.88180912 4278190080
-0.3268885 -0.19627492 0.88115364 4278190080
-0.3240822 -0.19692382 0.8801195 4278190080
-0.32292518 -0.19619545 0.87946552 4278190080
-0.3201268 -0.19684942 0.87843591 4278190080
-0.31897247 -0.19612274 0.87778342 4278190080
-0.3067272 -0.18599842 0.87030959 4278190080
-0.3044132 -0.18454172 0.86900163 4278190080
-0.30325618 -0.18381335 0.86834764 4278190080
-0.29284319 -0.17725812 0.86246169 4278190080
-0.28705817 -0.1736163 0.85919172 4278190080
-0.28630042 -0.17072374 0.85821122 4278190080
-0.28514075 -0.1699937 0.85755575 4278190080
-0.28166175 -0.16780359 0.85558921 4278190080
-0.2581332 -0.15540732 0.84284192 4278190080
-0.25466222 -0.15322225 0.84087992 4278190080
-0.25350523 -0.15249389 0.84022593 4278190080
-0.25234821 -0.15176553 0.83957195 4278190080
-0.25119123 -0.15103717 0.83891791 4278190080
-0.25003421 -0.1503088 0.83826393 4278190080
-0.24887721 -0.14958045 0.83760995 4278190080
-0.24772021 -0.14885208 0.83695596 4278190080
-0.24656323 -0.14812374 0.83630198 4278190080
-0.24077822 -0.14448193 0.83303201 4278190080
-0.23962124 -0.14375357 0.83237803 4278190080
-0.23615023 -0.1415685 0.83041602 4278190080
-0.23411576 -0.1378722 0.82871389 4278190080
-0.2329561 -0.13714217 0.82805836 4278190080
-0.23394328 -0.13414025 0.82778817 4278190080
-0.23277964 -0.13340771 0.82713044 4278190080
-0.23161599 -0.13267516 0.82647264 4278190080
-0.23045234 -0.13194261 0.8258149 4278190080
-0.2292887 -0.13121007 0.82515717 4278190080
-0.22599815 -0.13276197 0.82412541 4278190080
-0.22483848 -0.13203193 0.82346988 4278190080
-0.22367883 -0.13130189 0.8228144 4278190080
-0.22251917 -0.13057187 0.82215893 4278190080
-0.22135952 -0.12984183 0.8215034 4278190080
-0.22019985 -0.1291118 0.82084793 4278190080
-0.21904019 -0.12838176 0.8201924 4278190080
-0.36361408 -0.202916 0.89981997 4278190080
-0.36073232 -0.20351642 0.89873922 4278190080
-0.3595567 -0.20277634 0.89807469 4278190080
-0.35838106 -0.20203626 0.89741015 4278190080
-0.35720545 -0.20129618 0.89674568 4278190080
-0.35602987 -0.2005561 0.89608115 4278190080
-0.35485423 -0.19981602 0.89541662 4278190080
-0.35367861 -0.19907594 0.89475209 4278190080
-0.34997565 -0.20036675 0.89348125 4278190080
-0.34880403 -0.19962919 0.89281899 4278190080
-0.34763241 -0.19889162 0.89215672 4278190080
-0.3447839 -0.19951297 0.89109474 4278190080
-0.34361494 -0.19877708 0.89043397 4278190080
-0.34077433 -0.19940349 0.88937652 4278190080
-0.33960801 -0.19866928 0.88871723 4278190080
-0.33844173 -0.19793506 0.88805801 4278190080
-0.33561182 -0.19856814 0.88700652 4278190080
-0.33444819 -0.19783559 0.88634878 4278190080
-0.33328453 -0.19710304 0.88569105 4278190080
-0.32963744 -0.19842903 0.88445175 4278190080
-0.32847774 -0.19769898 0.88379622 4278190080
-0.3273181 -0.19696894 0.88314074 4278190080
-0.32451081 -0.19761626 0.88210207 4278190080
-0.32335383 -0.19688791 0.88144809 4278190080
-0.32219681 -0.19615954 0.88079405 4278190080
-0.3177605 -0.19819596 0.87938273 4278190080
-0.31660882 -0.19747096 0.87873179 4278190080
-0.31545711 -0.19674595 0.87808079 4278190080
-0.31430542 -0.19602092 0.87742978 4278190080
-0.31315374 -0.19529592 0.87677878 4278190080
-0.31200206 -0.19457091 0.87612778 4278190080
-0.31085041 -0.1938459 0.87547684 4278190080
-0.29977635 -0.18445995 0.86866909 4278190080
-0.29862201 -0.18373327 0.8680166 4278190080
-0.29789981 -0.18086399 0.86706024 4278190080
-0.28170183 -0.17066696 0.85790431 4278190080
-0.25971887 -0.15682814 0.84547842 4278190080
-0.25360277 -0.15539254 0.84256947 4278190080
-0.25244844 -0.15466587 0.84191698 4278190080
-0.25129411 -0.15393919 0.84126449 4278190080
-0.25013974 -0.15321249 0.84061199 4278190080
-0.24898541 -0.1524858 0.8399595 4278190080
-0.24783108 -0.15175912 0.83930701 4278190080
-0.24667674 -0.15103243 0.83865458 4278190080
-0.24552238 -0.15030575 0.83800203 4278190080
-0.24436806 -0.14957906 0.83734959 4278190080
-0.24321373 -0.14885238 0.8366971 4278190080
-0.24090503 -0.14739901 0.83539212 4278190080
-0.2397507 -0.14667232 0.83473963 4278190080
-0.23657887 -0.14226094 0.83239859 4278190080
-0.23542188 -0.14153259 0.83174461 4278190080
-0.23426487 -0.14080422 0.83109057 4278190080
-0.23310786 -0.14007586 0.83043659 4278190080
-0.22758742 -0.13418604 0.82676804 4278190080
-0.22642778 -0.13345602 0.82611251 4278190080
-0.22526811 -0.13272597 0.82545704 4278190080
-0.22269489 -0.13352063 0.82455063 4278190080
-0.22153789 -0.13279228 0.82389665 4278190080
-0.22038087 -0.13206391 0.82324266 4278190080
-0.21922389 -0.13133556 0.82258868 4278190080
-0.21690987 -0.12987882 0.82128066 4278190080
-0.21575288 -0.12915048 0.82062668 4278190080
-0.35999224 -0.20347993 0.90008914 4278190080
-0.35881662 -0.20273985 0.89942461 4278190080
-0.35764101 -0.20199977 0.89876008 4278190080
-0.3564654 -0.20125969 0.89809561 4278190080
-0.35528979 -0.20051962 0.89743108 4278190080
-0.35411415 -0.19977953 0.89676654 4278190080
-0.35293853 -0.19903946 0.89610201 4278190080
-0.35176292 -0.19829936 0.89543748 4278190080
-0.34806645 -0.19959283 0.89416432 4278190080
-0.34689483 -0.19885525 0.89350206 4278190080
-0.34404799 -0.19947669 0.89243704 4278190080
-0.34287903 -0.19874081 0.89177626 4278190080
-0.34004012 -0.1993673 0.89071572 4278190080
-0.3388738 -0.19863307 0.89005649 4278190080
-0.33770749 -0.19789886 0.8893972 4278190080
-0.33654118 -0.19716464 0.88873798 4278190080
-0.33371565 -0.19779947 0.887685 4278190080
-0.33255196 -0.19706692 0.8870272 4278190080
-0.3289074 -0.19839303 0.88578337 4278190080
-0.3277477 -0.19766299 0.88512784 4278190080
-0.32658806 -0.19693296 0.88447237 4278190080
-0.32378244 -0.19758035 0.8834306 4278190080
-0.3209821 -0.19823113 0.88239187 4278190080
-0.31982777 -0.19750445 0.88173938 4278190080
-0.31703547 -0.19816022 0.88070518 4278190080
-0.31588379 -0.19743522 0.88005424 4278190080
-0.3147321 -0.1967102 0.87940323 4278190080
-0.31358039 -0.19598517 0.87875223 4278190080
-0.31242874 -0.19526017 0.87810123 4278190080
-0.31127706 -0.19453517 0.87745029 4278190080
-0.31012538 -0.19381015 0.87679929 4278190080
-0.3073543 -0.19447935 0.87577707 4278190080
-0.30436701 -0.1901851 0.87354434 4278190080
-0.30482134 -0.18805754 0.87325704 4278190080
-0.30366701 -0.18733086 0.87260455 4278190080
-0.30251268 -0.18660417 0.87195206 4278190080
-0.30135834 -0.18587749 0.87129956 4278190080
-0.30020401 -0.1851508 0.87064707 4278190080
-0.29904968 -0.18442412 0.86999458 4278190080
-0.29674101 -0.18297076 0.8686896 4278190080
-0.29558665 -0.18224406 0.8680371 4278190080
-0.29327798 -0.18079069 0.86673212 4278190080
-0.29212365 -0.18006401 0.86607963 4278190080
-0.29096928 -0.17933732 0.86542714 4278190080
-0.28981495 -0.17861064 0.86477464 4278190080
-0.28866062 -0.17788395 0.86412215 4278190080
-0.28173456 -0.17352384 0.86020726 4278190080
-0.28058022 -0.17279716 0.85955477 4278190080
-0.27596286 -0.16989042 0.8569448 4278190080
-0.26326513 -0.16189688 0.84976739 4278190080
-0.2621108 -0.1611702 0.84911489 4278190080
-0.26095647 -0.16044351 0.8484624 4278190080
-0.25287607 -0.15535671 0.84389502 4278190080
-0.25172174 -0.15463004 0.84324253 4278190080
-0.25056741 -0.15390335 0.84259003 4278190080
-0.24941306 -0.15317665 0.84193754 4278190080
-0.24825872 -0.15244998 0.84128505 4278190080
-0.24563134 -0.15320955 0.84034401 4278190080
-0.24447964 -0.15248454 0.83969307 4278190080
-0.24479569 -0.15026991 0.83932757 4278190080
-0.2410246 -0.15030952 0.83774006 4278190080
-0.23987293 -0.1495845 0.83708912 4278190080
-0.23671533 -0.14518312 0.83476013 4278190080
-0.23440665 -0.14372976 0.83345515 4278190080
-0.23325232 -0.14300308 0.83280265 4278190080
-0.22748061 -0.13936964 0.82954019 4278190080
-0.22543752 -0.1356698 0.82784122 4278190080
-0.22428052 -0.13494144 0.82718718 4278190080
-0.22312352 -0.13421308 0.8265332 4278190080
-0.22196652 -0.13348472 0.82587922 4278190080
-0.21940024 -0.13428284 0.82497281 4278190080
-0.21849552 -0.13129964 0.82391721 4278190080
-0.21593723 -0.13210279 0.82301533 4278190080
-0.21478289 -0.13137612 0.82236284 4278190080
-0.21247421 -0.12992275 0.82105786 4278190080
-0.21131986 -0.12919605 0.82040536 4278190080
-0.35690093 -0.20196328 0.90011001 4278190080
-0.35572532 -0.20122321 0.89944553 4278190080
-0.35454971 -0.20048313 0.898781 4278190080
-0.35337406 -0.19974303 0.89811647 4278190080
-0.35219845 -0.19900297 0.897452 4278190080
-0.35102284 -0.19826287 0.89678746 4278190080
-0.34984723 -0.1975228 0.89612293 4278190080
-0.34214312 -0.19870453 0.89311862 4278190080
-0.33930588 -0.19933109 0.89205498 4278190080
-0.33813959 -0.19859688 0.89139575 4278190080
-0.33863622 -0.19649683 0.89113629 4278190080
-0.33746725 -0.19576094 0.89047557 4278190080
-0.33464065 -0.19639422 0.88941795 4278190080
-0.33065578 -0.19629827 0.88770568 4278190080
-0.32701766 -0.19762699 0.88645947 4278190080
-0.32421109 -0.19827279 0.88541317 4278190080
-0.32140976 -0.19892199 0.88436991 4278190080
-0.32025543 -0.19819531 0.88371742 4278190080
-0.3191011 -0.19746862 0.88306493 4278190080
-0.31631047 -0.19812448 0.88202763 4278190080
-0.31515878 -0.19739947 0.88137668 4278190080
-0.3140071 -0.19667445 0.88072568 4278190080
-0.31285539 -0.19594944 0.88007468 4278190080
-0.31170374 -0.19522442 0.87942368 4278190080
-0.30892903 -0.19589037 0.87839544 4278190080
-0.30778 -0.19516702 0.87774593 4278190080
-0.30663094 -0.19444367 0.87709647 4278190080
-0.30318388 -0.19227368 0.875148 4278190080
-0.303642 -0.19014937 0.87486678 4278190080
-0.30249029 -0.18942434 0.87421578 4278190080
-0.30133861 -0.18869932 0.87356478 4278190080
-0.30018693 -0.18797432 0.87291384 4278190080
-0.29903525 -0.1872493 0.87226284 4278190080
-0.29788357 -0.1865243 0.87161183 4278190080
-0.29673192 -0.18579929 0.87096089 4278190080
-0.29558021 -0.18507427 0.87030989 4278190080
-0.29601431 -0.18293492 0.87001514 4278190080
-0.29485995 -0.18220824 0.86936259 4278190080
-0.2921252 -0.18289925 0.86835694 4278190080
-0.28867012 -0.1807242 0.86640394 4278190080
-0.28636679 -0.17927419 0.86510199 4278190080
-0.28060839 -0.17564914 0.86184704 4278190080
-0.27715334 -0.1734741 0.8598941 4278190080
-0.27600166 -0.17274909 0.85924309 4278190080
-0.27523619 -0.1698546 0.85827029 4278190080
-0.27408186 -0.16912791 0.8576178 4278190080
-0.26563653 -0.166224 0.85338426 4278190080
-0.26218149 -0.16404897 0.85143125 4278190080
-0.25987816 -0.16259895 0.85012931 4278190080
-0.25872648 -0.16187394 0.8494783 4278190080
-0.25181639 -0.15752387 0.84557241 4278190080
-0.25066471 -0.15679885 0.84492141 4278190080
-0.24951303 -0.15607385 0.84427041 4278190080
-0.24836135 -0.15534884 0.84361941 4278190080
-0.24720967 -0.15462382 0.84296846 4278190080
-0.246058 -0.15389882 0.84231746 4278190080
-0.24490632 -0.15317382 0.84166646 4278190080
-0.24375463 -0.15244879 0.84101546 4278190080
-0.24260294 -0.15172377 0.84036452 4278190080
-0.2402996 -0.15027377 0.83906251 4278190080
-0.23914793 -0.14954875 0.83841157 4278190080
-0.23799624 -0.14882374 0.83776057 4278190080
-0.23684455 -0.14809874 0.83710957 4278190080
-0.23569287 -0.14737372 0.83645856 4278190080
-0.23454119 -0.14664871 0.83580762 4278190080
-0.23338953 -0.1459237 0.83515662 4278190080
-0.23223783 -0.14519869 0.83450562 4278190080
-0.22647943 -0.14157362 0.83125067 4278190080
-0.22532776 -0.14084862 0.83059973 4278190080
-0.22417608 -0.14012362 0.82994872 4278190080
-0.22444525 -0.13788044 0.82956076 4278190080
-0.22329092 -0.13715376 0.82890826 4278190080
-0.22213657 -0.13642707 0.82825577 4278190080
-0.22098224 -0.13570039 0.82760328 4278190080
-0.21982789 -0.1349737 0.82695079 4278190080
-0.21867356 -0.13424702 0.8262983 4278190080
-0.21751921 -0.13352033 0.8256458 4278190080
-0.21636488 -0.13279365 0.82499331 4278190080
-0.21521054 -0.13206697 0.82434082 4278190080
-0.21405621 -0.13134028 0.82368833 4278190080
-0.21290186 -0.1306136 0.82303584 4278190080
-0.21174753 -0.12988691 0.82238334 4278190080
-0.21059318 -0.12916023 0.82173085 4278190080
-0.32068306 -0.19888616 0.8856954 4278190080
-0.31952873 -0.19815947 0.88504291 4278190080
-0.31673712 -0.19881374 0.88400108 4278190080
-0.31558546 -0.19808874 0.88335007 4278190080
-0.31280175 -0.19874804 0.88231277 4278190080
-0.31165275 -0.19802472 0.88166326 4278190080
-0.31050369 -0.19730137 0.88101381 4278190080
-0.30935469 -0.19657804 0.8803643 4278190080
-0.30820566 -0.19585471 0.87971485 4278190080
-0.30429161 -0.19580235 0.87803859 4278190080
-0.30475861 -0.19368468 0.87776637 4278190080
-0.30360958 -0.19296135 0.87711692 4278190080
-0.30246055 -0.192238 0.87646741 4278190080
-0.30131155 -0.19151467 0.87581795 4278190080
-0.30176529 -0.18938859 0.87553823 4278190080
-0.30061358 -0.18866357 0.87488723 4278190080
-0.2994619 -0.18793857 0.87423629 4278190080
-0.29671547 -0.18862134 0.87322003 4278190080
-0.29211938 -0.18572798 0.8706221 4278190080
-0.29255185 -0.1835885 0.87033033 4278190080
-0.28982133 -0.1842813 0.86932307 4278190080
-0.28867233 -0.18355799 0.86867362 4278190080
-0.28564176 -0.17923844 0.86642444 4278190080
-0.28177822 -0.17921796 0.86477673 4278190080
-0.28062919 -0.17849462 0.86412722 4278190080
-0.27527663 -0.17271334 0.86056554 4278190080
-0.27412495 -0.17198834 0.8599146 4278190080
-0.2729733 -0.17126332 0.8592636 4278190080
-0.27182162 -0.17053832 0.8586126 4278190080
-0.26913899 -0.17126127 0.8576324 4278190080
-0.26145649 -0.16401322 0.8527537 4278190080
-0.26030481 -0.16328821 0.85210276 4278190080
-0.25915316 -0.1625632 0.85145175 4278190080
-0.25800145 -0.16183819 0.85080075 4278190080
-0.2568498 -0.16111319 0.85014981 4278190080
-0.25569808 -0.16038816 0.84949881 4278190080
-0.2545464 -0.15966316 0.84884781 4278190080
-0.25339472 -0.15893814 0.8481968 4278190080
-0.25224307 -0.15821314 0.84754586 4278190080
-0.25109139 -0.15748812 0.84689486 4278190080
-0.2499397 -0.15676311 0.84624386 4278190080
-0.24878801 -0.15603811 0.84559286 4278190080
-0.24763633 -0.15531309 0.84494185 4278190080
-0.24500959 -0.1560712 0.84399331 4278190080
-0.24386056 -0.15534787 0.84334379 4278190080
-0.24156252 -0.1539012 0.84204483 4278190080
-0.24041349 -0.15317786 0.84139532 4278190080
-0.23811544 -0.15173118 0.84009635 4278190080
-0.23727122 -0.14878799 0.83908302 4278190080
-0.23611954 -0.14806299 0.83843201 4278190080
-0.23496786 -0.14733797 0.83778101 4278190080
-0.23237035 -0.1481145 0.83684897 4278190080
-0.23122133 -0.14739117 0.83619946 4278190080
-0.23007232 -0.14666784 0.83555001 4278190080
-0.22892329 -0.14594449 0.8349005 4278190080
-0.22777428 -0.14522116 0.83425105 4278190080
-0.22547624 -0.14377448 0.83295208 4278190080
-0.22432722 -0.14305115 0.83230257 4278190080
-0.22202918 -0.14160448 0.83100361 4278190080
-0.22229938 -0.13936286 0.83062017 4278190080
-0.22114772 -0.13863784 0.82996923 4278190080
-0.21999602 -0.13791284 0.82931823 4278190080
-0.22025555 -0.13566457 0.82892877 4278190080
-0.21910121 -0.13493787 0.82827628 4278190080
-0.21794687 -0.1342112 0.82762378 4278190080
-0.21679252 -0.1334845 0.82697129 4278190080
-0.21563819 -0.13275781 0.8263188 4278190080
-0.21448386 -0.13203114 0.82566631 4278190080
-0.21332952 -0.13130446 0.82501382 4278190080
-0.21217518 -0.13057777 0.82436132 4278190080
-0.20963091 -0.13138774 0.82345933 4278190080
-0.20871216 -0.12839772 0.82240385 4278190080
-0.31880206 -0.19812365 0.88636839 4278190080
-0.31601211 -0.19877799 0.88532352 4278190080
-0.31322742 -0.19943571 0.88428164 4278190080
-0.31207842 -0.19871238 0.88363218 4278190080
-0.31092942 -0.19798905 0.88298267 4278190080
-0.30978036 -0.1972657 0.88233316 4278190080
-0.30700904 -0.19793177 0.88129884 4278190080
-0.30471632 -0.19648844 0.88000292 4278190080
-0.30356994 -0.19576678 0.87935489 4278190080
-0.30403528 -0.19364902 0.87908578 4278190080
-0.30288625 -0.19292569 0.87843627 4278190080
-0.30013087 -0.19360179 0.87741095 4278190080
-0.29898453 -0.19288014 0.87676299 4278190080
-0.29829019 -0.19003235 0.87583834 4278190080
-0.29714116 -0.189309 0.87518889 4278190080
-0.29024705 -0.18496899 0.871292 4278190080
-0.28752092 -0.18566351 0.87028319 4278190080
-0.28522819 -0.18422019 0.86898726 4278190080
-0.28565097 -0.18207565 0.86869407 4278190080
-0.28450194 -0.18135232 0.86804456 4278190080
-0.28335291 -0.18062897 0.86739504 4278190080
-0.28220388 -0.17990564 0.86674559 4278190080
-0.28105488 -0.17918231 0.86609614 4278190080
-0.27990586 -0.17845896 0.86544663 4278190080
-0.27875683 -0.17773563 0.86479717 4278190080
-0.27760783 -0.17701229 0.86414766 4278190080
-0.27376458 -0.17700356 0.86250746 4278190080
-0.27032551 -0.17483859 0.86056352 4278190080
-0.26917914 -0.17411691 0.85991549 4278190080
-0.26803279 -0.17339526 0.85926753 4278190080
-0.26459369 -0.17123027 0.85732359 4278190080
-0.25807446 -0.16471557 0.85310644 4278190080
-0.25692546 -0.16399224 0.85245699 4278190080
-0.25577644 -0.16326891 0.85180748 4278190080
-0.25462741 -0.16254556 0.85115802 4278190080
-0.25347841 -0.16182223 0.85050851 4278190080
-0.2538214 -0.15962741 0.85017025 4278190080
-0.25266972 -0.15890239 0.84951925 4278190080
-0.24658428 -0.15748221 0.84661162 4278190080
-0.2416665 -0.15679702 0.84436399 4278190080
-0.23937377 -0.15535371 0.84306806 4278190080
-0.23708107 -0.15391038 0.84177208 4278190080
-0.2359347 -0.15318872 0.84112412 4278190080
-0.2362431 -0.15097219 0.84076625 4278190080
-0.23509409 -0.15024884 0.8401168 4278190080
-0.23279604 -0.14880218 0.83881783 4278190080
-0.23164701 -0.14807884 0.83816832 4278190080
-0.230498 -0.1473555 0.83751887 4278190080
-0.22934899 -0.14663216 0.83686936 4278190080
-0.22360389 -0.14301549 0.83362198 4278190080
-0.22245486 -0.14229214 0.83297247 4278190080
-0.22130585 -0.14156882 0.83232301 4278190080
-0.22015682 -0.14084548 0.8316735 4278190080
-0.2190078 -0.14012215 0.83102405 4278190080
-0.21785878 -0.1393988 0.83037454 4278190080
-0.21811932 -0.13715208 0.82998967 4278190080
-0.21696766 -0.13642707 0.82933867 4278190080
-0.21581598 -0.13570206 0.82868773 4278190080
-0.2146643 -0.13497704 0.82803673 4278190080
-0.21351261 -0.13425203 0.82738572 4278190080
-0.21236093 -0.13352703 0.82673472 4278190080
-0.21120925 -0.13280201 0.82608378 4278190080
-0.21005759 -0.13207701 0.82543278 4278190080
-0.20890589 -0.13135199 0.82478178 4278190080
-0.20775421 -0.13062698 0.82413077 4278190080
-0.20660254 -0.12990198 0.82347983 4278190080
-0.31365311 -0.20012338 0.8862505 4278190080
-0.31250408 -0.19940005 0.88560104 4278190080
-0.31135508 -0.19867672 0.88495153 4278190080
-0.31020606 -0.19795339 0.88430208 4278190080
-0.30905703 -0.19723004 0.88365257 4278190080
-0.30628738 -0.19789618 0.88261515 4278190080
-0.305141 -0.19717452 0.88196719 4278190080
-0.29940921 -0.19356622 0.87872732 4278190080
-0.29826286 -0.19284455 0.8780793 4278190080
-0.29711649 -0.19212289 0.87743133 4278190080
-0.29597014 -0.19140123 0.87678337 4278190080
-0.29129031 -0.19206978 0.87493032 4278190080
-0.28794563 -0.1863496 0.87224752 4278190080
-0.28679925 -0.18562794 0.8715995 4278190080
-0.28565291 -0.18490627 0.87095153 4278190080
-0.28450653 -0.18418461 0.87030357 4278190080
-0.28336018 -0.18346295 0.86965561 4278190080
-0.28377861 -0.18131664 0.86936396 4278190080
-0.28106746 -0.18201962 0.86835963 4278190080
-0.27992108 -0.18129796 0.86771166 4278190080
-0.27877474 -0.18057631 0.8670637 4278190080
-0.27762839 -0.17985465 0.86641568 4278190080
-0.27648202 -0.17913298 0.86576772 4278190080
-0.27533564 -0.1784113 0.86511976 4278190080
-0.27418929 -0.17768964 0.86447173 4278190080
-0.27304295 -0.17696798 0.86382377 4278190080
-0.2638734 -0.17481019 0.85943294 4278190080
-0.26157933 -0.16975136 0.85734397 4278190080
-0.25584754 -0.16614306 0.8541041 4278190080
-0.2547012 -0.1654214 0.85345608 4278190080
-0.24782301 -0.16109143 0.84956825 4278190080
-0.24667665 -0.16036977 0.84892023 4278190080
-0.23874125 -0.15898886 0.845227 4278190080
-0.23531415 -0.15683143 0.84328985 4278190080
-0.2330294 -0.15539312 0.8419984 4278190080
-0.23406669 -0.15243149 0.84179246 4278190080
-0.23292033 -0.15170982 0.8411445 4278190080
-0.23177397 -0.15098816 0.84049648 4278190080
-0.23062761 -0.1502665 0.83984852 4278190080
-0.22948125 -0.14954484 0.83920056 4278190080
-0.22833489 -0.14882317 0.83855253 4278190080
-0.22718853 -0.14810151 0.83790457 4278190080
-0.22389044 -0.14963992 0.83683258 4278190080
-0.22274807 -0.14892077 0.83618689 4278190080
-0.22145674 -0.14449321 0.8346647 4278190080
-0.22031038 -0.14377154 0.83401668 4278190080
-0.21916401 -0.14304988 0.83336872 4278190080
-0.21943349 -0.1408098 0.83299291 4278190080
-0.21687129 -0.14160655 0.83207279 4278190080
-0.21572493 -0.14088489 0.83142477 4278190080
-0.21598642 -0.13863981 0.83104444 4278190080
-0.21483742 -0.13791648 0.83039498 4278190080
-0.21368837 -0.13719313 0.82974547 4278190080
-0.21253936 -0.1364698 0.82909602 4278190080
-0.21139035 -0.13574645 0.82844651 4278190080
-0.21024133 -0.13502313 0.82779706 4278190080
-0.2090923 -0.13429978 0.82714754 4278190080
-0.20794329 -0.13357645 0.82649809 4278190080
-0.20679426 -0.13285311 0.82584858 4278190080
-0.20564525 -0.13212977 0.82519913 4278190080
-0.20449623 -0.13140644 0.82454962 4278190080
-0.31178075 -0.19936438 0.88692045 4278190080
-0.31063175 -0.19864105 0.88627094 4278190080
-0.30785844 -0.19930393 0.8852275 4278190080
-0.30671206 -0.19858226 0.88457948 4278190080
-0.30556571 -0.1978606 0.88393152 4278190080
-0.29628301 -0.19563007 0.87947071 4278190080
-0.29514065 -0.19491094 0.87882501 4278190080
-0.29399827 -0.19419178 0.87817925 4278190080
-0.29285589 -0.19347262 0.87753356 4278190080
-0.29171354 -0.19275348 0.8768878 4278190080
-0.2848593 -0.18843858 0.87301344 4278190080
-0.28371692 -0.18771943 0.87236774 4278190080
-0.28257456 -0.18700027 0.87172198 4278190080
-0.28143218 -0.18628111 0.87107629 4278190080
-0.28028983 -0.18556198 0.87043059 4278190080
-0.28149214 -0.1827057 0.87032396 4278190080
-0.27800506 -0.18412367 0.86913908 4278190080
-0.27690673 -0.17981906 0.86773205 4278190080
-0.26658136 -0.17693217 0.86268187 4278190080
-0.265439 -0.17621304 0.86203617 4278190080
-0.26429662 -0.17549387 0.86139041 4278190080
-0.26315427 -0.17477472 0.86074471 4278190080
-0.26201189 -0.17405558 0.86009896 4278190080
-0.26086953 -0.17333643 0.85945326 4278190080
-0.24716108 -0.16470662 0.85170454 4278190080
-0.24601869 -0.16398747 0.85105884 4278190080
-0.24373396 -0.16254917 0.84976739 4278190080
-0.2380221 -0.15895341 0.84653872 4278190080
-0.23687975 -0.15823427 0.84589303 4278190080
-0.23573735 -0.15751511 0.84524733 4278190080
-0.234595 -0.15679596 0.84460157 4278190080
-0.23116788 -0.15463851 0.84266442 4278190080
-0.23002551 -0.15391937 0.84201866 4278190080
-0.22888315 -0.15320021 0.84137297 4278190080
-0.22774078 -0.15248106 0.84072721 4278190080
-0.2265984 -0.1517619 0.84008151 4278190080
-0.22545603 -0.15104276 0.83943582 4278190080
-0.22431365 -0.1503236 0.83879006 4278190080
-0.22317128 -0.14960445 0.83814436 4278190080
-0.22202893 -0.14888531 0.83749861 4278190080
-0.22088654 -0.14816616 0.83685291 4278190080
-0.21974418 -0.147447 0.83620715 4278190080
-0.22073507 -0.14445762 0.83598101 4278190080
-0.21958871 -0.14373596 0.83533305 4278190080
-0.21844235 -0.1430143 0.83468509 4278190080
-0.21729597 -0.14229263 0.83403707 4278190080
-0.21614963 -0.14157097 0.8333891 4278190080
-0.21500327 -0.14084931 0.83274114 4278190080
-0.21385691 -0.14012764 0.83209318 4278190080
-0.21271054 -0.13940598 0.83144516 4278190080
-0.21156418 -0.13868432 0.8307972 4278190080
-0.21041782 -0.13796267 0.83014923 4278190080
-0.20927146 -0.13724101 0.82950121 4278190080
-0.209518 -0.13498746 0.82911646 4278190080
-0.20836896 -0.13426411 0.82846695 4278190080
-0.20721994 -0.13354078 0.8278175 4278190080
-0.20607093 -0.13281745 0.82716799 4278190080
-0.20492192 -0.13209412 0.82651854 4278190080
-0.20239331 -0.13291103 0.82561338 4278190080
-0.20124693 -0.13218936 0.82496536 4278190080
-0.28940368 -0.19412442 0.87782055 4278190080
-0.28414014 -0.18840311 0.87432522 4278190080
-0.2818554 -0.18696482 0.87303376 4278190080
-0.27842832 -0.18480738 0.87109661 4278190080
-0.27728593 -0.18408822 0.87045085 4278190080
-0.27344772 -0.18407975 0.86880147 4278190080
-0.27385882 -0.18193077 0.8685137 4278190080
-0.27271646 -0.18121162 0.86786795 4278190080
-0.27157408 -0.18049248 0.86722225 4278190080
-0.27043173 -0.17977332 0.86657649 4278190080
-0.26546973 -0.1790574 0.86429191 4278190080
-0.26205063 -0.17690499 0.86235929 4278190080
-0.26243511 -0.17473927 0.86205643 4278190080
-0.26129276 -0.17402011 0.86141074 4278190080
-0.26015037 -0.17330097 0.86076498 4278190080
-0.25900799 -0.17258181 0.86011928 4278190080
-0.25786564 -0.17186268 0.85947353 4278190080
-0.2555809 -0.17042436 0.85818207 4278190080
-0.25443852 -0.16970521 0.85753638 4278190080
-0.24723437 -0.16757779 0.85398436 4278190080
-0.24609467 -0.16686033 0.85334015 4278190080
-0.24495497 -0.16614285 0.85269594 4278190080
-0.24381524 -0.16542536 0.85205173 4278190080
-0.2441572 -0.16323286 0.85172486 4278190080
-0.24301481 -0.1625137 0.85107911 4278190080
-0.24187246 -0.16179456 0.85043341 4278190080
-0.24073009 -0.16107541 0.84978765 4278190080
-0.23958771 -0.16035625 0.84914196 4278190080
-0.23044874 -0.15460305 0.84397614 4278190080
-0.22930637 -0.1538839 0.84333044 4278190080
-0.22557987 -0.15394576 0.84174418 4278190080
-0.22444017 -0.15322828 0.84109998 4278190080
-0.22330046 -0.15251081 0.84045577 4278190080
-0.21988133 -0.15035838 0.83852309 4278190080
-0.21874161 -0.1496409 0.83787888 4278190080
-0.21788268 -0.14669241 0.83687317 4278190080
-0.2167403 -0.14597325 0.83622748 4278190080
-0.21559793 -0.14525411 0.83558172 4278190080
-0.21445556 -0.14453495 0.83493602 4278190080
-0.21331319 -0.1438158 0.83429027 4278190080
-0.21217082 -0.14309666 0.83364457 4278190080
-0.21313524 -0.14009207 0.83340949 4278190080
-0.21198888 -0.13937041 0.83276153 4278190080
-0.21084252 -0.13864875 0.8321135 4278190080
-0.20969616 -0.13792709 0.83146554 4278190080
-0.2085498 -0.13720542 0.83081758 4278190080
-0.20740344 -0.13648376 0.83016962 4278190080
-0.20625708 -0.1357621 0.8295216 4278190080
-0.20649661 -0.13350512 0.82913691 4278190080
-0.20396437 -0.13431878 0.82822567 4278190080
-0.20281801 -0.13359712 0.82757765 4278190080
-0.20167165 -0.13287546 0.82692969 4278190080
-0.28298765 -0.19050166 0.87590814 4278190080
-0.28184792 -0.18978417 0.87526393 4278190080
-0.27728909 -0.18691428 0.87268704 4278190080
-0.27614939 -0.1861968 0.87204283 4278190080
-0.27386996 -0.18476184 0.87075436 4278190080
-0.27273026 -0.18404438 0.87011015 4278190080
-0.27159056 -0.1833269 0.86946595 4278190080
-0.27045083 -0.18260942 0.86882174 4278190080
-0.2670317 -0.180457 0.86688906 4278190080
-0.265892 -0.17973952 0.86624485 4278190080
-0.26475227 -0.17902203 0.86560065 4278190080
-0.2636126 -0.17830457 0.86495644 4278190080
-0.26247287 -0.17758709 0.86431217 4278190080
-0.26133314 -0.17686962 0.86366796 4278190080
-0.26019344 -0.17615214 0.86302376 4278190080
-0.25905371 -0.17543465 0.86237949 4278190080
-0.25791401 -0.17471717 0.86173528 4278190080
-0.25677431 -0.17399971 0.86109108 4278190080
-0.25563461 -0.17328224 0.86044687 4278190080
-0.25449491 -0.17256476 0.85980266 4278190080
-0.25335518 -0.17184728 0.8591584 4278190080
-0.25221545 -0.17112981 0.85851419 4278190080
-0.25107574 -0.17041233 0.85786998 4278190080
-0.24993604 -0.16969486 0.85722578 4278190080
-0.24616331 -0.16972668 0.85560936 4278190080
-0.24275216 -0.16757928 0.85368121 4278190080
-0.24161512 -0.16686349 0.85303849 4278190080
-0.24195805 -0.16467252 0.85271621 4278190080
-0.24081837 -0.16395505 0.852072 4278190080
-0.23967864 -0.16323757 0.85142773 4278190080
-0.23853894 -0.1625201 0.85078353 4278190080
-0.23739922 -0.16180262 0.85013932 4278190080
-0.23625951 -0.16108514 0.84949511 4278190080
-0.23284037 -0.15893272 0.84756243 4278190080
-0.23056094 -0.15749775 0.84627396 4278190080
-0.22942124 -0.15678027 0.84562975 4278190080
-0.22972958 -0.1545676 0.84528792 4278190080
-0.22714183 -0.15534534 0.84434134 4278190080
-0.22600211 -0.15462786 0.84369713 4278190080
-0.2248624 -0.15391038 0.84305286 4278190080
-0.2237227 -0.15319291 0.84240866 4278190080
-0.22258298 -0.15247543 0.84176445 4278190080
-0.22144327 -0.15175796 0.84112024 4278190080
-0.22030357 -0.15104048 0.84047604 4278190080
-0.21916385 -0.150323 0.83983177 4278190080
-0.21802413 -0.14960553 0.83918756 4278190080
-0.21688443 -0.14888805 0.83854336 4278190080
-0.21716352 -0.14665695 0.83818495 4278190080
-0.21602114 -0.14593779 0.83753926 4278190080
-0.21487877 -0.14521864 0.8368935 4278190080
-0.2137364 -0.1444995 0.8362478 4278190080
-0.21259403 -0.14378035 0.83560205 4278190080
-0.21145166 -0.14306119 0.83495635 4278190080
-0.21030928 -0.14234205 0.83431059 4278190080
-0.20916691 -0.1416229 0.83366489 4278190080
-0.20802455 -0.14090374 0.83301914 4278190080
-0.20688218 -0.1401846 0.83237344 4278190080
-0.20782813 -0.13716984 0.83213389 4278190080
-0.20668177 -0.13644817 0.83148593 4278190080
-0.20345508 -0.13802715 0.83043629 4278190080
-0.20231271 -0.137308 0.82979053 4278190080
-0.20117033 -0.13658884 0.82914484 4278190080
-0.20002796 -0.1358697 0.82849908 4278190080
-0.28025645 -0.1940103 0.87710291 4278190080
-0.28069609 -0.19188124 0.87683928 4278190080
-0.28113046 -0.18974879 0.87657261 4278190080
-0.27842197 -0.19044964 0.87555385 4278190080
-0.27728492 -0.18973383 0.87491113 4278190080
-0.27543193 -0.18616143 0.87335151 4278190080
-0.2742922 -0.18544394 0.87270731 4278190080
-0.27087307 -0.18329152 0.87077463 4278190080
-0.26973337 -0.18257405 0.87013042 4278190080
-0.26859367 -0.18185657 0.86948621 4278190080
-0.26745394 -0.1811391 0.86884201 4278190080
-0.26631424 -0.18042162 0.86819774 4278190080
-0.26364034 -0.18114424 0.86719853 4278190080
-0.26250327 -0.18042842 0.86655581 4278190080
-0.26022917 -0.17899683 0.86527038 4278190080
-0.25909212 -0.17828101 0.8646276 4278190080
-0.25947598 -0.17611676 0.86433244 4278190080
-0.25833625 -0.17539927 0.86368823 4278190080
-0.25568098 -0.17613362 0.86269951 4278190080
-0.25454393 -0.17541781 0.86205673 4278190080
-0.25377741 -0.17252938 0.86111134 4278190080
-0.25113276 -0.1732704 0.86012858 4278190080
-0.24999572 -0.17255461 0.85948592 4278190080
-0.24885865 -0.17183879 0.85884315 4278190080
-0.24772163 -0.17112301 0.85820049 4278190080
-0.24168713 -0.16972996 0.85530162 4278190080
-0.23828396 -0.16758759 0.85337794 4278190080
-0.2386252 -0.16539659 0.8530587 4278190080
-0.23748815 -0.16468078 0.85241598 4278190080
-0.2363511 -0.16396499 0.85177326 4278190080
-0.23180291 -0.16110179 0.84920239 4278190080
-0.23212291 -0.15889734 0.84887111 4278190080
-0.2309832 -0.15817986 0.8482269 4278190080
-0.22984347 -0.15746237 0.8475827 4278190080
-0.22870377 -0.15674491 0.84693849 4278190080
-0.22756407 -0.15602744 0.84629428 4278190080
-0.22642435 -0.15530996 0.84565002 4278190080
-0.2227065 -0.15537538 0.84406066 4278190080
-0.22156943 -0.15465957 0.84341794 4278190080
-0.22043239 -0.15394376 0.84277523 4278190080
-0.21929534 -0.15322796 0.84213251 4278190080
-0.21958609 -0.1510051 0.84178472 4278190080
-0.21844637 -0.15028763 0.84114051 4278190080
-0.21588418 -0.15108055 0.84020436 4278190080
-0.21644437 -0.1466215 0.83949673 4278190080
-0.21530199 -0.14590234 0.83885098 4278190080
-0.21415962 -0.14518319 0.83820528 4278190080
-0.21301726 -0.14446403 0.83755952 4278190080
-0.21187489 -0.14374489 0.83691382 4278190080
-0.20932868 -0.14454782 0.83598673 4278190080
-0.20818897 -0.14383034 0.83534247 4278190080
-0.20704928 -0.14311287 0.83469826 4278190080
-0.20590957 -0.14239539 0.83405405 4278190080
-0.20476983 -0.14167792 0.83340985 4278190080
-0.20363015 -0.14096044 0.83276564 4278190080
-0.20249043 -0.14024296 0.83212137 4278190080
-0.20135072 -0.13952549 0.83147717 4278190080
-0.200211 -0.13880801 0.83083296 4278190080
-0.29509261 -0.210979 0.88871974 4278190080
-0.29315498 -0.20254461 0.88610005 4278190080
-0.2784079 -0.19326095 0.87776428 4278190080
-0.27884322 -0.19113015 0.8775022 4278190080
-0.27770618 -0.19041434 0.87685949 4278190080
-0.26974684 -0.18540373 0.87236047 4278190080
-0.26860979 -0.18468794 0.87171775 4278190080
-0.26747274 -0.18397214 0.87107503 4278190080
-0.26633567 -0.18325633 0.87043232 4278190080
-0.26519862 -0.18254054 0.8697896 4278190080
-0.26406157 -0.18182473 0.86914688 4278190080
-0.26292455 -0.18110894 0.86850417 4278190080
-0.26178747 -0.18039313 0.86786145 4278190080
-0.26065043 -0.17967734 0.86721873 4278190080
-0.2579889 -0.18040667 0.86622244 4278190080
-0.25723928 -0.17752993 0.86529058 4278190080
-0.25610223 -0.17681412 0.86464787 4278190080
-0.25496519 -0.17609833 0.86400515 4278190080
-0.24514702 -0.17472734 0.85947174 4278190080
-0.24551056 -0.17255126 0.85916907 4278190080
-0.240973 -0.16969475 0.85660422 4278190080
-0.23530105 -0.16612412 0.85339814 4278190080
-0.23222415 -0.16178229 0.85115075 4278190080
-0.2310871 -0.16106649 0.85050803 4278190080
-0.22995004 -0.16035068 0.84986532 4278190080
-0.22736031 -0.16112524 0.84890962 4278190080
-0.2265389 -0.15820329 0.84793717 4278190080
-0.22540185 -0.15748748 0.84729445 4278190080
-0.2242648 -0.15677167 0.84665173 4278190080
-0.22168836 -0.1575546 0.84570354 4278190080
-0.22055396 -0.15684047 0.84506238 4278190080
-0.21828519 -0.15541223 0.84377992 4278190080
-0.21715079 -0.15469809 0.84313869 4278190080
-0.21630543 -0.15176107 0.84215271 4278190080
-0.21374762 -0.1525557 0.84121507 4278190080
-0.21261322 -0.15184158 0.84057385 4278190080
-0.21289428 -0.14961366 0.84022456 4278190080
-0.21175724 -0.14889786 0.83958185 4278190080
-0.21062018 -0.14818206 0.83893913 4278190080
-0.20948313 -0.14746626 0.83829641 4278190080
-0.20834608 -0.14675045 0.8376537 4278190080
-0.20720904 -0.14603466 0.83701098 4278190080
-0.20607199 -0.14531885 0.83636826 4278190080
-0.20633179 -0.14307749 0.836007 4278190080
-0.20379788 -0.14388725 0.83508283 4278190080
-0.20266083 -0.14317144 0.83444011 4278190080
-0.20152378 -0.14245565 0.8337974 4278190080
-0.20038672 -0.14173985 0.83315468 4278190080
-0.19148214 -0.12771708 0.82634288 4278190080
-0.29388598 -0.21303478 0.89023608 4278190080
-0.2943835 -0.21094404 0.89001316 4278190080
-0.29325709 -0.21023493 0.88937646 4278190080
-0.29374659 -0.20813921 0.88914901 4278190080
-0.2926175 -0.20742843 0.88851076 4278190080
-0.29148844 -0.20671766 0.88787258 4278190080
-0.29035935 -0.20600687 0.88723439 4278190080
-0.28923029 -0.20529608 0.88659614 4278190080
-0.28810123 -0.20458531 0.88595796 4278190080
-0.28744036 -0.2017654 0.88508028 4278190080
-0.28630865 -0.20105296 0.88444054 4278190080
-0.28064999 -0.19749069 0.88124204 4278190080
-0.2783865 -0.19606578 0.87996256 4278190080
-0.27725479 -0.19535334 0.87932289 4278190080
-0.27655938 -0.19251162 0.87842566 4278190080
-0.27542502 -0.19179749 0.87778443 4278190080
-0.27429062 -0.19108337 0.8771432 4278190080
-0.27088743 -0.18894099 0.87521958 4278190080
-0.26748431 -0.18679862 0.87329596 4278190080
-0.26789397 -0.18465264 0.87302339 4278190080
-0.26521549 -0.18537034 0.87201351 4278190080
-0.26408109 -0.18465623 0.87137228 4278190080
-0.26294672 -0.18394211 0.87073106 4278190080
-0.26181233 -0.18322797 0.87008989 4278190080
-0.26220873 -0.18107365 0.86980981 4278190080
-0.26107168 -0.18035783 0.86916709 4278190080
-0.25688362 -0.18252918 0.8678081 4278190080
-0.25462013 -0.18110427 0.86652863 4278190080
-0.24556632 -0.17540467 0.86141098 4278190080
-0.24443458 -0.1746922 0.86077124 4278190080
-0.24330284 -0.17397974 0.86013156 4278190080
-0.24217109 -0.17326729 0.85949183 4278190080
-0.23424898 -0.16828012 0.85501385 4278190080
-0.23458692 -0.16608891 0.85470074 4278190080
-0.23345253 -0.16537479 0.85405952 4278190080
-0.23231815 -0.16466066 0.85341829 4278190080
-0.23004937 -0.16323242 0.8521359 4278190080
-0.22891496 -0.16251828 0.85149467 4278190080
-0.2240634 -0.16186805 0.84925646 4278190080
-0.22066821 -0.15973069 0.84733737 4278190080
-0.21387783 -0.15545598 0.84349906 4278190080
-0.21161436 -0.15403107 0.84221965 4278190080
-0.21076471 -0.15109225 0.84123522 4278190080
-0.20963033 -0.15037812 0.84059399 4278190080
-0.20849593 -0.149664 0.83995283 4278190080
-0.20736153 -0.14894986 0.8393116 4278190080
-0.20622715 -0.14823574 0.83867037 4278190080
-0.20509276 -0.14752162 0.83802915 4278190080
-0.20395836 -0.14680748 0.83738792 4278190080
-0.20421912 -0.14456776 0.83703119 4278190080
-0.20308208 -0.14385197 0.83638847 4278190080
-0.19967091 -0.14170454 0.83446032 4278190080
-0.1898739 -0.13072926 0.8279143 4278190080
-0.18873155 -0.13001013 0.8272686 4278190080
-0.29317853 -0.2129999 0.89152646 4278190080
-0.29367438 -0.21090908 0.89130658 4278190080
-0.29254797 -0.21019997 0.89066988 4278190080
-0.29142156 -0.20949087 0.89003319 4278190080
-0.29029515 -0.20878176 0.88939649 4278190080
-0.29077765 -0.20668261 0.88916904 4278190080
-0.28964859 -0.20597182 0.88853085 4278190080
-0.2885195 -0.20526104 0.88789266 4278190080
-0.28739044 -0.20455027 0.88725442 4278190080
-0.28626135 -0.20383948 0.88661623 4278190080
-0.28513232 -0.20312871 0.88597804 4278190080
-0.28287417 -0.20170715 0.88470161 4278190080
-0.28174508 -0.20099637 0.88406342 4278190080
-0.27948692 -0.19957481 0.88278699 4278190080
-0.27835786 -0.19886404 0.8821488 4278190080
-0.27722877 -0.19815326 0.88151056 4278190080
-0.27609974 -0.19744249 0.88087237 4278190080
-0.27541059 -0.19460575 0.87998271 4278190080
-0.27427885 -0.1938933 0.87934297 4278190080
-0.27201539 -0.19246839 0.87806356 4278190080
-0.27088368 -0.19175595 0.87742388 4278190080
-0.26975197 -0.1910435 0.87678415 4278190080
-0.26862022 -0.19033104 0.87614447 4278190080
-0.26748848 -0.18961857 0.87550473 4278190080
-0.26635674 -0.18890613 0.874865 4278190080
-0.26296154 -0.18676877 0.8729459 4278190080
-0.26182982 -0.18605632 0.87230617 4278190080
-0.26069811 -0.18534388 0.87166649 4278190080
-0.25956634 -0.18463141 0.87102675 4278190080
-0.25843462 -0.18391895 0.87038702 4278190080
-0.25730291 -0.18320651 0.86974734 4278190080
-0.25617117 -0.18249404 0.8691076 4278190080
-0.25503942 -0.1817816 0.86846793 4278190080
-0.24372213 -0.17465708 0.8620708 4278190080
-0.24259038 -0.17394462 0.86143112 4278190080
-0.2377113 -0.17327602 0.8591733 4278190080
-0.2324048 -0.16753255 0.85567367 4278190080
-0.23127307 -0.16682009 0.85503399 4278190080
-0.22787789 -0.16468275 0.85311484 4278190080
-0.22077522 -0.16261435 0.8496002 4278190080
-0.20524326 -0.15043369 0.84032065 4278190080
-0.20297979 -0.14900878 0.83904123 4278190080
-0.20184804 -0.14829633 0.8384015 4278190080
-0.20210984 -0.14605814 0.83804935 4278190080
-0.20097545 -0.14534402 0.83740813 4278190080
-0.19984105 -0.1446299 0.8367669 4278190080
-0.19870666 -0.14391576 0.83612567 4278190080
-0.1964379 -0.14248751 0.83484328 4278190080
-0.1953035 -0.14177339 0.83420205 4278190080
-0.18915476 -0.13069381 0.82922608 4278190080
-0.18801241 -0.12997466 0.82858032 4278190080
-0.29247111 -0.21296501 0.89281684 4278190080
-0.29134735 -0.21225758 0.89218163 4278190080
-0.29022357 -0.21155015 0.89154643 4278190080
-0.29071245 -0.20945589 0.89132661 4278190080
-0.28958604 -0.20874681 0.89068991 4278190080
-0.28845963 -0.20803769 0.89005321 4278190080
-0.28733322 -0.20732859 0.88941652 4278190080
-0.28620681 -0.20661949 0.88877982 4278190080
-0.28395396 -0.20520128 0.88750637 4278190080
-0.28282759 -0.20449218 0.88686967 4278190080
-0.28170118 -0.20378308 0.88623297 4278190080
-0.27832192 -0.20165576 0.88432288 4278190080
-0.2731308 -0.19598588 0.88089246 4278190080
-0.27200171 -0.1952751 0.88025427 4278190080
-0.27087265 -0.19456431 0.87961602 4278190080
-0.26974359 -0.19385354 0.87897784 4278190080
-0.2686145 -0.19314276 0.87833959 4278190080
-0.26748544 -0.19243199 0.8777014 4278190080
-0.26409823 -0.19029966 0.87578678 4278190080
-0.26296914 -0.18958887 0.87514859 4278190080
-0.26184008 -0.18887809 0.87451035 4278190080
-0.26071101 -0.18816732 0.87387216 4278190080
-0.25958192 -0.18745653 0.87323397 4278190080
-0.25845286 -0.18674576 0.87259573 4278190080
-0.2573238 -0.18603498 0.87195754 4278190080
-0.25619474 -0.18532421 0.87131935 4278190080
-0.25506565 -0.18461342 0.87068111 4278190080
-0.25393656 -0.18390264 0.87004292 4278190080
-0.2528075 -0.18319187 0.86940473 4278190080
-0.25167844 -0.18248108 0.86876649 4278190080
-0.2479088 -0.18250996 0.86713189 4278190080
-0.24829124 -0.18034877 0.86685187 4278190080
-0.24716215 -0.17963798 0.86621368 4278190080
-0.24038771 -0.1753733 0.86238444 4278190080
-0.23812957 -0.17395175 0.86110801 4278190080
-0.23700051 -0.17324097 0.86046982 4278190080
-0.23587143 -0.17253019 0.85983163 4278190080
-0.23474237 -0.17181942 0.85919338 4278190080
-0.23135515 -0.16968708 0.85727876 4278190080
-0.22909698 -0.16826551 0.85600233 4278190080
-0.22570978 -0.16613318 0.85408771 4278190080
-0.22458071 -0.16542241 0.85344952 4278190080
-0.22345164 -0.16471162 0.85281134 4278190080
-0.22232257 -0.16400085 0.85217309 4278190080
-0.22119351 -0.16329007 0.8515349 4278190080
-0.21780629 -0.16115774 0.84962028 4278190080
-0.20792601 -0.15253592 0.8435393 4278190080
-0.20566252 -0.15111101 0.84225988 4278190080
-0.20000388 -0.14754875 0.83906132 4278190080
-0.19887213 -0.1468363 0.83842164 4278190080
-0.18708371 -0.13220923 0.83026981 4278190080
-0.28548226 -0.21497831 0.89178699 4278190080
-0.28839242 -0.21080786 0.8922016 4278190080
-0.28726867 -0.21010043 0.8915664 4278190080
-0.28614491 -0.20939299 0.89093119 4278190080
-0.28502116 -0.20868558 0.89029604 4278190080
-0.2838974 -0.20797814 0.88966084 4278190080
-0.28277364 -0.20727071 0.88902563 4278190080
-0.28324488 -0.20516631 0.88879979 4278190080
-0.28211847 -0.20445722 0.88816315 4278190080
-0.28099206 -0.20374811 0.88752639 4278190080
-0.27827865 -0.204441 0.8864848 4278190080
-0.27761284 -0.2016208 0.8856163 4278190080
-0.2764864 -0.20091169 0.88497961 4278190080
-0.27535999 -0.20020258 0.88434291 4278190080
-0.27085435 -0.19736618 0.88179606 4278190080
-0.26972795 -0.19665708 0.88115937 4278190080
-0.26860154 -0.19594796 0.88052267 4278190080
-0.2674751 -0.19523886 0.87988597 4278190080
-0.26634872 -0.19452976 0.87924927 4278190080
-0.26522228 -0.19382066 0.87861258 4278190080
-0.26409587 -0.19311154 0.87797582 4278190080
-0.26296946 -0.19240245 0.87733912 4278190080
-0.26184306 -0.19169334 0.87670243 4278190080
-0.26071665 -0.19098423 0.87606573 4278190080
-0.25959024 -0.19027513 0.87542903 4278190080
-0.25621098 -0.18814781 0.87351894 4278190080
-0.25661302 -0.18599993 0.873254 4278190080
-0.25548396 -0.18528916 0.87261581 4278190080
-0.25435486 -0.18457837 0.87197763 4278190080
-0.2532258 -0.1838676 0.87133938 4278190080
-0.25209674 -0.18315683 0.87070119 4278190080
-0.24945252 -0.18389319 0.8696987 4278190080
-0.24832612 -0.1831841 0.86906201 4278190080
-0.2471997 -0.18247499 0.86842531 4278190080
-0.24494687 -0.18105677 0.86715186 4278190080
-0.24382047 -0.18034768 0.86651516 4278190080
-0.24080601 -0.17604904 0.86431915 4278190080
-0.23967694 -0.17533825 0.8636809 4278190080
-0.23854786 -0.17462748 0.86304271 4278190080
-0.2374188 -0.17391671 0.86240453 4278190080
-0.23628972 -0.17320593 0.86176628 4278190080
-0.23368277 -0.17396574 0.86078483 4278190080
-0.23108105 -0.17472893 0.85980636 4278190080
-0.2299573 -0.17402151 0.85917121 4278190080
-0.22805069 -0.17042021 0.85760134 4278190080
-0.2190394 -0.16474739 0.85250771 4278190080
-0.21791299 -0.16403829 0.85187101 4278190080
-0.21678658 -0.16332918 0.85123432 4278190080
-0.21566015 -0.16262007 0.85059756 4278190080
-0.21453376 -0.16191097 0.84996086 4278190080
-0.21483737 -0.15970114 0.84964037 4278190080
-0.21370828 -0.15899035 0.84900212 4278190080
-0.21145014 -0.1575688 0.84772575 4278190080
-0.21032108 -0.15685803 0.84708756 4278190080
-0.20919201 -0.15614724 0.84644932 4278190080
-0.2058048 -0.1540149 0.8445347 4278190080
-0.20467572 -0.15330413 0.84389651 4278190080
-0.20354664 -0.15259336 0.84325826 4278190080
-0.19790129 -0.14903946 0.84006727 4278190080
-0.19815968 -0.14680116 0.8397212 4278190080
-0.19702795 -0.1460887 0.83908147 4278190080
-0.19589622 -0.14537625 0.83844173 4278190080
