# .PCD v0.7 - Point Cloud Data file format
VERSION 0.7
FIELDS x y z rgba
SIZE 4 4 4 4
TYPE F F F U
COUNT 1 1 1 1
WIDTH 1038
HEIGHT 1
VIEWPOINT 0 0 0 1 0 0 0
POINTS 1038
DATA ascii
-0.087096162 -0.20429188 0.89167482 4278190080
-0.084324375 -0.20489438 0.89474744 4278190080
-0.084106445 -0.2059844 0.89570707 4278190080
-0.086227559 -0.2086364 0.89549965 4278190080
-0.085141808 -0.21406707 0.90028077 4278190080
-0.082363039 -0.21470448 0.90338415 4278190080
-0.08214511 -0.2157945 0.90434378 4278190080
-0.080363207 -0.21586646 0.90610194 4278190080
-0.080144763 -0.21695906 0.90706384 4278190080
-0.07836125 -0.21703877 0.90882885 4278190080
-0.078142293 -0.21813396 0.90979302 4278190080
-0.07635729 -0.21822144 0.91156483 4278190080
-0.076137811 -0.21931921 0.91253132 4278190080
-0.075918332 -0.22041698 0.91349775 4278190080
-0.07569886 -0.22151475 0.91446424 4278190080
-0.075479381 -0.22261252 0.91543067 4278190080
-0.073691264 -0.22271553 0.91721618 4278190080
-0.11099549 -0.14264382 0.8285017 4278190080
-0.11078144 -0.14371444 0.82944423 4278190080
-0.11056739 -0.14478506 0.83038682 4278190080
-0.11035334 -0.14585567 0.83132935 4278190080
-0.10818599 -0.14786723 0.83479816 4278190080
-0.1064457 -0.14774275 0.83638638 4278190080
-0.10623062 -0.14881852 0.8373335 4278190080
-0.10601554 -0.14989431 0.83828062 4278190080
-0.10580046 -0.1509701 0.83922774 4278190080
-0.10405754 -0.15085849 0.84082741 4278190080
-0.10231363 -0.1507521 0.84243155 4278190080
-0.10209752 -0.15183306 0.84338325 4278190080
-0.1018814 -0.15291402 0.8443349 4278190080
-0.10166528 -0.15399498 0.84528655 4278190080
-0.099918738 -0.15390149 0.84690213 4278190080
-0.099702105 -0.15498503 0.84785604 4278190080
-0.097954065 -0.15489931 0.84947848 4278190080
-0.09773691 -0.15598544 0.85043466 4278190080
-0.095221058 -0.15532543 0.85240042 4278190080
-0.093470164 -0.15525393 0.85403538 4278190080
-0.093251728 -0.15634653 0.85499728 4278190080
-0.093033276 -0.15743914 0.85595918 4278190080
-0.09281484 -0.15853173 0.85692108 4278190080
-0.092596397 -0.15962432 0.85788298 4278190080
-0.092377953 -0.16071692 0.85884488 4278190080
-0.09215951 -0.16180952 0.85980678 4278190080
-0.091941066 -0.16290212 0.86076874 4278190080
-0.091722623 -0.16399471 0.86173064 4278190080
-0.091504179 -0.16508731 0.86269253 4278190080
-0.091285735 -0.16617991 0.86365443 4278190080
-0.091067292 -0.16727251 0.86461633 4278190080
-0.090848848 -0.16836511 0.86557823 4278190080
-0.090630405 -0.1694577 0.86654013 4278190080
-0.09195216 -0.17167559 0.86679494 4278190080
-0.09406963 -0.18315724 0.87265855 4278190080
-0.093852997 -0.18424077 0.87361246 4278190080
-0.093636364 -0.18532433 0.87456638 4278190080
-0.093419731 -0.18640788 0.87552035 4278190080
-0.093203098 -0.18749142 0.87647426 4278190080
-0.092986465 -0.18857497 0.87742823 4278190080
-0.092769831 -0.18965851 0.87838215 4278190080
-0.092553198 -0.19074206 0.87933612 4278190080
-0.092119932 -0.19290915 0.881244 4278190080
-0.091470025 -0.19615979 0.8841058 4278190080
-0.091253392 -0.19724333 0.88505977 4278190080
-0.091036759 -0.19832689 0.88601369 4278190080
-0.089050882 -0.19943075 0.88868338 4278190080
-0.088833734 -0.20051688 0.88963956 4278190080
-0.090170227 -0.20266107 0.88982946 4278190080
-0.089736961 -0.20482816 0.89173734 4278190080
-0.087747984 -0.20594755 0.89442068 4278190080
-0.087530829 -0.20703368 0.89537686 4278190080
-0.087313682 -0.20811981 0.8963331 4278190080
-0.087096527 -0.20920594 0.89728934 4278190080
-0.08687938 -0.21029207 0.89824551 4278190080
-0.086662225 -0.2113782 0.89920175 4278190080
-0.086445078 -0.21246433 0.90015799 4278190080
-0.086227924 -0.21355048 0.90111417 4278190080
-0.086010776 -0.21463661 0.9020704 4278190080
-0.083453037 -0.21418604 0.90422058 4278190080
-0.083235115 -0.21527606 0.90518022 4278190080
-0.083017185 -0.21636607 0.90613985 4278190080
-0.081237346 -0.2164394 0.90790224 4278190080
-0.079456441 -0.21651787 0.90966922 4278190080
-0.079237483 -0.21761304 0.91063344 4278190080
-0.077455059 -0.2176993 0.91240722 4278190080
-0.077235579 -0.21879707 0.91337365 4278190080
-0.0770161 -0.21989484 0.91434014 4278190080
-0.076796621 -0.22099261 0.91530657 4278190080
-0.076577149 -0.22209038 0.91627306 4278190080
-0.11270825 -0.13892275 0.82649559 4278190080
-0.11228015 -0.14106399 0.82838064 4278190080
-0.1131586 -0.14548774 0.83057433 4278190080
-0.11273153 -0.14762381 0.83245486 4278190080
-0.10947376 -0.14628358 0.83467686 4278190080
-0.1092592 -0.14735678 0.83562165 4278190080
-0.10904463 -0.14842999 0.83656651 4278190080
-0.10730641 -0.14830685 0.83815902 4278190080
-0.10709133 -0.14938264 0.83910614 4278190080
-0.10687625 -0.15045841 0.84005326 4278190080
-0.10513592 -0.15034558 0.8416549 4278190080
-0.10339459 -0.15023796 0.84326106 4278190080
-0.10317847 -0.15131892 0.84421271 4278190080
-0.10296235 -0.15239988 0.84516436 4278190080
-0.10274624 -0.15348084 0.84611601 4278190080
-0.10100228 -0.15338612 0.84773362 4278190080
-0.099257357 -0.15329657 0.8493557 4278190080
-0.099040203 -0.15438272 0.85031193 4278190080
-0.098823056 -0.15546885 0.85126811 4278190080
-0.094781213 -0.15364166 0.85391188 4278190080
-0.094562769 -0.15473425 0.85487378 4278190080
-0.094344325 -0.15582685 0.85583568 4278190080
-0.094125882 -0.15691946 0.85679758 4278190080
-0.093907438 -0.15801205 0.85775948 4278190080
-0.093688995 -0.15910465 0.85872138 4278190080
-0.093470551 -0.16019724 0.85968328 4278190080
-0.093252108 -0.16128984 0.86064523 4278190080
-0.093033664 -0.16238244 0.86160713 4278190080
-0.09281522 -0.16347504 0.86256903 4278190080
-0.092596777 -0.16456763 0.86353093 4278190080
-0.092378341 -0.16566023 0.86449283 4278190080
-0.092159897 -0.16675283 0.86545473 4278190080
-0.091941454 -0.16784543 0.86641663 4278190080
-0.09172301 -0.16893803 0.86737859 4278190080
-0.093042172 -0.17115715 0.86763132 4278190080
-0.094914339 -0.17501923 0.86848003 4278190080
-0.095369808 -0.18155833 0.87253606 4278190080
-0.095153175 -0.18264186 0.87348998 4278190080
-0.094936542 -0.18372542 0.87444389 4278190080
-0.094719909 -0.18480895 0.87539786 4278190080
-0.094503276 -0.18589251 0.87635177 4278190080
-0.094286643 -0.18697605 0.87730575 4278190080
-0.09407001 -0.1880596 0.87825966 4278190080
-0.093853377 -0.18914315 0.87921363 4278190080
-0.093420103 -0.19131024 0.88112152 4278190080
-0.09320347 -0.19239378 0.88207543 4278190080
-0.092986837 -0.19347733 0.8830294 4278190080
-0.094101578 -0.19671926 0.88418257 4278190080
-0.09366934 -0.19888118 0.88608587 4278190080
-0.091687039 -0.1999786 0.888753 4278190080
-0.091470405 -0.20106216 0.88970697 4278190080
-0.091253772 -0.2021457 0.89066088 4278190080
-0.091037139 -0.20322925 0.89161485 4278190080
-0.090820506 -0.2043128 0.89256877 4278190080
-0.090603866 -0.20539634 0.89352274 4278190080
-0.090387233 -0.20647989 0.89447665 4278190080
-0.088616975 -0.20651707 0.89621031 4278190080
-0.08839982 -0.2076032 0.89716655 4278190080
-0.088182673 -0.20868933 0.89812279 4278190080
-0.087965518 -0.20977546 0.89907897 4278190080
-0.087748371 -0.21086159 0.9000352 4278190080
-0.087531216 -0.21194774 0.90099144 4278190080
-0.087314069 -0.21303387 0.90194762 4278190080
-0.087096915 -0.21412 0.90290385 4278190080
-0.084543057 -0.2136676 0.90505701 4278190080
-0.084325127 -0.21475761 0.90601659 4278190080
-0.084107198 -0.21584763 0.90697622 4278190080
-0.082329951 -0.21591972 0.90874064 4278190080
-0.080551624 -0.21599695 0.91050965 4278190080
-0.080332659 -0.21709214 0.91147381 4278190080
-0.07855282 -0.21717717 0.91324961 4278190080
-0.078333348 -0.21827494 0.91421604 4278190080
-0.078113869 -0.2193727 0.91518253 4278190080
-0.07789439 -0.22047047 0.91614896 4278190080
-0.07767491 -0.22156824 0.91711545 4278190080
-0.11529429 -0.1396396 0.82669246 4278190080
-0.11335076 -0.14055477 0.82920218 4278190080
-0.11465369 -0.14284368 0.82951331 4278190080
-0.11444017 -0.14391172 0.83045357 4278190080
-0.11422663 -0.14497975 0.83139384 4278190080
-0.1140131 -0.14604777 0.83233416 4278190080
-0.11379957 -0.14711581 0.83327442 4278190080
-0.11054696 -0.14577314 0.83550036 4278190080
-0.1103324 -0.14684632 0.83644521 4278190080
-0.11011783 -0.14791954 0.83739007 4278190080
-0.1083822 -0.14779516 0.83898455 4278190080
-0.10816712 -0.14887094 0.83993167 4278190080
-0.10795204 -0.14994673 0.84087873 4278190080
-0.10621428 -0.14983268 0.84248239 4278190080
-0.10447556 -0.14972381 0.84409052 4278190080
-0.10425944 -0.15080477 0.84504217 4278190080
-0.10404332 -0.15188573 0.84599382 4278190080
-0.10230247 -0.15178719 0.84761113 4278190080
-0.10056064 -0.15169384 0.84923291 4278190080
-0.10034349 -0.15277998 0.85018915 4278190080
-0.10012633 -0.15386611 0.85114539 4278190080
-0.097619012 -0.15319851 0.85311365 4278190080
-0.095873818 -0.15312198 0.85475028 4278190080
-0.095655374 -0.15421458 0.85571218 4278190080
-0.095436931 -0.15530717 0.85667408 4278190080
-0.095218487 -0.15639977 0.85763597 4278190080
-0.095000044 -0.15749237 0.85859787 4278190080
-0.0947816 -0.15858497 0.85955977 4278190080
-0.094563156 -0.15967757 0.86052173 4278190080
-0.094344713 -0.16077016 0.86148363 4278190080
-0.094126269 -0.16186276 0.86244553 4278190080
-0.093907826 -0.16295536 0.86340743 4278190080
-0.093689382 -0.16404796 0.86436933 4278190080
-0.093470939 -0.16514055 0.86533123 4278190080
-0.093252495 -0.16623315 0.86629313 4278190080
-0.093034051 -0.16732575 0.86725509 4278190080
-0.092815608 -0.16841835 0.86821699 4278190080
-0.094132192 -0.1706387 0.86846775 4278190080
-0.093914263 -0.17172872 0.86942738 4278190080
-0.09600047 -0.17450263 0.86931348 4278190080
-0.096886635 -0.17887585 0.8714596 4278190080
-0.096670002 -0.1799594 0.87241358 4278190080
-0.096453361 -0.18104294 0.87336749 4278190080
-0.096236728 -0.18212649 0.87432146 4278190080
-0.097343706 -0.18539551 0.87549543 4278190080
-0.096479237 -0.18971935 0.87930208 4278190080
-0.096047007 -0.19188127 0.88120538 4278190080
-0.095830888 -0.19296223 0.88215703 4278190080
-0.095614776 -0.19404319 0.88310874 4278190080
-0.095398657 -0.19512415 0.88406038 4278190080
-0.095182538 -0.19620511 0.88501203 4278190080
-0.094966426 -0.19728607 0.88596374 4278190080
-0.094318077 -0.20052895 0.88881868 4278190080
-0.094101958 -0.20160991 0.88977039 4278190080
-0.093885839 -0.20269087 0.89072204 4278190080
-0.093669727 -0.20377183 0.89167368 4278190080
-0.091904059 -0.20379741 0.89340025 4278190080
-0.091687426 -0.20488097 0.89435416 4278190080
-0.091470793 -0.20596451 0.89530814 4278190080
-0.089703105 -0.20600046 0.89704376 4278190080
-0.089485951 -0.20708661 0.898 4278190080
-0.089268804 -0.20817274 0.89895618 4278190080
-0.089051649 -0.20925887 0.89991242 4278190080
-0.088834502 -0.210345 0.90086865 4278190080
-0.088617355 -0.21143113 0.90182483 4278190080
-0.0884002 -0.21251726 0.90278107 4278190080
-0.088183053 -0.21360339 0.90373731 4278190080
-0.087965898 -0.21468952 0.90469348 4278190080
-0.08541514 -0.21423917 0.90685302 4278190080
-0.083640993 -0.21430744 0.90861714 4278190080
-0.083422549 -0.21540004 0.90957904 4278190080
-0.0816468 -0.21547605 0.91135001 4278190080
-0.079870068 -0.21555726 0.91312551 4278190080
-0.079650588 -0.21665503 0.91409194 4278190080
-0.079431117 -0.2177528 0.91505843 4278190080
-0.079211637 -0.21885057 0.91602486 4278190080
-0.11894017 -0.13503164 0.82219541 4278190080
-0.11872716 -0.13609707 0.82313341 4278190080
-0.11851415 -0.13716252 0.82407141 4278190080
-0.11830113 -0.13822797 0.82500941 4278190080
-0.11657584 -0.13806358 0.82657176 4278190080
-0.11636232 -0.13913161 0.82751203 4278190080
-0.11614878 -0.14019963 0.82845229 4278190080
-0.11593525 -0.14126767 0.82939255 4278190080
-0.11572172 -0.1423357 0.83033288 4278190080
-0.11550819 -0.14340372 0.83127314 4278190080
-0.11529466 -0.14447175 0.8322134 4278190080
-0.11508112 -0.14553979 0.83315367 4278190080
-0.1148676 -0.14660782 0.83409399 4278190080
-0.11162015 -0.14526269 0.83632392 4278190080
-0.11140559 -0.14633588 0.83726871 4278190080
-0.11119102 -0.1474091 0.83821356 4278190080
-0.10945799 -0.14728348 0.83981001 4278190080
-0.10924291 -0.14835927 0.84075713 4278190080
-0.10750826 -0.14824139 0.8423605 4278190080
-0.10729267 -0.14931975 0.84330988 4278190080
-0.10555651 -0.14920968 0.84491998 4278190080
-0.10534039 -0.15029064 0.84587163 4278190080
-0.10360265 -0.15018827 0.84748864 4278190080
-0.10338601 -0.15127182 0.84844255 4278190080
-0.10164677 -0.15117724 0.85006636 4278190080
-0.10142962 -0.15226337 0.8510226 4278190080
-0.098926947 -0.15159006 0.85299045 4278190080
-0.098709024 -0.15268007 0.85395008 4278190080
-0.096966416 -0.1526023 0.85558867 4278190080
-0.096747972 -0.1536949 0.85655057 4278190080
-0.096529528 -0.1547875 0.85751247 4278190080
-0.096311085 -0.15588009 0.85847437 4278190080
-0.096092641 -0.15697269 0.85943627 4278190080
-0.095874198 -0.15806529 0.86039823 4278190080
-0.095655754 -0.15915789 0.86136013 4278190080
-0.095437311 -0.16025048 0.86232203 4278190080
-0.095218875 -0.16134308 0.86328393 4278190080
-0.095000431 -0.16243568 0.86424583 4278190080
-0.094781987 -0.16352828 0.86520773 4278190080
-0.094563544 -0.16462088 0.86616963 4278190080
-0.0943451 -0.16571347 0.86713159 4278190080
-0.094126657 -0.16680607 0.86809349 4278190080
-0.095440127 -0.16903023 0.86834455 4278190080
-0.095222205 -0.17012025 0.86930418 4278190080
-0.095004275 -0.17121026 0.87026381 4278190080
-0.097086608 -0.17398603 0.87014693 4278190080
-0.098403439 -0.17619339 0.8703832 4278190080
-0.098186806 -0.17727694 0.87133712 4278190080
-0.097970173 -0.17836048 0.87229109 4278190080
-0.099289127 -0.18055752 0.87251824 4278190080
-0.098856896 -0.18271945 0.87442154 4278190080
-0.098640777 -0.18380041 0.87537324 4278190080
-0.098424666 -0.18488137 0.87632489 4278190080
-0.098208547 -0.18596233 0.87727654 4278190080
-0.097776309 -0.18812425 0.87917989 4278190080
-0.097560197 -0.18920521 0.88013154 4278190080
-0.097344078 -0.19028617 0.88108319 4278190080
-0.097127959 -0.19136713 0.88203484 4278190080
-0.096911848 -0.19244809 0.88298655 4278190080
-0.096695729 -0.19352905 0.88393819 4278190080
-0.09647961 -0.19461001 0.88488984 4278190080
-0.096263498 -0.19569097 0.88584149 4278190080
-0.096047379 -0.19677193 0.8867932 4278190080
-0.097375087 -0.19892499 0.88698167 4278190080
-0.09539903 -0.20001481 0.8896482 4278190080
-0.095182911 -0.20109577 0.89059985 4278190080
-0.094966799 -0.20217673 0.89155149 4278190080
-0.09475068 -0.20325769 0.89250314 4278190080
-0.092987604 -0.20328204 0.89423168 4278190080
-0.092770964 -0.2043656 0.89518565 4278190080
-0.092554331 -0.20544913 0.89613956 4278190080
-0.092337698 -0.20653269 0.89709353 4278190080
-0.092121065 -0.20761624 0.89804745 4278190080
-0.091904432 -0.20869978 0.89900142 4278190080
-0.090137787 -0.20874226 0.90074587 4278190080
-0.089920633 -0.20982839 0.90170211 4278190080
-0.089703485 -0.21091452 0.90265828 4278190080
-0.089486331 -0.21200067 0.90361452 4278190080
-0.089269184 -0.2130868 0.90457076 4278190080
-0.089052029 -0.21417293 0.90552694 4278190080
-0.086505152 -0.21372071 0.90768945 4278190080
-0.080748357 -0.21613289 0.91493434 4278190080
-0.1210707 -0.12919764 0.81832296 4278190080
-0.12064467 -0.13132854 0.82019895 4278190080
-0.12193829 -0.1336406 0.82052428 4278190080
-0.12151329 -0.13576633 0.82239574 4278190080
-0.1210883 -0.13789204 0.82426721 4278190080
-0.1208758 -0.13895489 0.82520294 4278190080
-0.11915357 -0.13878664 0.826765 4278190080
-0.11894055 -0.13985209 0.827703 4278190080
-0.11721681 -0.13969164 0.82927185 4278190080
-0.11700328 -0.14075968 0.83021212 4278190080
-0.11678974 -0.1418277 0.83115238 4278190080
-0.11657622 -0.14289573 0.8320927 4278190080
-0.11636268 -0.14396377 0.83303297 4278190080
-0.11614915 -0.14503179 0.83397323 4278190080
-0.11593562 -0.14609982 0.83491355 4278190080
-0.11269336 -0.14475223 0.83714741 4278190080
-0.1124788 -0.14582543 0.83809227 4278190080
-0.11074885 -0.14569601 0.83968842 4278190080
-0.11053377 -0.1467718 0.84063554 4278190080
-0.10880223 -0.14665011 0.84223855 4278190080
-0.10858663 -0.14772847 0.84318793 4278190080
-0.1068536 -0.14761457 0.84479779 4278190080
-0.10663748 -0.14869553 0.8457495 4278190080
-0.10490284 -0.14858934 0.84736615 4278190080
-0.10468621 -0.1496729 0.84832013 4278190080
-0.10295005 -0.1495745 0.84994358 4278190080
-0.1027329 -0.15066063 0.85089982 4278190080
-0.10023489 -0.1499816 0.85286725 4278190080
-0.10001697 -0.15107161 0.85382688 4278190080
-0.099799037 -0.15216161 0.85478652 4278190080
-0.098059006 -0.15208264 0.85642707 4278190080
-0.097840562 -0.15317522 0.85738897 4278190080
-0.097622119 -0.15426782 0.85835087 4278190080
-0.097403675 -0.15536043 0.85931277 4278190080
-0.097185232 -0.15645301 0.86027467 4278190080
-0.096966788 -0.15754563 0.86123663 4278190080
-0.096748345 -0.15863821 0.86219853 4278190080
-0.096529908 -0.15973081 0.86316043 4278190080
-0.096311465 -0.1608234 0.86412233 4278190080
-0.096093021 -0.161916 0.86508423 4278190080
-0.095874578 -0.1630086 0.86604613 4278190080
-0.095656134 -0.1641012 0.86700803 4278190080
-0.095437691 -0.1651938 0.86796999 4278190080
-0.095219247 -0.16628639 0.86893189 4278190080
-0.096530147 -0.16851179 0.86918098 4278190080
-0.096312217 -0.1696018 0.87014061 4278190080
-0.098389886 -0.17238329 0.87002414 4278190080
-0.098172739 -0.17346942 0.87098038 4278190080
-0.099486999 -0.17567801 0.87121469 4278190080
-0.099270366 -0.17676155 0.8721686 4278190080
-0.10058621 -0.17896242 0.87239605 4278190080
-0.10037009 -0.18004338 0.8733477 4278190080
-0.10015398 -0.18112434 0.87429935 4278190080
-0.099937864 -0.1822053 0.87525105 4278190080
-0.099721745 -0.18328626 0.8762027 4278190080
-0.099505626 -0.18436722 0.87715435 4278190080
-0.099289514 -0.18544818 0.878106 4278190080
-0.099073395 -0.18652914 0.87905771 4278190080
-0.098857276 -0.1876101 0.88000935 4278190080
-0.098641165 -0.18869106 0.880961 4278190080
-0.098425046 -0.18977202 0.88191265 4278190080
-0.098208927 -0.19085298 0.88286436 4278190080
-0.097992815 -0.19193394 0.883816 4278190080
-0.097776696 -0.1930149 0.88476765 4278190080
-0.097560577 -0.19409586 0.88571936 4278190080
-0.097344466 -0.19517682 0.88667101 4278190080
-0.097128347 -0.19625778 0.88762265 4278190080
-0.098453455 -0.19841208 0.88780916 4278190080
-0.09823785 -0.19949044 0.88875854 4278190080
-0.096479997 -0.19950067 0.89047766 4278190080
-0.096263878 -0.20058163 0.89142931 4278190080
-0.094504423 -0.20059958 0.89315528 4278190080
-0.09428779 -0.20168312 0.89410925 4278190080
-0.094071157 -0.20276667 0.89506316 4278190080
-0.093854524 -0.20385022 0.89601713 4278190080
-0.093637891 -0.20493376 0.89697105 4278190080
-0.093421258 -0.20601732 0.89792496 4278190080
-0.093204618 -0.20710085 0.89887893 4278190080
-0.092987984 -0.20818441 0.89983284 4278190080
-0.091223918 -0.20822567 0.90157932 4278190080
-0.091006763 -0.2093118 0.9025355 4278190080
-0.090789616 -0.21039793 0.90349174 4278190080
-0.090572461 -0.21148406 0.90444797 4278190080
-0.090355314 -0.21257019 0.90540415 4278190080
-0.12321364 -0.13207221 0.82040417 4278190080
-0.12408119 -0.13650343 0.82259214 4278190080
-0.12386921 -0.13756371 0.82352561 4278190080
-0.12215116 -0.1373865 0.82508278 4278190080
-0.12193866 -0.13844936 0.82601851 4278190080
-0.12172616 -0.13951221 0.82695425 4278190080
-0.120006 -0.13934533 0.82852054 4278190080
-0.11828484 -0.13918364 0.83009142 4278190080
-0.11807131 -0.14025168 0.83103168 4278190080
-0.11785778 -0.14131971 0.83197194 4278190080
-0.11764425 -0.14238773 0.83291227 4278190080
-0.11743072 -0.14345577 0.83385253 4278190080
-0.11721719 -0.1445238 0.83479279 4278190080
-0.11700366 -0.14559184 0.83573306 4278190080
-0.11376657 -0.14424178 0.83797091 4278190080
-0.113552 -0.14531498 0.83891577 4278190080
-0.11182464 -0.14518434 0.84051394 4278190080
-0.11160956 -0.14626011 0.84146106 4278190080
-0.10988061 -0.14613719 0.84306604 4278190080
-0.10966501 -0.14721556 0.84401548 4278190080
-0.10793455 -0.14710043 0.84562725 4278190080
-0.10771843 -0.14818139 0.84657896 4278190080
-0.10598638 -0.14807397 0.84819764 4278190080
-0.10576975 -0.14915752 0.84915155 4278190080
-0.10403618 -0.14905791 0.85077703 4278190080
-0.10381903 -0.15014404 0.85173327 4278190080
-0.1013249 -0.14946315 0.85370368 4278190080
-0.099588498 -0.14937775 0.85534167 4278190080
-0.099370055 -0.15047036 0.85630357 4278190080
-0.097632058 -0.15039268 0.85794842 4278190080
-0.098933168 -0.15265554 0.85822737 4278190080
-0.098714724 -0.15374814 0.85918927 4278190080
-0.096975178 -0.15367824 0.86084098 4278190080
-0.098277837 -0.15593334 0.86111313 4278190080
-0.098059393 -0.15702593 0.86207503 4278190080
-0.09784095 -0.15811853 0.86303693 4278190080
-0.097622506 -0.15921113 0.86399883 4278190080
-0.097404063 -0.16030373 0.86496073 4278190080
-0.097185619 -0.16139632 0.86592263 4278190080
-0.096967176 -0.16248892 0.86688459 4278190080
-0.096748732 -0.16358152 0.86784649 4278190080
-0.096530288 -0.16467412 0.86880839 4278190080
-0.096311845 -0.16576672 0.86977029 4278190080
-0.096093401 -0.16685931 0.87073219 4278190080
-0.09740223 -0.16908336 0.87097704 4278190080
-0.099476017 -0.17186669 0.8708576 4278190080
-0.09925887 -0.17295283 0.87181383 4278190080
-0.10057054 -0.17516264 0.87204611 4278190080
-0.1003539 -0.17624618 0.87300009 4278190080
-0.10166717 -0.17844827 0.87322551 4278190080
-0.10145105 -0.17952923 0.87417716 4278190080
-0.10123494 -0.18061019 0.87512887 4278190080
-0.10101882 -0.18169117 0.87608051 4278190080
-0.1008027 -0.18277213 0.87703216 4278190080
-0.10058659 -0.18385309 0.87798381 4278190080
-0.10037047 -0.18493405 0.87893552 4278190080
-0.10015435 -0.18601501 0.87988716 4278190080
-0.099938236 -0.18709597 0.88083881 4278190080
-0.099722117 -0.18817693 0.88179046 4278190080
-0.099505998 -0.18925789 0.88274217 4278190080
-0.099289887 -0.19033885 0.88369381 4278190080
-0.099073768 -0.19141981 0.88464546 4278190080
-0.098857649 -0.19250077 0.88559711 4278190080
-0.098641537 -0.19358173 0.88654882 4278190080
-0.098425418 -0.19466269 0.88750046 4278190080
-0.098209299 -0.19574365 0.88845211 4278190080
-0.099531829 -0.19789916 0.88863665 4278190080
-0.099316232 -0.19897753 0.88958603 4278190080
-0.09756095 -0.19898653 0.89130712 4278190080
-0.097344838 -0.20006749 0.89225876 4278190080
-0.095587969 -0.20008421 0.89398676 4278190080
-0.095371336 -0.20116775 0.89494067 4278190080
-0.095154695 -0.2022513 0.89589465 4278190080
-0.094938062 -0.20333485 0.89684856 4278190080
-0.094721429 -0.20441839 0.89780253 4278190080
-0.094504796 -0.20550194 0.89875644 4278190080
-0.094288163 -0.20658548 0.89971036 4278190080
-0.09407153 -0.20766903 0.90066433 4278190080
-0.092310049 -0.20770906 0.90241277 4278190080
-0.092092894 -0.20879519 0.90336895 4278190080
-0.091875747 -0.20988132 0.90432519 4278190080
-0.091658592 -0.21096745 0.90528142 4278190080
-0.1247015 -0.12944096 0.81934828 4278190080
-0.124489 -0.13050382 0.82028401 4278190080
-0.1242765 -0.13156669 0.82121974 4278190080
-0.12492948 -0.13705941 0.82433921 4278190080
-0.1247175 -0.13811967 0.82527268 4278190080
-0.12450552 -0.13917994 0.82620609 4278190080
-0.12278903 -0.13900669 0.82776982 4278190080
-0.12107144 -0.13883857 0.82933813 4278190080
-0.12085842 -0.13990401 0.83027613 4278190080
-0.11913934 -0.13974369 0.83185124 4278190080
-0.11892581 -0.14081171 0.83279151 4278190080
-0.11720514 -0.14065911 0.83437347 4278190080
-0.11699109 -0.14172973 0.835316 4278190080
-0.11677704 -0.14280035 0.83625859 4278190080
-0.11656299 -0.14387095 0.83720112 4278190080
-0.11483977 -0.14373133 0.83879447 4278190080
-0.1146252 -0.14480452 0.83973926 4278190080
-0.11290043 -0.14467265 0.84133947 4278190080
-0.11117459 -0.14454591 0.84294415 4278190080
-0.10944775 -0.14442436 0.84455341 4278190080
-0.10923163 -0.14550532 0.84550512 4278190080
-0.10901552 -0.14658628 0.84645677 4278190080
-0.10728656 -0.14647506 0.84807515 4278190080
-0.10706992 -0.1475586 0.84902906 4278190080
-0.10533947 -0.14745517 0.85065424 4278190080
-0.10512231 -0.1485413 0.85161048 4278190080
-0.10490517 -0.14962743 0.85256672 4278190080
-0.10241491 -0.14894471 0.85454005 4278190080
-0.10068109 -0.14885809 0.85618007 4278190080
-0.10046265 -0.14995068 0.85714197 4278190080
-0.098727234 -0.14987178 0.85878879 4278190080
-0.098508276 -0.15096696 0.85975301 4278190080
-0.098289311 -0.15206215 0.86071718 4278190080
-0.098070353 -0.15315732 0.86168134 4278190080
-0.099370427 -0.15541366 0.86195153 4278190080
-0.099151984 -0.15650627 0.86291343 4278190080
-0.09893354 -0.15759887 0.86387533 4278190080
-0.098715097 -0.15869147 0.86483723 4278190080
-0.098496653 -0.15978405 0.86579913 4278190080
-0.096756592 -0.15972842 0.86746645 4278190080
-0.096537635 -0.16082361 0.86843067 4278190080
-0.097841322 -0.16306184 0.86868489 4278190080
-0.097622879 -0.16415444 0.86964679 4278190080
-0.097404435 -0.16524704 0.87060869 4278190080
-0.097185999 -0.16633964 0.87157059 4278190080
-0.10012785 -0.17352235 0.87360346 4278190080
-0.10143745 -0.17573081 0.87383151 4278190080
-0.10122082 -0.17681436 0.87478548 4278190080
-0.10100418 -0.1778979 0.8757394 4278190080
-0.10078755 -0.17898145 0.87669337 4278190080
-0.10209978 -0.18117702 0.87690997 4278190080
-0.10188366 -0.18225798 0.87786162 4278190080
-0.10166755 -0.18333894 0.87881333 4278190080
-0.10145143 -0.1844199 0.87976497 4278190080
-0.10123532 -0.18550086 0.88071662 4278190080
-0.1010192 -0.18658182 0.88166833 4278190080
-0.10080308 -0.18766278 0.88261998 4278190080
-0.10058697 -0.18874374 0.88357162 4278190080
-0.10037085 -0.1898247 0.88452327 4278190080
-0.10015474 -0.19090566 0.88547498 4278190080
-0.099938616 -0.19198662 0.88642663 4278190080
-0.099722505 -0.19306758 0.88737828 4278190080
-0.099506386 -0.19414854 0.88832992 4278190080
-0.099290267 -0.1952295 0.88928163 4278190080
-0.099074148 -0.19631046 0.89023328 4278190080
-0.098858036 -0.19739142 0.89118493 4278190080
-0.098641917 -0.19847238 0.89213657 4278190080
-0.098425798 -0.19955334 0.89308828 4278190080
-0.096671507 -0.19956884 0.89481819 4278190080
-0.096454874 -0.20065239 0.89577216 4278190080
-0.096238241 -0.20173593 0.89672607 4278190080
-0.096021608 -0.20281948 0.89768004 4278190080
-0.095804974 -0.20390302 0.89863396 4278190080
-0.095588341 -0.20498657 0.89958793 4278190080
-0.095371708 -0.20607011 0.90054184 4278190080
-0.095155075 -0.20715366 0.90149575 4278190080
-0.093396179 -0.20719247 0.90324616 4278190080
-0.093179032 -0.2082786 0.9042024 4278190080
-0.092961878 -0.20936473 0.90515864 4278190080
-0.12897043 -0.13039385 0.81800914 4278190080
-0.12704965 -0.13125373 0.82048553 4278190080
-0.1266257 -0.13337427 0.82235247 4278190080
-0.12641372 -0.13443455 0.82328588 4278190080
-0.12620173 -0.13549483 0.82421935 4278190080
-0.12598975 -0.13655511 0.82515281 4278190080
-0.12577777 -0.13761537 0.82608628 4278190080
-0.1255658 -0.13867564 0.82701969 4278190080
-0.12385187 -0.13850115 0.82858539 4278190080
-0.12363937 -0.13956402 0.82952112 4278190080
-0.12192387 -0.13939725 0.83109367 4278190080
-0.12171086 -0.1404627 0.83203167 4278190080
-0.11999384 -0.14030373 0.83361107 4278190080
-0.11827575 -0.14014989 0.835195 4278190080
-0.1180617 -0.14122051 0.83613753 4278190080
-0.11784765 -0.14229113 0.83708012 4278190080
-0.1176336 -0.14336173 0.83802265 4278190080
-0.11591297 -0.14322087 0.83961797 4278190080
-0.1141913 -0.14308518 0.84121782 4278190080
-0.11246856 -0.14295462 0.84282225 4278190080
-0.11225296 -0.144033 0.84377164 4278190080
-0.11052871 -0.14391023 0.84538287 4278190080
-0.11031259 -0.14499119 0.84633458 4278190080
-0.10858675 -0.14487614 0.84795266 4278190080
-0.10837011 -0.14595969 0.84890658 4278190080
-0.10815348 -0.14704323 0.84986055 4278190080
-0.10642561 -0.14693856 0.8514877 4278190080
-0.10620846 -0.14802469 0.85244393 4278190080
-0.10599131 -0.14911082 0.85340017 4278190080
-0.102521 -0.17521544 0.874663 4278190080
-0.10230437 -0.17629899 0.87561691 4278190080
-0.10208774 -0.17738253 0.87657088 4278190080
-0.1018711 -0.17846608 0.87752479 4278190080
-0.10318074 -0.18066289 0.87773943 4278190080
-0.10296462 -0.18174385 0.87869114 4278190080
-0.10274851 -0.18282481 0.87964278 4278190080
-0.10253239 -0.18390577 0.88059443 4278190080
-0.10231628 -0.18498673 0.88154608 4278190080
-0.10210016 -0.18606769 0.88249779 4278190080
-0.10188404 -0.18714865 0.88344944 4278190080
-0.10166793 -0.18822961 0.88440108 4278190080
-0.10145181 -0.18931057 0.88535279 4278190080
-0.10123569 -0.19039153 0.88630444 4278190080
-0.10101958 -0.19147249 0.88725609 4278190080
-0.10080346 -0.19255345 0.88820773 4278190080
-0.10058734 -0.19363441 0.88915944 4278190080
-0.10037123 -0.19471537 0.89011109 4278190080
-0.10015511 -0.19579633 0.89106274 4278190080
-0.099938989 -0.19687729 0.89201438 4278190080
-0.09972287 -0.19795825 0.89296609 4278190080
-0.099506758 -0.19903921 0.89391774 4278190080
-0.097755067 -0.19905347 0.89564967 4278190080
-0.097538434 -0.200137 0.89660358 4278190080
-0.097321793 -0.20122056 0.89755756 4278190080
-0.09710516 -0.2023041 0.89851147 4278190080
-0.096888527 -0.20338765 0.89946544 4278190080
-0.096671894 -0.2044712 0.90041935 4278190080
-0.096455261 -0.20555474 0.90137333 4278190080
-0.096238628 -0.20663829 0.90232724 4278190080
-0.096021995 -0.20772183 0.90328121 4278190080
-0.09426517 -0.20776199 0.90503585 4278190080
-0.13002811 -0.12989078 0.81882077 4278190080
-0.12981665 -0.13094847 0.81975192 4278190080
-0.12960519 -0.13200615 0.82068312 4278190080
-0.12939373 -0.13306384 0.82161427 4278190080
-0.12918225 -0.13412152 0.82254547 4278190080
-0.12875932 -0.13623689 0.82440782 4278190080
-0.12683803 -0.13711108 0.82689983 4278190080
-0.12662606 -0.13817134 0.82783329 4278190080
-0.12491474 -0.13799562 0.82940102 4278190080
-0.12470224 -0.13905849 0.83033675 4278190080
-0.12298931 -0.13889049 0.83191127 4278190080
-0.12277629 -0.13995594 0.83284926 4278190080
-0.12106187 -0.13979574 0.83443063 4278190080
-0.11934637 -0.13964067 0.83601654 4278190080
-0.11913232 -0.14071129 0.83695912 4278190080
-0.11891827 -0.1417819 0.83790165 4278190080
-0.11870421 -0.14285251 0.83884418 4278190080
-0.11548217 -0.14149772 0.84109622 4278190080
-0.11526708 -0.14257351 0.84204334 4278190080
-0.11354694 -0.1424417 0.84364974 4278190080
-0.11182578 -0.14231513 0.84526068 4278190080
-0.11160966 -0.14339609 0.84621239 4278190080
-0.10988692 -0.14327723 0.84783018 4278190080
-0.10967029 -0.14436077 0.84878409 4278190080
-0.10945366 -0.14544432 0.84973806 4278190080
-0.10772888 -0.14533584 0.85136491 4278190080
-0.10338791 -0.17578362 0.87644839 4278190080
-0.10317128 -0.17686716 0.87740231 4278190080
-0.10295465 -0.17795071 0.87835628 4278190080
-0.10273802 -0.17903426 0.87931019 4278190080
-0.10404558 -0.1812297 0.8795206 4278190080
-0.10382946 -0.18231066 0.88047224 4278190080
-0.10361335 -0.18339162 0.88142389 4278190080
-0.10339723 -0.18447258 0.8823756 4278190080
-0.10318111 -0.18555354 0.88332725 4278190080
-0.102965 -0.18663451 0.88427889 4278190080
-0.10274888 -0.18771546 0.88523054 4278190080
-0.10253276 -0.18879642 0.88618225 4278190080
-0.10231665 -0.18987739 0.8871339 4278190080
-0.10210053 -0.19095835 0.88808554 4278190080
-0.10188441 -0.1920393 0.88903719 4278190080
-0.1016683 -0.19312027 0.8899889 4278190080
-0.10145218 -0.19420123 0.89094055 4278190080
-0.10123606 -0.19528219 0.89189219 4278190080
-0.10101995 -0.19636315 0.8928439 4278190080
-0.099271879 -0.196371 0.89457327 4278190080
-0.099055238 -0.19745454 0.89552718 4278190080
-0.098838605 -0.19853809 0.8964811 4278190080
-0.098621972 -0.19962163 0.89743507 4278190080
-0.098405339 -0.20070519 0.89838898 4278190080
-0.098188706 -0.20178874 0.89934295 4278190080
-0.097972073 -0.20287228 0.90029687 4278190080
-0.09775544 -0.20395583 0.90125084 4278190080
-0.097538806 -0.20503937 0.90220475 4278190080
-0.097322173 -0.20612292 0.90315872 4278190080
-0.09710554 -0.20720646 0.90411264 4278190080
-0.13235457 -0.12304159 0.81404531 4278190080
-0.13129726 -0.12833002 0.81870121 4278190080
-0.1310858 -0.12938771 0.81963235 4278190080
-0.13087434 -0.13044539 0.82056355 4278190080
-0.13066287 -0.13150308 0.8214947 4278190080
-0.13045141 -0.13256076 0.8224259 4278190080
-0.13023993 -0.13361844 0.82335705 4278190080
-0.13002847 -0.13467613 0.82428825 4278190080
-0.12981701 -0.13573381 0.82521939 4278190080
-0.12789831 -0.13660677 0.82771343 4278190080
-0.12768632 -0.13766704 0.8286469 4278190080
-0.12597759 -0.13749009 0.83021659 4278190080
-0.12426777 -0.13731828 0.8317908 4278190080
-0.12405476 -0.13838372 0.8327288 4278190080
-0.12234344 -0.13821971 0.83430988 4278190080
-0.12212991 -0.13928774 0.8352502 4278190080
-0.12041698 -0.13913144 0.83683807 4278190080
-0.12020294 -0.14020206 0.83778065 4278190080
-0.11848851 -0.14005357 0.83937538 4278190080
-0.11827394 -0.14112677 0.84032017 4278190080
-0.1150565 -0.13977204 0.84257847 4278190080
-0.1148409 -0.14085042 0.84352785 4278190080
-0.11312286 -0.14072002 0.84513849 4278190080
-0.11290674 -0.14180098 0.8460902 4278190080
-0.1111871 -0.1416783 0.84770769 4278190080
-0.11097047 -0.14276186 0.8486616 4278190080
-0.11075383 -0.14384539 0.84961557 4278190080
-0.1105372 -0.14492895 0.85056949 4278190080
-0.10881502 -0.14481923 0.85219836 4278190080
-0.10403819 -0.17743534 0.8791877 4278190080
-0.10382156 -0.17851889 0.88014168 4278190080
-0.10512654 -0.18071556 0.88035005 4278190080
-0.10491043 -0.18179652 0.8813017 4278190080
-0.10469431 -0.18287748 0.88225341 4278190080
-0.1044782 -0.18395844 0.88320506 4278190080
-0.10426208 -0.1850394 0.8841567 4278190080
-0.10404596 -0.18612036 0.88510841 4278190080
-0.10230512 -0.18610372 0.88681924 4278190080
-0.10208849 -0.18718725 0.88777316 4278190080
-0.10187186 -0.18827081 0.88872713 4278190080
-0.10165522 -0.18935435 0.88968104 4278190080
-0.10296538 -0.19152516 0.88986671 4278190080
-0.10274926 -0.19260612 0.89081836 4278190080
-0.10253315 -0.19368708 0.89177001 4278190080
-0.10231703 -0.19476804 0.89272171 4278190080
-0.10210091 -0.195849 0.89367336 4278190080
-0.10035542 -0.19585563 0.8954047 4278190080
-0.10013878 -0.19693917 0.89635867 4278190080
-0.09992215 -0.19802272 0.89731258 4278190080
-0.099705517 -0.19910626 0.89826649 4278190080
-0.099488884 -0.20018981 0.89922047 4278190080
-0.099272251 -0.20127337 0.90017438 4278190080
-0.099055618 -0.2023569 0.90112835 4278190080
-0.098838985 -0.20344046 0.90208226 4278190080
-0.098622352 -0.204524 0.90303624 4278190080
-0.098405719 -0.20560755 0.90399015 4278190080
-0.13627318 -0.12129682 0.811171 4278190080
-0.13436642 -0.12212203 0.81362599 4278190080
-0.13415521 -0.12317843 0.81455606 4278190080
-0.133944 -0.12423481 0.81548607 4278190080
-0.13331039 -0.127404 0.81827623 4278190080
-0.13309918 -0.12846039 0.81920624 4278190080
-0.13288797 -0.1295168 0.82013625 4278190080
-0.13267678 -0.13057317 0.82106632 4278190080
-0.13246557 -0.13162957 0.82199633 4278190080
-0.13150908 -0.1320577 0.82323748 4278190080
-0.13129762 -0.13311537 0.82416868 4278190080
-0.13108616 -0.13417307 0.82509983 4278190080
-0.13087469 -0.13523075 0.82603103 4278190080
-0.13066323 -0.13628843 0.82696217 4278190080
-0.12895858 -0.13610247 0.82852703 4278190080
-0.1287466 -0.13716274 0.8294605 4278190080
-0.12704045 -0.13698456 0.83103216 4278190080
-0.12533322 -0.13681152 0.8326084 4278190080
-0.123625 -0.13664369 0.83418918 4278190080
-0.12341146 -0.13771172 0.83512944 4278190080
-0.12170165 -0.13755161 0.83671707 4278190080
-0.1214876 -0.13862222 0.8376596 4278190080
-0.11977627 -0.1384699 0.83925402 4278190080
-0.11956171 -0.13954312 0.84019887 4278190080
-0.11784883 -0.13939856 0.84180015 4278190080
-0.11613488 -0.13925913 0.84340596 4278190080
-0.11441994 -0.13912492 0.84501636 4278190080
-0.11420383 -0.14020588 0.84596801 4278190080
-0.11248728 -0.14007939 0.8475852 4278190080
-0.11227065 -0.14116295 0.84853917 4278190080
-0.11205401 -0.14224648 0.84949309 4278190080
-0.11183738 -0.14333002 0.850447 4278190080
-0.10447183 -0.18017061 0.88288099 4278190080
-0.1042552 -0.18125415 0.88383496 4278190080
-0.10382193 -0.18342125 0.88574284 4278190080
-0.1036053 -0.18450479 0.88669676 4278190080
-0.10338867 -0.18558834 0.88765067 4278190080
-0.10317203 -0.18667188 0.88860464 4278190080
-0.1029554 -0.18775544 0.88955855 4278190080
-0.10273877 -0.18883897 0.89051253 4278190080
-0.10252213 -0.18992253 0.89146644 4278190080
-0.10383023 -0.19209197 0.89164782 4278190080
-0.10361411 -0.19317293 0.89259952 4278190080
-0.103398 -0.19425389 0.89355117 4278190080
-0.10318188 -0.19533485 0.89450282 4278190080
-0.10143896 -0.19534026 0.89623618 4278190080
-0.10122233 -0.1964238 0.89719009 4278190080
-0.1010057 -0.19750735 0.89814401 4278190080
-0.10078906 -0.19859089 0.89909798 4278190080
-0.10057243 -0.19967444 0.90005189 4278190080
-0.1003558 -0.200758 0.90100586 4278190080
-0.10013916 -0.20184153 0.90195978 4278190080
-0.09992253 -0.20292509 0.90291375 4278190080
-0.13838041 -0.11552657 0.80734086 4278190080
-0.13816972 -0.11658037 0.80826861 4278190080
-0.13795903 -0.11763418 0.80919635 4278190080
-0.13774835 -0.118688 0.8101241 4278190080
-0.13753766 -0.11974179 0.81105185 4278190080
-0.13732697 -0.12079561 0.81197965 4278190080
-0.1369056 -0.12290322 0.81383514 4278190080
-0.13648422 -0.12501083 0.81569064 4278190080
-0.13585216 -0.12817226 0.81847394 4278190080
-0.13564147 -0.12922606 0.81940168 4278190080
-0.13543078 -0.13027987 0.82032943 4278190080
-0.13373317 -0.13007072 0.82187694 4278190080
-0.13352196 -0.13112712 0.82280695 4278190080
-0.13256676 -0.13155462 0.82404912 4278190080
-0.1323553 -0.1326123 0.82498032 4278190080
-0.13214384 -0.13366999 0.82591146 4278190080
-0.13193238 -0.13472767 0.82684267 4278190080
-0.13172092 -0.13578537 0.82777381 4278190080
-0.13001886 -0.13559817 0.82934064 4278190080
-0.12980688 -0.13665845 0.83027411 4278190080
-0.12810332 -0.13647902 0.83184773 4278190080
-0.12639865 -0.13630477 0.83342594 4278190080
-0.12469304 -0.1361357 0.83500874 4278190080
-0.12298632 -0.13597177 0.83659601 4278190080
-0.12277226 -0.13704239 0.8375386 4278190080
-0.12255821 -0.13811301 0.83848113 4278190080
-0.12084949 -0.13795945 0.84007758 4278190080
-0.1191397 -0.13781108 0.8416785 4278190080
-0.11742885 -0.13766785 0.84328407 4278190080
-0.11571702 -0.13752982 0.84489411 4278190080
-0.1155009 -0.13861078 0.84584582 4278190080
-0.11378746 -0.13848047 0.84746271 4278190080
-0.11357082 -0.13956402 0.84841669 4278190080
-0.11335419 -0.14064758 0.8493706 4278190080
-0.11313756 -0.14173111 0.85032457 4278190080
-0.11292093 -0.14281465 0.85127848 4278190080
-0.10230587 -0.19590843 0.89802158 4278190080
-0.10208924 -0.19699198 0.89897549 4278190080
-0.10187261 -0.19807553 0.8999294 4278190080
-0.10165597 -0.19915907 0.90088338 4278190080
-0.10143933 -0.20024262 0.90183729 4278190080
-0.13964492 -0.11397153 0.80722171 4278190080
-0.13943423 -0.11502534 0.80814946 4278190080
-0.1407007 -0.11737958 0.80848742 4278190080
-0.14049053 -0.11843079 0.8094129 4278190080
-0.14028035 -0.11948201 0.81033838 4278190080
-0.13964984 -0.12263568 0.81311482 4278190080
-0.13859899 -0.12789178 0.81774223 4278190080
-0.13838881 -0.128943 0.81866771 4278190080
-0.13669528 -0.12872483 0.82021034 4278190080
-0.13648459 -0.12977864 0.82113808 4278190080
-0.13478956 -0.12956826 0.82268757 4278190080
-0.13457836 -0.13062467 0.82361758 4278190080
-0.13362445 -0.13105154 0.82486075 4278190080
-0.13341299 -0.13210922 0.8257919 4278190080
-0.13320152 -0.13316692 0.8267231 4278190080
-0.13299006 -0.13422461 0.82765424 4278190080
-0.1327786 -0.13528229 0.82858545 4278190080
-0.13107912 -0.13509387 0.83015424 4278190080
-0.13086715 -0.13615415 0.83108771 4278190080
-0.12916617 -0.1359735 0.8326633 4278190080
-0.1274641 -0.13579801 0.83424354 4278190080
-0.12576105 -0.1356277 0.83582824 4278190080
-0.12405693 -0.13546255 0.83741754 4278190080
-0.12384288 -0.13653317 0.83836013 4278190080
-0.12362882 -0.13760379 0.83930272 4278190080
-0.12192268 -0.13744901 0.84090108 4278190080
-0.12021549 -0.1372994 0.84250402 4278190080
-0.11850722 -0.13715494 0.84411156 4278190080
-0.11679797 -0.13701567 0.84572363 4278190080
-0.11508764 -0.13688156 0.84734023 4278190080
-0.114871 -0.1379651 0.8482942 4278190080
-0.11315916 -0.13783878 0.84991765 4278190080
-0.11294201 -0.13892491 0.85087383 4278190080
-0.1409094 -0.1124165 0.80710262 4278190080
-0.14217225 -0.11477714 0.80744308 4278190080
-0.14196208 -0.11582836 0.80836856 4278190080
-0.14175192 -0.11687958 0.80929404 4278190080
-0.14154173 -0.11793079 0.81021953 4278190080
-0.14133157 -0.11898202 0.81114501 4278190080
-0.1411214 -0.12003323 0.81207049 4278190080
-0.14070106 -0.12213568 0.81392145 4278190080
-0.14175886 -0.12552164 0.81516469 4278190080
-0.14007054 -0.12528935 0.8166979 4278190080
-0.13986038 -0.12634057 0.81762338 4278190080
-0.13965021 -0.12739179 0.81854886 4278190080
-0.13944003 -0.128443 0.81947434 4278190080
-0.13774909 -0.12822361 0.82101899 4278190080
-0.1375384 -0.12927741 0.82194674 4278190080
-0.13584596 -0.1290658 0.82349819 4278190080
-0.13563475 -0.1301222 0.8244282 4278190080
-0.13468215 -0.13054848 0.82567233 4278190080
-0.13447069 -0.13160616 0.82660353 4278190080
-0.13277534 -0.13140874 0.8281675 4278190080
-0.13256335 -0.13246903 0.82910097 4278190080
-0.13235137 -0.13352929 0.83003438 4278190080
-0.13065402 -0.13334225 0.83160746 4278190080
-0.12895559 -0.13316034 0.83318508 4278190080
-0.12874258 -0.13422579 0.83412308 4278190080
-0.12555565 -0.1328121 0.83635402 4278190080
-0.12534159 -0.1338827 0.83729655 4278190080
-0.12512754 -0.13495332 0.83823913 4278190080
-0.1249135 -0.13602394 0.83918166 4278190080
-0.12321045 -0.13586536 0.84077978 4278190080
-0.12299588 -0.13693856 0.84172457 4278190080
-0.12129128 -0.13678773 0.84332955 4278190080
-0.1195856 -0.13664202 0.84493905 4278190080
-0.11787893 -0.13650154 0.84655309 4278190080
-0.11595456 -0.13744973 0.84912562 4278190080
-0.11573792 -0.13853326 0.8500796 4278190080
-0.14070404 -0.10954827 0.80756819 4278190080
-0.14196321 -0.11191528 0.80791122 4278190080
-0.14322348 -0.11427715 0.80824977 4278190080
-0.14301331 -0.11532836 0.80917525 4278190080
-0.14427507 -0.11768242 0.80950695 4278190080
-0.1428075 -0.12502287 0.81596935 4278190080
-0.14259784 -0.1260715 0.81689256 4278190080
-0.14238819 -0.12712014 0.81781578 4278190080
-0.14070143 -0.12689179 0.81935555 4278190080
-0.14049126 -0.12794301 0.82028103 4278190080
-0.14028108 -0.12899423 0.82120651 4278190080
-0.13859221 -0.12877618 0.82275534 4278190080
-0.13690235 -0.12856334 0.82430881 4278190080
-0.1359513 -0.12898771 0.82555276 4278190080
-0.13573983 -0.1300454 0.82648396 4278190080
-0.13552837 -0.13110308 0.82741511 4278190080
-0.13383561 -0.13090444 0.8289811 4278190080
-0.13362364 -0.13196471 0.82991457 4278190080
-0.13341166 -0.13302499 0.83084798 4278190080
-0.13171688 -0.13283671 0.83242303 4278190080
-0.12853771 -0.13140763 0.83464652 4278190080
-0.12832418 -0.13247566 0.83558679 4278190080
-0.12662627 -0.13230288 0.83717555 4278190080
-0.12641221 -0.13337348 0.83811808 4278190080
-0.12619817 -0.1344441 0.83906066 4278190080
-0.12598412 -0.13551472 0.84000319 4278190080
-0.12428365 -0.13535489 0.84160328 4278190080
-0.12258215 -0.13520025 0.84320796 4278190080
-0.14197163 -0.10798943 0.80744874 4278190080
-0.14322771 -0.11036024 0.80779213 4278190080
-0.14301702 -0.11141405 0.80871987 4278190080
-0.1442747 -0.11377715 0.8090564 4278190080
-0.14553335 -0.11613503 0.8093884 4278190080
-0.14553829 -0.12476406 0.8152414 4278190080
-0.14532915 -0.1258101 0.81616229 4278190080
-0.14364648 -0.12557274 0.81769723 4278190080
-0.14343682 -0.12662137 0.81862044 4278190080
-0.14175265 -0.1263918 0.82016218 4278190080
-0.14154246 -0.12744302 0.82108766 4278190080
-0.1413323 -0.12849425 0.82201314 4278190080
-0.13816994 -0.12700452 0.82418936 4278190080
-0.13795874 -0.12806089 0.82511944 4278190080
-0.13700898 -0.12848465 0.8263644 4278190080
-0.13679752 -0.12954234 0.8272956 4278190080
-0.13658606 -0.13060002 0.82822675 4278190080
-0.13637459 -0.1316577 0.82915795 4278190080
-0.13468391 -0.13146041 0.83072817 4278190080
-0.13447192 -0.13252069 0.83166158 4278190080
-0.13277973 -0.13233119 0.8332386 4278190080
-0.12960574 -0.13089964 0.83546609 4278190080
-0.12939222 -0.13196766 0.83640635 4278190080
-0.12769687 -0.13179365 0.83799708 4278190080
-0.12748282 -0.13286427 0.83893961 4278190080
-0.12578599 -0.13269804 0.84053713 4278190080
-0.12557141 -0.13377124 0.84148198 4278190080
-0.12535685 -0.13484445 0.84242684 4278190080
-0.12514229 -0.13591765 0.84337163 4278190080
-0.14302802 -0.10748697 0.80825937 4278190080
-0.14428152 -0.10985902 0.80860078 4278190080
-0.14407083 -0.11091282 0.80952853 4278190080
-0.14532591 -0.11327715 0.80986309 4278190080
-0.14658201 -0.11563626 0.81019306 4278190080
-0.14637519 -0.12531258 0.81696498 4278190080
-0.14616606 -0.12635863 0.81788594 4278190080
-0.14448546 -0.12612261 0.81942511 4278190080
-0.14280388 -0.12589179 0.82096881 4278190080
-0.1425937 -0.12694301 0.82189435 4278190080
-0.14238353 -0.12799424 0.82281983 4278190080
-0.13922633 -0.12650205 0.82499999 4278190080
-0.13901514 -0.12755844 0.82593006 4278190080
-0.13806666 -0.12798157 0.82717603 4278190080
-0.1378552 -0.12903926 0.82810718 4278190080
-0.13764374 -0.13009694 0.82903838 4278190080
-0.13743228 -0.13115463 0.82996953 4278190080
-0.13574418 -0.13095611 0.83154178 4278190080
-0.1355322 -0.13201639 0.83247519 4278190080
-0.1338426 -0.13182566 0.83405423 4278190080
-0.13067377 -0.13039166 0.83628565 4278190080
-0.13046025 -0.13145968 0.83722591 4278190080
-0.12876749 -0.13128443 0.83881861 4278190080
-0.12707375 -0.13111439 0.84041584 4278190080
-0.12685919 -0.13218759 0.84136069 4278190080
-0.14533532 -0.1093578 0.80940938 4278190080
-0.14512463 -0.1104116 0.81033719 4278190080
-0.14637715 -0.11277715 0.81066972 4278190080
-0.14930628 -0.12401655 0.81531471 4278190080
-0.14909767 -0.12506001 0.81623334 4278190080
-0.14742124 -0.12481504 0.81776768 4278190080
-0.1472121 -0.12586109 0.81868863 4278190080
-0.1455341 -0.12562384 0.82022977 4278190080
-0.14385509 -0.1253918 0.8217755 4278190080
-0.14364493 -0.12644301 0.82270098 4278190080
-0.14196432 -0.12621871 0.8242535 4278190080
-0.14028274 -0.1259996 0.82581061 4278190080
-0.14007153 -0.12705597 0.82674068 4278190080
-0.13912435 -0.1274785 0.82798761 4278190080
-0.13891289 -0.12853618 0.82891881 4278190080
-0.13870142 -0.12959386 0.82984996 4278190080
-0.13848996 -0.13065156 0.83078116 4278190080
-0.13680446 -0.13045181 0.83235532 4278190080
-0.13659248 -0.13151208 0.83328879 4278190080
-0.13490546 -0.13132012 0.8348698 4278190080
-0.13321736 -0.1311333 0.83645535 4278190080
-0.13152827 -0.13095169 0.83804548 4278190080
-0.14617844 -0.10991037 0.81114578 4278190080
-0.14742836 -0.11227716 0.81147635 4278190080
-0.15034975 -0.12352024 0.81611538 4278190080
-0.15014113 -0.1245637 0.81703407 4278190080
-0.14846729 -0.1243175 0.81857038 4278190080
-0.14825815 -0.12536356 0.81949127 4278190080
-0.14658272 -0.12512507 0.82103443 4278190080
-0.14490631 -0.1248918 0.82258213 4278190080
-0.14469613 -0.12594302 0.82350761 4278190080
-0.14301813 -0.12571748 0.82506216 4278190080
-0.14133912 -0.12549715 0.82662123 4278190080
-0.14039351 -0.12591775 0.8278681 4278190080
-0.14018205 -0.12697543 0.82879925 4278190080
-0.13850068 -0.12676668 0.83036858 4278190080
-0.13828869 -0.12782696 0.83130205 4278190080
-0.13807671 -0.12888722 0.83223552 4278190080
-0.13786472 -0.12994751 0.83316892 4278190080
-0.13765274 -0.13100778 0.83410239 4278190080
-0.13596831 -0.1308146 0.83568537 4278190080
-0.1342828 -0.13062654 0.83727294 4278190080
-0.14723225 -0.10940914 0.81195444 4278190080
-0.14847958 -0.11177716 0.81228304 4278190080
-0.15160184 -0.12198047 0.81599748 4278190080
-0.15118459 -0.1240674 0.81783473 4278190080
-0.14951335 -0.12381996 0.81937307 4278190080
-0.14930421 -0.12486602 0.82029396 4278190080
-0.14763136 -0.1246263 0.82183909 4278190080
-0.14595753 -0.1243918 0.82338881 4278190080
-0.14574736 -0.12544303 0.8243143 4278190080
-0.14407194 -0.12521625 0.82587081 4278190080
-0.14166266 -0.12435699 0.82774854 4278190080
-0.14145119 -0.12541467 0.82867968 4278190080
-0.14123973 -0.12647235 0.82961088 4278190080
