# .PCD v0.7 - Point Cloud Data file format
VERSION 0.7
FIELDS x y z rgba
SIZE 4 4 4 4
TYPE F F F U
COUNT 1 1 1 1
WIDTH 1056
HEIGHT 1
VIEWPOINT 0 0 0 1 0 0 0
POINTS 1056
DATA ascii
0.02718918 0.13091031 0.59149277 4278190080
0.026624689 0.13316737 0.59182233 4278190080
0.026991239 0.13389483 0.59116465 4278190080
0.027357787 0.13462229 0.59050697 4278190080
0.027724337 0.13534977 0.58984935 4278190080
0.028090885 0.13607723 0.58919168 4278190080
0.028457435 0.13680468 0.588534 4278190080
0.028823983 0.13753214 0.58787632 4278190080
0.028729869 0.13903414 0.58770353 4278190080
0.02909703 0.13976282 0.58704478 4278190080
0.029464187 0.14049149 0.58638602 4278190080
0.029831348 0.14122017 0.58572727 4278190080
0.030198507 0.14194883 0.58506852 4278190080
0.030565664 0.14267752 0.58440971 4278190080
0.031389829 0.14262439 0.58327264 4278190080
0.031756379 0.14335185 0.58261496 4278190080
0.032578681 0.14329515 0.58148122 4278190080
0.03294462 0.14402141 0.58082461 4278190080
0.033310559 0.14474766 0.58016807 4278190080
0.033676498 0.14547391 0.57951146 4278190080
0.034688771 0.14917156 0.57735366 4278190080
0.035055321 0.14989902 0.57669598 4278190080
0.035421871 0.1506265 0.5760383 4278190080
0.035788421 0.15135396 0.57538062 4278190080
0.036521517 0.15280887 0.57406533 4278190080
0.036888067 0.15353635 0.57340765 4278190080
0.037254617 0.15426381 0.57274997 4278190080
0.037621163 0.15499127 0.57209229 4278190080
0.037987713 0.15571873 0.57143462 4278190080
0.038354259 0.15644619 0.570777 4278190080
0.038720813 0.15717366 0.57011932 4278190080
0.039087359 0.15790112 0.56946164 4278190080
0.039453909 0.15862858 0.56880397 4278190080
0.039820462 0.15935606 0.56814629 4278190080
0.040995281 0.15999897 0.56638002 4278190080
0.040920105 0.16153844 0.56617332 4278190080
0.041286655 0.1622659 0.56551564 4278190080
-0.0049053635 0.057610225 0.6527704 4278190080
-0.0017999426 0.065460064 0.6468603 4278190080
-0.0014370511 0.066180266 0.64620918 4278190080
-0.0010741623 0.066900469 0.64555812 4278190080
-0.00071127212 0.067620665 0.644907 4278190080
-0.00034838193 0.068340868 0.64425588 4278190080
1.4506935e-05 0.069061071 0.64360482 4278190080
0.00037739711 0.069781266 0.64295369 4278190080
0.0007402873 0.070501469 0.64230257 4278190080
0.0011031762 0.071221672 0.64165151 4278190080
0.0014660663 0.071941875 0.64100039 4278190080
0.0018289565 0.07266207 0.64034927 4278190080
0.0020446875 0.07477694 0.63962394 4278190080
0.0024081881 0.07549835 0.63897175 4278190080
0.0033551878 0.079064511 0.63693434 4278190080
0.004589186 0.079826817 0.63505858 4278190080
0.0049526854 0.080548234 0.63440639 4278190080
0.0053161848 0.081269644 0.63375419 4278190080
0.0056796852 0.081991054 0.63310194 4278190080
0.0060431832 0.082712464 0.63244975 4278190080
0.0059039546 0.084122866 0.63236129 4278190080
0.0062680645 0.084845491 0.63170803 4278190080
0.0066321739 0.085568108 0.6310547 4278190080
0.0069962833 0.086290732 0.63040143 4278190080
0.0077245026 0.087735973 0.62909484 4278190080
0.0079542343 0.089878723 0.62834436 4278190080
0.0083189532 0.090602554 0.62768996 4278190080
0.0086836731 0.091326386 0.62703562 4278190080
0.0099091595 0.092071705 0.62517512 4278190080
0.01113218 0.092812218 0.62331903 4278190080
0.011365598 0.094962187 0.62256193 4278190080
0.012093817 0.096407436 0.62125534 4278190080
0.013186146 0.098575301 0.61929548 4278190080
0.013550255 0.099297918 0.61864221 4278190080
0.013914365 0.10002054 0.61798888 4278190080
0.015248624 0.10435537 0.61525667 4278190080
0.015613344 0.1050792 0.61460227 4278190080
0.015978063 0.10580303 0.61394793 4278190080
0.016342781 0.10652686 0.61329353 4278190080
0.016707502 0.10725069 0.61263913 4278190080
0.017072221 0.10797453 0.61198473 4278190080
0.01743694 0.10869836 0.61133039 4278190080
0.017801661 0.10942219 0.61067599 4278190080
0.01816638 0.11014602 0.61002159 4278190080
0.018531099 0.11086985 0.60936719 4278190080
0.018895818 0.11159369 0.60871279 4278190080
0.019260539 0.11231752 0.60805845 4278190080
0.019625258 0.11304135 0.60740405 4278190080
0.019989977 0.11376518 0.60674965 4278190080
0.020354697 0.11448901 0.60609525 4278190080
0.020719416 0.11521284 0.60544091 4278190080
0.021084135 0.11593668 0.60478652 4278190080
0.021448854 0.11666051 0.60413212 4278190080
0.021813575 0.11738434 0.60347772 4278190080
0.022543013 0.11883201 0.60216898 4278190080
0.022434279 0.12030293 0.60202581 4278190080
0.022799607 0.12102797 0.60137033 4278190080
0.023164937 0.12175301 0.6007148 4278190080
0.023530267 0.12247806 0.60005933 4278190080
0.024731331 0.123175 0.59824264 4278190080
0.024626255 0.12465318 0.59809291 4278190080
0.025460768 0.12462267 0.5969339 4278190080
0.025825489 0.1253465 0.5962795 4278190080
0.025722243 0.12682831 0.5961265 4278190080
0.026087573 0.12755336 0.59547102 4278190080
0.026452903 0.1282784 0.59481549 4278190080
0.026818231 0.12900344 0.59416002 4278190080
0.027183561 0.12972848 0.59350455 4278190080
0.027548889 0.13045353 0.59284908 4278190080
0.027914219 0.13117857 0.5921936 4278190080
0.027815852 0.13267006 0.59203184 4278190080
0.028181791 0.13339631 0.59137523 4278190080
0.02854773 0.13412257 0.59071869 4278190080
0.028913669 0.13484882 0.59006208 4278190080
0.029279608 0.13557507 0.58940554 4278190080
0.029645549 0.13630132 0.58874893 4278190080
0.030011488 0.13702758 0.58809239 4278190080
0.030377427 0.13775384 0.58743578 4278190080
0.030743368 0.1384801 0.58677924 4278190080
0.031109305 0.13920633 0.58612263 4278190080
0.031475246 0.1399326 0.58546609 4278190080
0.031841185 0.14065886 0.58480948 4278190080
0.032207124 0.14138511 0.58415294 4278190080
0.032573063 0.14211136 0.58349633 4278190080
0.032939002 0.14283761 0.58283979 4278190080
0.033304941 0.14356387 0.58218324 4278190080
0.03367088 0.14429012 0.58152664 4278190080
0.034768701 0.14646888 0.57955694 4278190080
0.03513464 0.14719513 0.57890034 4278190080
0.035500579 0.14792138 0.57824379 4278190080
0.035866518 0.14864764 0.57758719 4278190080
0.036232453 0.14937387 0.57693064 4278190080
0.036598396 0.15010014 0.57627404 4278190080
0.036964335 0.15082639 0.57561749 4278190080
0.037696213 0.1522789 0.57430434 4278190080
0.038062152 0.15300515 0.57364774 4278190080
0.038428094 0.15373141 0.57299119 4278190080
0.03879403 0.15445766 0.57233459 4278190080
0.039159968 0.15518391 0.57167804 4278190080
0.039525911 0.15591016 0.57102144 4278190080
0.03989185 0.15663642 0.57036489 4278190080
0.040257785 0.15736267 0.56970835 4278190080
0.040623724 0.15808892 0.56905174 4278190080
0.040989667 0.15881518 0.5683952 4278190080
0.041355606 0.15954143 0.56773859 4278190080
0.041721541 0.16026767 0.56708205 4278190080
0.042087484 0.16099393 0.56642544 4278190080
0.042453423 0.16172019 0.5657689 4278190080
-0.0041863811 0.057876237 0.65346539 4278190080
-0.0034618217 0.059314217 0.65216535 4278190080
-0.00020130241 0.065785132 0.64631528 4278190080
0.00016097736 0.066504121 0.64566529 4278190080
0.00052325713 0.067223109 0.6450153 4278190080
0.00088553689 0.067942105 0.64436525 4278190080
0.0012478167 0.068661094 0.64371526 4278190080
0.0010976013 0.070047736 0.64364982 4278190080
0.0014604914 0.070767939 0.64299875 4278190080
0.0018233804 0.071488135 0.64234763 4278190080
0.0021862704 0.072208337 0.64169651 4278190080
0.0025491607 0.07292854 0.64104545 4278190080
0.0029120508 0.073648743 0.64039433 4278190080
0.0031295985 0.075765267 0.63966906 4278190080
0.0034930978 0.076486677 0.63901687 4278190080
0.0061780587 0.080130547 0.63453442 4278190080
0.0065409471 0.08085075 0.6338833 4278190080
0.0069038374 0.081570946 0.63323224 4278190080
0.0067645935 0.082979374 0.63314706 4278190080
0.0071280943 0.083700791 0.63249487 4278190080
0.0074915942 0.084422201 0.63184267 4278190080
0.0078550931 0.085143611 0.63119048 4278190080
0.0082185939 0.085865021 0.63053828 4278190080
0.0091753434 0.089448579 0.62848675 4278190080
0.0095394533 0.090171203 0.62783349 4278190080
0.0099035632 0.09089382 0.62718016 4278190080
0.011126591 0.091636308 0.62532073 4278190080
0.01185359 0.093079135 0.62401634 4278190080
0.01221709 0.093800545 0.62336415 4278190080
0.012580589 0.094521955 0.62271196 4278190080
0.012944089 0.095243365 0.62205976 4278190080
0.015125087 0.099571832 0.6181466 4278190080
0.015488586 0.10029325 0.6174944 4278190080
0.017185753 0.10534626 0.61411434 4278190080
0.017549863 0.10606887 0.61346108 4278190080
0.017913973 0.1067915 0.61280781 4278190080
0.018278083 0.10751412 0.61215448 4278190080
0.018642193 0.10823674 0.61150122 4278190080
0.019006303 0.10895936 0.61084789 4278190080
0.019370411 0.10968199 0.61019462 4278190080
0.01973452 0.1104046 0.60954136 4278190080
0.02046274 0.11184985 0.60823476 4278190080
0.02082685 0.11257247 0.60758144 4278190080
0.021190958 0.11329509 0.60692817 4278190080
0.021555068 0.11401771 0.6062749 4278190080
0.021919178 0.11474033 0.60562158 4278190080
0.022283288 0.11546296 0.60496831 4278190080
0.022172688 0.11692832 0.60483181 4278190080
0.022537408 0.11765216 0.60417742 4278190080
0.023375615 0.11763082 0.60300845 4278190080
0.023631565 0.11982365 0.60221428 4278190080
0.023996286 0.12054748 0.60155988 4278190080
0.024361005 0.12127131 0.60090548 4278190080
0.026652602 0.12413441 0.59712881 4278190080
0.027016712 0.12485704 0.59647554 4278190080
0.026914041 0.12633814 0.5963248 4278190080
0.02727876 0.12706196 0.5956704 4278190080
0.027643479 0.1277858 0.595016 4278190080
0.0280082 0.12850964 0.5943616 4278190080
0.027908601 0.12999673 0.59420538 4278190080
0.028273929 0.13072178 0.59354991 4278190080
0.028639259 0.13144682 0.59289443 4278190080
0.029004589 0.13217187 0.59223896 4278190080
0.028908042 0.13366503 0.59207726 4278190080
0.029273981 0.13439128 0.59142065 4278190080
0.030100577 0.13434699 0.59027249 4278190080
0.030465905 0.13507204 0.58961701 4278190080
0.030831235 0.13579708 0.58896154 4278190080
0.031196564 0.13652211 0.58830607 4278190080
0.031561892 0.13724716 0.5876506 4278190080
0.031927224 0.13797221 0.58699512 4278190080
0.032292552 0.13869725 0.58633965 4278190080
0.032657884 0.1394223 0.58568418 4278190080
0.033023212 0.14014733 0.58502865 4278190080
0.03338854 0.14087237 0.58437318 4278190080
0.033753868 0.14159742 0.5837177 4278190080
0.0341192 0.14232247 0.58306223 4278190080
0.034484528 0.1430475 0.58240676 4278190080
0.035215188 0.14449759 0.58109581 4278190080
0.035580516 0.14522263 0.58044034 4278190080
0.036311176 0.14667271 0.5791294 4278190080
0.036676507 0.14739776 0.57847387 4278190080
0.037041835 0.1481228 0.57781839 4278190080
0.037407164 0.14884785 0.57716292 4278190080
0.037772495 0.14957289 0.57650745 4278190080
0.038503151 0.15102297 0.5751965 4278190080
0.039599139 0.15319809 0.57323003 4278190080
0.039964467 0.15392314 0.57257456 4278190080
0.040329799 0.15464818 0.57191908 4278190080
0.040695131 0.15537323 0.57126361 4278190080
0.041060459 0.15609826 0.57060814 4278190080
0.041425787 0.15682331 0.56995267 4278190080
0.041349977 0.15835762 0.56975377 4278190080
0.042521775 0.15899843 0.56798625 4278190080
0.042887103 0.15972348 0.56733072 4278190080
0.043252435 0.16044852 0.56667525 4278190080
0.043983094 0.16189861 0.5653643 4278190080
-0.0029463449 0.057493523 0.65355706 4278190080
-0.0027428288 0.059580237 0.65286034 4278190080
-0.0023805504 0.060299225 0.65221035 4278190080
0.00051769038 0.066051148 0.64701027 4278190080
0.00087997015 0.066770144 0.64636028 4278190080
0.0012422499 0.067489132 0.64571023 4278190080
0.0016045297 0.068208121 0.64506024 4278190080
0.0019668094 0.068927109 0.64441025 4278190080
0.0023290892 0.069646098 0.6437602 4278190080
0.002691369 0.070365094 0.64311022 4278190080
0.0030536489 0.071084082 0.64246023 4278190080
0.0034159285 0.071803071 0.64181018 4278190080
0.0037782083 0.072522059 0.64116019 4278190080
0.0036322498 0.073915206 0.64109045 4278190080
0.0039951387 0.074635401 0.64043939 4278190080
0.004358029 0.075355604 0.63978827 4278190080
0.0047209193 0.076075807 0.63913715 4278190080
0.0050838077 0.07679601 0.63848609 4278190080
0.0074010072 0.079711966 0.63466012 4278190080
0.0077632871 0.080430955 0.63401014 4278190080
0.0081255678 0.081149951 0.63336009 4278190080
0.0079869265 0.082557611 0.63327724 4278190080
0.0083498154 0.083277814 0.63262618 4278190080
0.0087127062 0.083998017 0.63197505 4278190080
0.0090755951 0.084718212 0.63132393 4278190080
0.0098013757 0.086158618 0.63002175 4278190080
0.010394002 0.089017577 0.62862682 4278190080
0.010757502 0.089738987 0.62797463 4278190080
0.011121001 0.090460397 0.62732244 4278190080
0.011484501 0.091181815 0.62667024 4278190080
0.013067383 0.092640422 0.62416184 4278190080
0.014156053 0.094801031 0.62220854 4278190080
0.014028999 0.096231692 0.62210488 4278190080
0.014392499 0.096953101 0.62145269 4278190080
0.015119498 0.098395921 0.6201483 4278190080
0.015482998 0.099117339 0.61949611 4278190080
0.015846496 0.099838749 0.61884391 4278190080
0.016209997 0.10056016 0.61819172 4278190080
0.016573496 0.10128157 0.61753953 4278190080
0.017300496 0.10272439 0.61623514 4278190080
0.018390995 0.10488863 0.6142785 4278190080
0.019117994 0.10633145 0.61297411 4278190080
0.019481495 0.10705286 0.61232191 4278190080
0.019844994 0.10777427 0.61166972 4278190080
0.020208493 0.10849568 0.61101753 4278190080
0.021298993 0.11065991 0.60906094 4278190080
0.021662492 0.11138133 0.60840875 4278190080
0.022025991 0.11210274 0.60775656 4278190080
0.022389492 0.11282415 0.60710436 4278190080
0.022752991 0.11354556 0.60645217 4278190080
0.02311649 0.11426697 0.60579997 4278190080
0.02300591 0.11573032 0.60566676 4278190080
0.023370018 0.11645294 0.60501349 4278190080
0.023734128 0.11717556 0.60436022 4278190080
0.024570489 0.11715262 0.6031912 4278190080
0.028568987 0.12508814 0.596017 4278190080
0.028467553 0.12656964 0.59586746 4278190080
0.028831663 0.12729226 0.59521413 4278190080
0.028732033 0.12877744 0.5950613 4278190080
0.02955988 0.12873751 0.59390754 4278190080
0.02992399 0.12946013 0.59325427 4278190080
0.0302881 0.13018274 0.592601 4278190080
0.030190911 0.13167277 0.59244376 4278190080
0.03055563 0.13239661 0.59178936 4278190080
0.030920349 0.13312043 0.59113497 4278190080
0.03128507 0.13384427 0.59048057 4278190080
0.031649791 0.1345681 0.58982623 4278190080
0.032014508 0.13529193 0.58917183 4278190080
0.032379229 0.13601576 0.58851743 4278190080
0.032743946 0.1367396 0.58786303 4278190080
0.033108667 0.13746342 0.58720869 4278190080
0.033473387 0.13818726 0.58655429 4278190080
0.033838104 0.1389111 0.58589989 4278190080
0.034202825 0.13963492 0.58524549 4278190080
0.034567546 0.14035876 0.58459115 4278190080
0.035296984 0.14180642 0.58328235 4278190080
0.035661701 0.14253025 0.58262795 4278190080
0.036391143 0.14397791 0.58131921 4278190080
0.03675586 0.14470175 0.58066481 4278190080
0.037120581 0.14542559 0.58001041 4278190080
0.037485301 0.14614941 0.57935607 4278190080
0.038214739 0.14759707 0.57804728 4278190080
0.03857946 0.14832091 0.57739288 4278190080
0.038944177 0.14904474 0.57673854 4278190080
0.039673619 0.1504924 0.57542974 4278190080
0.041497216 0.15411156 0.5721578 4278190080
0.041861933 0.15483539 0.57150346 4278190080
0.042226654 0.15555923 0.57084906 4278190080
0.042591374 0.15628307 0.57019466 4278190080
0.042516153 0.1578166 0.56999803 4278190080
0.043685529 0.15845455 0.56823152 4278190080
0.044414971 0.15990223 0.56692272 4278190080
0.044708133 0.16216686 0.56606513 4278190080
-0.0022285634 0.057759095 0.65425086 4278190080
-0.0015052247 0.059194651 0.65295309 4278190080
-0.001143554 0.059912432 0.65230417 4278190080
0.0017498048 0.065654673 0.64711285 4278190080
0.0021114754 0.066372454 0.64646393 4278190080
0.0019612426 0.067755148 0.64640522 4278190080
0.0026858023 0.069193132 0.64510518 4278190080
0.0030480819 0.069912121 0.64445519 4278190080
0.0034103617 0.070631109 0.64380521 4278190080
0.0037726415 0.071350098 0.64315522 4278190080
0.0041349214 0.072069086 0.64250517 4278190080
0.0044972012 0.072788082 0.64185518 4278190080
0.0048594819 0.073507071 0.64120519 4278190080
0.0052217618 0.074226066 0.64055514 4278190080
0.0055840416 0.074945055 0.63990515 4278190080
0.0059463214 0.075664043 0.63925517 4278190080
0.0081200004 0.079977982 0.63535511 4278190080
0.0084822802 0.080696978 0.63470507 4278190080
0.0088445609 0.081415966 0.63405508 4278190080
0.0092068408 0.082134955 0.63340509 4278190080
0.0095691206 0.082853951 0.63275504 4278190080
0.0094329054 0.08426448 0.63267118 4278190080
0.0097957943 0.084984683 0.63202012 4278190080
0.01101824 0.085729912 0.63015503 4278190080
0.010884464 0.087145284 0.63006681 4278190080
0.011247354 0.087865487 0.62941569 4278190080
0.011973133 0.089305885 0.62811351 4278190080
0.012336023 0.090026088 0.62746239 4278190080
0.012698912 0.090746284 0.62681127 4278190080
0.013061803 0.091466486 0.62616014 4278190080
0.013424693 0.092186689 0.62550908 4278190080
0.013787583 0.092906892 0.62485796 4278190080
0.014150471 0.093627088 0.62420684 4278190080
0.014513361 0.094347291 0.62355578 4278190080
0.014876252 0.095067494 0.62290466 4278190080
0.015239141 0.095787689 0.62225354 4278190080
0.015602031 0.096507892 0.62160248 4278190080
0.015964922 0.097228095 0.62095135 4278190080
0.016690701 0.098668493 0.61964917 4278190080
0.017053591 0.099388696 0.61899805 4278190080
0.017416479 0.1001089 0.61834693 4278190080
0.017779371 0.1008291 0.61769587 4278190080
0.018142259 0.1015493 0.61704475 4278190080
0.018505149 0.1022695 0.61639363 4278190080
0.022747407 0.11236965 0.60845387 4278190080
0.023110908 0.11309107 0.60780168 4278190080
0.023474406 0.11381248 0.60714948 4278190080
0.023837905 0.11453389 0.60649729 4278190080
0.024201406 0.1152553 0.60584509 4278190080
0.024564905 0.11597671 0.6051929 4278190080
0.024928406 0.11669812 0.60454071 4278190080
0.025291905 0.11741953 0.60388851 4278190080
0.025655406 0.11814094 0.60323632 4278190080
0.026018905 0.11886235 0.60258412 4278190080
0.0300174 0.12679787 0.59540993 4278190080
0.030380901 0.12751929 0.59475774 4278190080
0.0307444 0.1282407 0.59410554 4278190080
0.031107901 0.12896211 0.59345335 4278190080
0.031471398 0.12968352 0.59280115 4278190080
0.031374838 0.13117273 0.59264618 4278190080
0.031738948 0.13189535 0.59199291 4278190080
0.032103058 0.13261798 0.59133959 4278190080
0.032831278 0.13406321 0.59003299 4278190080
0.033195384 0.13478585 0.58937973 4278190080
0.033559494 0.13550846 0.58872646 4278190080
0.033923604 0.13623108 0.58807313 4278190080
0.034287713 0.13695371 0.58741987 4278190080
0.034651823 0.13767633 0.58676654 4278190080
0.036108263 0.14056681 0.58415341 4278190080
0.036472373 0.14128944 0.58350009 4278190080
0.037200592 0.14273468 0.58219355 4278190080
0.038292918 0.14490254 0.58023363 4278190080
0.040113468 0.14851566 0.57696724 4278190080
0.042221043 0.15437937 0.5728575 4278190080
0.04258576 0.15510321 0.5722031 4278190080
0.042950481 0.15582703 0.5715487 4278190080
0.043315202 0.15655087 0.5708943 4278190080
0.043679923 0.15727471 0.57023996 4278190080
0.04404464 0.15799853 0.56958556 4278190080
0.045575112 0.15935498 0.56716788 4278190080
0.045503516 0.16089386 0.56696802 4278190080
0.045868237 0.1616177 0.56631362 4278190080
0.046232961 0.16234154 0.56565922 4278190080
-0.00099212385 0.057374995 0.65433908 4278190080
-0.00078744336 0.059460223 0.65364689 4278190080
-0.00042577268 0.060178004 0.65299797 4278190080
0.00045211724 0.060241275 0.65174776 4278190080
0.00081317622 0.060957845 0.65109998 4278190080
0.0028292569 0.066638023 0.64715773 4278190080
0.0031909263 0.067355804 0.64650881 4278190080
0.0039142678 0.068791367 0.64521098 4278190080
0.0049992772 0.070944704 0.64326423 4278190080
0.0053609465 0.071662478 0.64261532 4278190080
0.0057226168 0.07238026 0.6419664 4278190080
0.0060842866 0.073098041 0.64131749 4278190080
0.006445956 0.073815823 0.64066863 4278190080
0.0068076262 0.074533604 0.64001971 4278190080
0.0070275939 0.076649055 0.63930011 4278190080
0.0073898737 0.077368043 0.63865012 4278190080
0.0088389926 0.080244005 0.63605011 4278190080
0.0092012724 0.080962993 0.63540006 4278190080
0.0095635541 0.081681982 0.63475007 4278190080
0.0099258339 0.082400978 0.63410008 4278190080
0.010288113 0.083119966 0.63345003 4278190080
0.010650393 0.083838955 0.63280004 4278190080
0.011012672 0.084557943 0.63215005 4278190080
0.011374952 0.085276939 0.63150001 4278190080
0.011737232 0.085995927 0.63085002 4278190080
0.012099512 0.086714916 0.63020003 4278190080
0.012461793 0.087433904 0.62954998 4278190080
0.012330448 0.088852152 0.62946075 4278190080
0.013186352 0.088871889 0.62825 4278190080
0.013548632 0.089590877 0.62759995 4278190080
0.014273192 0.091028862 0.62629998 4278190080
0.014635472 0.09174785 0.62564993 4278190080
0.014997751 0.092466839 0.62499994 4278190080
0.015360031 0.093185827 0.62434995 4278190080
0.01572231 0.093904823 0.62369996 4278190080
0.016084591 0.094623812 0.62304991 4278190080
0.016322235 0.096774362 0.6222986 4278190080
0.016685124 0.097494557 0.62164754 4278190080
0.017048014 0.09821476 0.62099642 4278190080
0.017410904 0.098934963 0.62034529 4278190080
0.017773794 0.099655166 0.61969417 4278190080
0.018136684 0.10037536 0.61904311 4278190080
0.018499574 0.10109556 0.61839199 4278190080
0.01934511 0.10109472 0.61719984 4278190080
0.020676913 0.10541677 0.61448538 4278190080
0.021402692 0.10685717 0.6131832 4278190080
0.022491362 0.10901777 0.6112299 4278190080
0.022854252 0.10973798 0.61057878 4278190080
0.023217142 0.11045817 0.60992765 4278190080
0.023580031 0.11117838 0.60927659 4278190080
0.023942921 0.11189858 0.60862547 4278190080
0.024305811 0.11261877 0.60797435 4278190080
0.024668701 0.11333898 0.60732329 4278190080
0.025031591 0.11405918 0.60667217 4278190080
0.025394479 0.11477938 0.60602105 4278190080
0.025286321 0.11624362 0.60589021 4278190080
0.025649821 0.11696503 0.60523802 4278190080
0.026483148 0.11693998 0.60406774 4278190080
0.026846038 0.11766018 0.60341668 4278190080
0.02757182 0.11910059 0.60211444 4278190080
0.031926494 0.12774299 0.59430122 4278190080
0.032289386 0.12846319 0.5936501 4278190080
0.032652274 0.1291834 0.59299904 4278190080
0.032556314 0.13067184 0.59284627 4278190080
0.032919813 0.13139325 0.59219408 4278190080
0.034737311 0.13500032 0.58893311 4278190080
0.038008809 0.14149301 0.58306336 4278190080
0.039379645 0.14589253 0.58027887 4278190080
0.039743755 0.14661515 0.57962555 4278190080
0.040107865 0.14733776 0.57897228 4278190080
0.040471975 0.1480604 0.57831895 4278190080
0.041280307 0.14798571 0.57719362 4278190080
0.041564304 0.15022826 0.57635909 4278190080
0.04229252 0.1516735 0.5750525 4278190080
0.04265663 0.15239613 0.57439923 4278190080
0.04302074 0.15311874 0.57374597 4278190080
0.04338485 0.15384136 0.57309264 4278190080
0.04374896 0.15456399 0.57243937 4278190080
0.04411307 0.15528661 0.57178611 4278190080
0.04447718 0.15600923 0.57113278 4278190080
0.04484129 0.15673186 0.57047951 4278190080
0.045205399 0.15745448 0.56982619 4278190080
0.045569509 0.15817709 0.56917292 4278190080
0.045933619 0.15889972 0.56851965 4278190080
0.046297729 0.15962234 0.56786633 4278190080
0.046661839 0.16034496 0.56721306 4278190080
0.047025949 0.16106759 0.56655973 4278190080
0.047390059 0.16179021 0.56590647 4278190080
0.047754169 0.16251282 0.5652532 4278190080
8.5495994e-05 0.058356684 0.65438384 4278190080
0.00044655625 0.059073254 0.65373605 4278190080
0.00080761523 0.059789822 0.65308821 4278190080
0.0020441047 0.060566835 0.65119129 4278190080
0.0036960961 0.06552238 0.64790565 4278190080
0.0040571564 0.066238947 0.64725786 4278190080
0.0039087078 0.067621373 0.64720261 4278190080
0.0073066973 0.072688073 0.64142746 4278190080
0.0075254077 0.074799173 0.64071351 4278190080
0.0078870784 0.075516954 0.6400646 4278190080
0.0082487483 0.076234728 0.63941568 4278190080
0.0086104181 0.07695251 0.63876677 4278190080
0.0089720879 0.077670291 0.63811785 4278190080
0.010057098 0.079823636 0.6361711 4278190080
0.010418768 0.08054141 0.63552219 4278190080
0.010282546 0.081948005 0.63544506 4278190080
0.011142108 0.081976973 0.63422436 4278190080
0.011503778 0.082694754 0.63357544 4278190080
0.011865448 0.083412535 0.63292652 4278190080
0.011731666 0.084823966 0.63284498 4278190080
0.012093945 0.085542955 0.632195 4278190080
0.012950459 0.085565872 0.63097978 4278190080
0.013312127 0.086283654 0.63033086 4278190080
0.013673798 0.087001435 0.62968194 4278190080
0.013543065 0.088418916 0.62959498 4278190080
0.013905345 0.089137904 0.62894499 4278190080
0.015120477 0.089872554 0.62708634 4278190080
0.015482147 0.090590328 0.62643743 4278190080
0.016205488 0.092025891 0.62513959 4278190080
0.016567158 0.092743672 0.62449068 4278190080
0.016441304 0.094170839 0.62439489 4278190080
0.016803583 0.094889827 0.6237449 4278190080
0.017165864 0.095608823 0.62309492 4278190080
0.017528145 0.096327811 0.62244487 4278190080
0.017405329 0.097761028 0.62234366 4278190080
0.017768219 0.09848123 0.62169254 4278190080
0.018131109 0.099201426 0.62104148 4278190080
0.018977264 0.099203773 0.61984485 4278190080
0.019339543 0.099922761 0.61919487 4278190080
0.019701824 0.10064175 0.61854482 4278190080
0.020545527 0.10063925 0.6173526 4278190080
0.021875503 0.1049557 0.61464483 4278190080
0.022237781 0.10567468 0.61399478 4278190080
0.022600062 0.10639368 0.61334479 4278190080
0.022962343 0.10711267 0.6126948 4278190080
0.024411462 0.10998863 0.61009473 4278190080
0.024773741 0.11070762 0.60944474 4278190080
0.025136022 0.11142661 0.60879475 4278190080
0.025498301 0.1121456 0.6081447 4278190080
0.025860582 0.11286459 0.60749471 4278190080
0.02622286 0.11358358 0.60684472 4278190080
0.026114684 0.11504585 0.60671723 4278190080
0.026947422 0.11502156 0.60554469 4278190080
0.027309701 0.11574055 0.6048947 4278190080
0.02767198 0.11645954 0.60424465 4278190080
0.02803426 0.11717853 0.60359466 4278190080
0.02875882 0.11861651 0.60229468 4278190080
0.032743897 0.1265254 0.59514457 4278190080
0.03383074 0.12868237 0.59319454 4278190080
0.033735368 0.13017006 0.5930441 4278190080
0.033641219 0.13166016 0.5928914 4278190080
0.034004718 0.13238157 0.5922392 4278190080
0.034368217 0.13310298 0.59158701 4278190080
0.035458717 0.13526723 0.58963042 4278190080
0.035822216 0.13598864 0.58897823 4278190080
0.038003217 0.1403171 0.58506507 4278190080
0.038366716 0.14103852 0.58441287 4278190080
0.038730215 0.14175993 0.58376068 4278190080
0.039093714 0.14248134 0.58310848 4278190080
0.039457213 0.14320275 0.58245629 4278190080
0.039820712 0.14392416 0.5818041 4278190080
0.040184215 0.14464557 0.5811519 4278190080
0.040547714 0.14536698 0.58049971 4278190080
0.041274711 0.1468098 0.57919532 4278190080
0.04163821 0.14753121 0.57854313 4278190080
0.042001713 0.14825262 0.57789087 4278190080
0.042365212 0.14897405 0.57723868 4278190080
0.042728711 0.14969546 0.57658648 4278190080
0.04309221 0.15041687 0.57593429 4278190080
0.04563671 0.15546674 0.57136893 4278190080
0.046000209 0.15618815 0.57071674 4278190080
0.046363708 0.15690956 0.57006454 4278190080
0.046292137 0.15844446 0.56987143 4278190080
0.047454204 0.15907378 0.56810796 4278190080
0.047384467 0.16061233 0.56791151 4278190080
0.047748573 0.16133495 0.56725824 4278190080
0.048112683 0.16205756 0.56660497 4278190080
0.048476793 0.1627802 0.56595165 4278190080
0.048840903 0.16350281 0.56529838 4278190080
0.00080207631 0.058621809 0.6550765 4278190080
0.0011631366 0.05933838 0.65442866 4278190080
0.0015241955 0.060054947 0.65378088 4278190080
0.0023990239 0.060116153 0.65252948 4278190080
0.0031199236 0.06154687 0.65123606 4278190080
0.0052826256 0.06583903 0.64735568 4278190080
0.0051347967 0.067220643 0.64730269 4278190080
0.005495857 0.06793721 0.64665484 4278190080
0.0058569177 0.068653785 0.64600706 4278190080
0.0062179766 0.069370352 0.64535922 4278190080
0.0080232779 0.072953202 0.64212012 4278190080
0.0083843367 0.073669769 0.64147234 4278190080
0.0087453984 0.074386343 0.6408245 4278190080
0.0091064572 0.07510291 0.64017665 4278190080
0.009467518 0.075819477 0.63952887 4278190080
0.011633878 0.080118895 0.63564193 4278190080
0.011498218 0.08152476 0.63556707 4278190080
0.012355998 0.081552036 0.63434631 4278190080
0.012717058 0.082268603 0.63369846 4278190080
0.013078119 0.08298517 0.63305068 4278190080
0.012944899 0.084395878 0.63297141 4278190080
0.013306569 0.08511366 0.63232249 4278190080
0.014161298 0.085134879 0.63110721 4278190080
0.014522359 0.085851453 0.63045937 4278190080
0.01439158 0.087267004 0.6303758 4278190080
0.014753249 0.087984778 0.62972689 4278190080
0.015114919 0.088702559 0.62907797 4278190080
0.017410839 0.091584004 0.62527686 4278190080
0.017646609 0.093727022 0.62453556 4278190080
0.018008279 0.094444804 0.62388664 4278190080
0.018369948 0.095162578 0.62323773 4278190080
0.018731618 0.095880359 0.62258881 4278190080
0.018609406 0.097312815 0.62248987 4278190080
0.018971685 0.098031804 0.62183982 4278190080
0.019333966 0.098750792 0.62118983 4278190080
0.020178299 0.098751478 0.61999315 4278190080
0.020539969 0.099469259 0.61934423 4278190080
0.020901639 0.10018704 0.61869532 4278190080
0.021263309 0.10090482 0.6180464 4278190080
0.021624979 0.1016226 0.61739749 4278190080
0.021986648 0.10234038 0.61674857 4278190080
0.022348318 0.10305816 0.61609966 4278190080
0.02270999 0.10377594 0.6154508 4278190080
0.02307166 0.10449372 0.61480188 4278190080
0.02343333 0.1052115 0.61415297 4278190080
0.023319045 0.10665969 0.61403978 4278190080
0.023681324 0.10737868 0.61338973 4278190080
0.024043605 0.10809767 0.61273974 4278190080
0.024405884 0.10881666 0.61208975 4278190080
0.024768164 0.10953565 0.6114397 4278190080
0.025130443 0.11025465 0.61078972 4278190080
0.025492724 0.11097363 0.61013973 4278190080
0.026326688 0.11095374 0.60896164 4278190080
0.02668836 0.11167152 0.60831273 4278190080
0.027050029 0.1123893 0.60766381 4278190080
0.026941843 0.1138496 0.60753965 4278190080
0.027304124 0.11456858 0.60688967 4278190080
0.027666403 0.11528758 0.60623968 4278190080
0.028028684 0.11600657 0.60558963 4278190080
0.028858379 0.1159782 0.60441923 4278190080
0.02958172 0.11741376 0.6031214 4278190080
0.035006769 0.12818046 0.59338772 4278190080
0.034455575 0.13043652 0.59374022 4278190080
0.034818463 0.13115673 0.5930891 4278190080
0.03663291 0.13475773 0.58983362 4278190080
0.039173141 0.13979913 0.58527589 4278190080
0.039898921 0.14123954 0.58397371 4278190080
0.040261809 0.14195974 0.58332258 4278190080
0.0406247 0.14267994 0.58267152 4278190080
0.040987588 0.14340015 0.5820204 4278190080
0.040905628 0.14491248 0.58184922 4278190080
0.041269131 0.14563389 0.58119702 4278190080
0.041632626 0.1463553 0.58054483 4278190080
0.041996129 0.14707671 0.57989264 4278190080
0.042359628 0.14779814 0.57924044 4278190080
0.042723127 0.14851955 0.57858825 4278190080
0.045342267 0.15204255 0.57420719 4278190080
0.045267627 0.15356942 0.57402283 4278190080
0.045631126 0.15429084 0.57337064 4278190080
0.045994621 0.15501224 0.57271844 4278190080
0.046358123 0.15573366 0.57206625 4278190080
0.046721622 0.15645507 0.57141405 4278190080
0.047085121 0.15717648 0.57076186 4278190080
0.047448624 0.15789789 0.57010967 4278190080
0.047812123 0.1586193 0.56945747 4278190080
0.048175622 0.15934071 0.56880528 4278190080
0.048539124 0.16006212 0.56815308 4278190080
0.048902623 0.16078353 0.56750089 4278190080
0.0488353 0.16232492 0.56730342 4278190080
0.049629621 0.16222636 0.5661965 4278190080
0.049993124 0.16294777 0.56554431 4278190080
0.0018796962 0.059603497 0.65512133 4278190080
0.002753922 0.059665464 0.65386766 4278190080
0.003114372 0.060380824 0.65322095 4278190080
0.0050662891 0.062581606 0.65003371 4278190080
0.0061458102 0.06472405 0.6480968 4278190080
0.0059979735 0.066103697 0.64804715 4278190080
0.0063584233 0.066819057 0.64740044 4278190080
0.006718873 0.067534417 0.64675367 4278190080
0.0070793233 0.06824977 0.64610696 4278190080
0.0074397745 0.06896513 0.64546025 4278190080
0.0078002242 0.06968049 0.64481354 4278190080
0.008160674 0.07039585 0.64416677 4278190080
0.0085211238 0.07111121 0.64352006 4278190080
0.009602475 0.07325729 0.64157993 4278190080
0.0099629248 0.073972642 0.64093316 4278190080
0.012711498 0.081100583 0.63568676 4278190080
0.013567427 0.081126235 0.63446593 4278190080
0.013927878 0.081841595 0.63381922 4278190080
0.014288328 0.082556956 0.63317245 4278190080
0.014648777 0.083272316 0.63252574 4278190080
0.015009227 0.083987676 0.63187903 4278190080
0.015369678 0.084703036 0.63123232 4278190080
0.015599978 0.086833134 0.63050419 4278190080
0.016322099 0.088266276 0.62920856 4278190080
0.017044218 0.089699417 0.62791294 4278190080
0.017405279 0.090415984 0.6272651 4278190080
0.017766338 0.091132551 0.62661731 4278190080
0.018127399 0.091849126 0.62596947 4278190080
0.018488457 0.092565693 0.62532163 4278190080
0.01884952 0.093282267 0.62467384 4278190080
0.019210579 0.093998834 0.624026 4278190080
0.01957164 0.094715402 0.62337822 4278190080
0.01981107 0.096863709 0.6226337 4278190080
0.020172741 0.097581491 0.62198478 4278190080
0.021015879 0.097581677 0.62078691 4278190080
0.021376939 0.098298252 0.62013912 4278190080
0.021738 0.099014819 0.61949128 4278190080
0.022099059 0.099731393 0.61884344 4278190080
0.02246012 0.10044796 0.61819565 4278190080
0.022821179 0.10116453 0.61754781 4278190080
0.023182239 0.1018811 0.61690003 4278190080
0.0235433 0.10259767 0.61625218 4278190080
0.023904359 0.10331424 0.61560434 4278190080
0.023789441 0.10475929 0.61549568 4278190080
0.024151111 0.10547707 0.61484677 4278190080
0.024512781 0.10619485 0.61419785 4278190080
0.0253486 0.10618052 0.61301309 4278190080
0.025709661 0.10689709 0.61236525 4278190080
0.027514961 0.11047994 0.60912615 4278190080
0.027767811 0.11265487 0.60835761 4278190080
0.028129481 0.11337265 0.60770869 4278190080
0.028491151 0.11409043 0.60705978 4278190080
0.02885282 0.11480821 0.60641086 4278190080
0.02921449 0.11552599 0.60576195 4278190080
0.03004238 0.11549592 0.60459143 4278190080
0.0302995 0.11767934 0.6038152 4278190080
0.041065194 0.14071825 0.58418435 4278190080
0.040982004 0.1422262 0.58401871 4278190080
0.041344892 0.14294641 0.58336765 4278190080
0.041707784 0.14366661 0.58271652 4278190080
0.042070676 0.14438681 0.5820654 4278190080
0.042433564 0.145107 0.58141434 4278190080
0.042796452 0.1458272 0.58076322 4278190080
0.043159343 0.14654741 0.5801121 4278190080
0.046062462 0.15230902 0.57490331 4278190080
0.046788238 0.15374942 0.57360113 4278190080
0.04715113 0.15446962 0.57295001 4278190080
0.047514021 0.15518983 0.57229888 4278190080
0.04744304 0.15672198 0.57211137 4278190080
0.047806539 0.15744339 0.57145917 4278190080
0.048170041 0.1581648 0.57080698 4278190080
0.04853354 0.15888621 0.57015479 4278190080
0.048897035 0.15960762 0.56950259 4278190080
0.049260538 0.16032903 0.5688504 4278190080
0.049624037 0.16105044 0.5681982 4278190080
0.049987536 0.16177186 0.56754601 4278190080
0.050351039 0.16249327 0.56689382 4278190080
0.050714538 0.16321468 0.56624162 4278190080
0.051078033 0.16393609 0.56558943 4278190080
0.0034692909 0.059930142 0.65455914 4278190080
0.0038297409 0.060645498 0.65391243 4278190080
0.004700915 0.060703382 0.65266085 4278190080
0.0050607547 0.061417531 0.65201527 4278190080
0.0054205954 0.062131681 0.65136963 4278190080
0.0057804361 0.062845834 0.65072399 4278190080
0.0061402768 0.063559979 0.65007836 4278190080
0.0068599572 0.064988278 0.64878708 4278190080
0.0072197979 0.065702423 0.64814144 4278190080
0.0075796372 0.066416577 0.64749581 4278190080
0.0079394784 0.067130722 0.64685017 4278190080
0.0082993191 0.067844875 0.64620459 4278190080
0.0086591588 0.068559021 0.64555895 4278190080
0.0090189995 0.069273166 0.64491332 4278190080
0.0093788402 0.069987319 0.64426768 4278190080
0.009738679 0.070701465 0.64362204 4278190080
0.0108182 0.072843909 0.64168513 4278190080
0.011178041 0.073558062 0.64103955 4278190080
0.011038744 0.074952684 0.64097792 4278190080
0.011399195 0.075668044 0.64033121 4278190080
0.011759644 0.076383397 0.6396845 4278190080
0.014416603 0.079985403 0.63522887 4278190080
0.014776444 0.080699548 0.63458323 4278190080
0.015136284 0.081413694 0.6339376 4278190080
0.015496125 0.082127847 0.63329196 4278190080
0.015855964 0.082841992 0.63264632 4278190080
0.016215805 0.083556145 0.63200068 4278190080
0.016085047 0.08496771 0.63192379 4278190080
0.016445497 0.08568307 0.63127702 4278190080
0.016805947 0.08639843 0.63063031 4278190080
0.017526848 0.08782915 0.62933689 4278190080
0.017399728 0.089247972 0.62925339 4278190080
0.018608198 0.089975223 0.6273967 4278190080
0.018968647 0.090690583 0.62674999 4278190080
0.019329099 0.091405943 0.62610328 4278190080
0.019205028 0.092830814 0.62601429 4278190080
0.019566089 0.093547389 0.62536645 4278190080
0.019927148 0.094263956 0.62471867 4278190080
0.020288208 0.094980523 0.62407082 4278190080
0.020649269 0.095697097 0.62342298 4278190080
0.02101033 0.096413665 0.6227752 4278190080
0.021371389 0.097130232 0.62212735 4278190080
0.022573151 0.097844176 0.62028271 4278190080
0.0229336 0.098559536 0.619636 4278190080
0.02281563 0.099996515 0.6195361 4278190080
0.023176689 0.10071308 0.61888826 4278190080
0.024014952 0.10070561 0.61769581 4278190080
0.024375401 0.10142097 0.6170491 4278190080
0.024735851 0.10213633 0.61640239 4278190080
0.025456751 0.10356705 0.61510897 4278190080
0.025343049 0.1050125 0.61500138 4278190080
0.02570411 0.10572907 0.61435354 4278190080
0.026065171 0.10644564 0.61370569 4278190080
0.02642623 0.10716221 0.61305791 4278190080
0.027870471 0.11002848 0.6104666 4278190080
0.02823153 0.11074506 0.60981882 4278190080
0.02859259 0.11146162 0.60917097 4278190080
0.028953651 0.11217819 0.60852319 4278190080
0.02931471 0.11289477 0.60787535 4278190080
0.029208921 0.114356 0.60775357 4278190080
0.030036831 0.1143279 0.60657972 4278190080
0.030397892 0.11504447 0.60593188 4278190080
0.030758951 0.11576104 0.60528409 4278190080
0.031120012 0.11647761 0.60463625 4278190080
0.031481072 0.11719418 0.60398841 4278190080
0.031842131 0.11791075 0.60334063 4278190080
0.032564253 0.11934389 0.602045 4278190080
0.032925311 0.12006046 0.60139716 4278190080
0.03328637 0.12077703 0.60074931 4278190080
0.033647433 0.12149359 0.60010153 4278190080
0.034008492 0.12221017 0.59945369 4278190080
0.036349986 0.13019942 0.59462947 4278190080
0.039697353 0.13517162 0.58893508 4278190080
0.042508744 0.14242226 0.58357936 4278190080
0.042871024 0.14314124 0.58292931 4278190080
0.043233305 0.14386024 0.58227932 4278190080
0.043595582 0.14457923 0.58162934 4278190080
0.044320144 0.14601721 0.5803293 4278190080
0.047218382 0.15176913 0.57512921 4278190080
0.047508441 0.15401588 0.57429725 4278190080
0.047871333 0.15473609 0.57364613 4278190080
0.048234224 0.15545629 0.57299507 4278190080
0.048597112 0.15617648 0.57234395 4278190080
0.048960004 0.15689668 0.57169282 4278190080
0.049322896 0.1576169 0.57104176 4278190080
0.04968578 0.15833709 0.57039064 4278190080
0.050048672 0.15905729 0.56973952 4278190080
0.050411563 0.15977749 0.56908846 4278190080
0.050774451 0.16049768 0.56843734 4278190080
0.051137343 0.1612179 0.56778622 4278190080
0.051500235 0.1619381 0.56713516 4278190080
0.051863119 0.16265829 0.56648403 4278190080
0.052226011 0.16337849 0.56583291 4278190080
0.0046953908 0.059539314 0.65464246 4278190080
0.005055232 0.060253464 0.65399683 4278190080
0.0054150727 0.060967613 0.65335119 4278190080
0.005774912 0.061681759 0.65270555 4278190080
0.0066430462 0.061735567 0.65145612 4278190080
0.0070022768 0.062448505 0.65081155 4278190080
0.0073615084 0.063161448 0.65016705 4278190080
0.0080799693 0.064587325 0.64887798 4278190080
0.0084391991 0.065300263 0.64823341 4278190080
0.0087984288 0.066013195 0.64758891 4278190080
0.0091576604 0.066726133 0.64694434 4278190080
0.0095168902 0.067439072 0.64629984 4278190080
0.0093733156 0.068823248 0.64624923 4278190080
0.010235352 0.068864949 0.64501077 4278190080
0.010594581 0.069577888 0.6443662 4278190080
0.011313043 0.071003765 0.64307714 4278190080
0.011172518 0.072393991 0.64302111 4278190080
0.011532358 0.073108144 0.64237547 4278190080
0.011892199 0.07382229 0.64172983 4278190080
0.012252038 0.074536435 0.64108419 4278190080
0.012611879 0.075250588 0.64043856 4278190080
0.012971719 0.075964734 0.63979292 4278190080
0.015983038 0.080271967 0.63469815 4278190080
0.015850442 0.081677929 0.63462788 4278190080
0.016210282 0.082392074 0.63398224 4278190080
0.017289802 0.084534518 0.63204539 4278190080
0.017649643 0.085248671 0.63139975 4278190080
0.017881745 0.087378457 0.63067508 4278190080
0.018602645 0.088809177 0.6293816 4278190080
0.019323546 0.09023989 0.62808818 4278190080
0.019683996 0.09095525 0.62744147 4278190080
0.020044446 0.09167061 0.6267947 4278190080
0.020404898 0.09238597 0.62614799 4278190080
0.020765347 0.09310133 0.62550128 4278190080
0.02064373 0.094529077 0.62541127 4278190080
0.021486247 0.09453205 0.62420779 4278190080
0.021846697 0.09524741 0.62356108 4278190080
0.022207148 0.095962763 0.62291437 4278190080
0.022567598 0.096678123 0.62226766 4278190080
0.022928048 0.097393483 0.62162089 4278190080
0.024604566 0.097382486 0.61922932 4278190080
0.024486609 0.098817497 0.61913276 4278190080
0.024846448 0.099531643 0.61848712 4278190080
0.025206288 0.1002458 0.61784148 4278190080
0.025566129 0.10095994 0.61719584 4278190080
0.0254512 0.102401 0.61709386 4278190080
0.02581165 0.10311636 0.61644709 4278190080
0.0261721 0.10383172 0.61580038 4278190080
0.026532549 0.10454708 0.61515367 4278190080
0.026892999 0.10526244 0.61450696 4278190080
0.027253451 0.1059778 0.61386019 4278190080
0.02714281 0.10742733 0.61375058 4278190080
0.02797435 0.10740852 0.61256677 4278190080
0.028695252 0.10883923 0.61127335 4278190080
0.029416151 0.11026995 0.60997987 4278190080
0.029776601 0.11098531 0.60933316 4278190080
0.030137051 0.11170067 0.60868645 4278190080
0.030497503 0.11241603 0.60803968 4278190080
0.030392351 0.11387645 0.60792017 4278190080
0.030753411 0.11459303 0.60727239 4278190080
0.031114472 0.1153096 0.60662454 4278190080
0.031939302 0.11527746 0.60545278 4278190080
0.032299753 0.11599282 0.60480607 4278190080
0.032660201 0.11670818 0.60415936 4278190080
0.033020653 0.11742354 0.60351264 4278190080
0.033741552 0.11885426 0.60221916 4278190080
0.034102004 0.11956961 0.60157245 4278190080
0.034462452 0.12028497 0.60092574 4278190080
0.034822904 0.12100033 0.60027897 4278190080
0.036891431 0.12677471 0.59625942 4278190080
0.037521772 0.12969495 0.5948202 4278190080
0.037883442 0.13041273 0.59417129 4278190080
0.038245112 0.1311305 0.59352237 4278190080
0.038968451 0.13256606 0.59222454 4278190080
0.040053464 0.1347194 0.59027785 4278190080
0.040863093 0.13465697 0.58913344 4278190080
0.042946823 0.14046165 0.58508652 4278190080
0.043308493 0.14117943 0.58443761 4278190080
0.043670163 0.1418972 0.58378869 4278190080
0.044031832 0.14261499 0.58313978 4278190080
0.043952297 0.14412625 0.58297431 4278190080
0.044314578 0.14484525 0.58232427 4278190080
0.044676859 0.14556424 0.58167428 4278190080
0.047286861 0.149075 0.57729954 4278190080
0.048661936 0.15347314 0.57452422 4278190080
0.049024213 0.15419212 0.57387418 4278190080
0.049386498 0.15491112 0.57322419 4278190080
0.049748778 0.15563011 0.5725742 4278190080
0.050111055 0.15634909 0.57192415 4278190080
0.050473336 0.15706809 0.57127416 4278190080
0.050835617 0.15778707 0.57062417 4278190080
0.051197898 0.15850607 0.56997412 4278190080
0.051560175 0.15922505 0.56932414 4278190080
0.051922455 0.15994404 0.56867415 4278190080
0.052284732 0.16066304 0.56802416 4278190080
0.052647017 0.16138202 0.56737411 4278190080
0.0054095276 0.059803534 0.65533274 4278190080
0.0057693687 0.060517684 0.65468711 4278190080
0.0066375327 0.060573474 0.65343434 4278190080
0.006996762 0.061286408 0.65278977 4278190080
0.0073559922 0.061999347 0.65214527 4278190080
0.008580354 0.062761977 0.65025336 4278190080
0.0092975954 0.064185433 0.64896649 4278190080
0.0096562169 0.064897157 0.648323 4278190080
0.010014837 0.065608889 0.64767957 4278190080
0.010373456 0.066320613 0.64703614 4278190080
0.010732078 0.067032345 0.6463927 4278190080
0.010589066 0.068415791 0.64634442 4278190080
0.011449319 0.0684558 0.64510584 4278190080
0.011807939 0.069167525 0.64446241 4278190080
0.01252518 0.07059098 0.64317548 4278190080
0.01310368 0.073406361 0.64183265 4278190080
0.013462909 0.0741193 0.64118814 4278190080
0.01382214 0.074832238 0.64054358 4278190080
0.014540602 0.076258115 0.63925451 4278190080
0.017414443 0.081961624 0.63409823 4278190080
0.018492136 0.08410044 0.6321646 4278190080
0.018851366 0.084813371 0.63152009 4278190080
0.019083461 0.08694119 0.63079876 4278190080
0.0194433 0.087655336 0.63015312 4278190080
0.020522822 0.089797787 0.62821627 4278190080
0.020399366 0.091219932 0.62813294 4278190080
0.020759815 0.091935292 0.62748617 4278190080
0.021120265 0.092650652 0.62683946 4278190080
0.021480717 0.093366005 0.62619275 4278190080
0.021841167 0.094081365 0.62554604 4278190080
0.025317512 0.097646266 0.61991841 4278190080
0.025676742 0.098359205 0.6192739 4278190080
0.025560586 0.099795863 0.6191774 4278190080
0.025920425 0.10051002 0.61853176 4278190080
0.026280265 0.10122416 0.61788619 4278190080
0.026640106 0.10193831 0.61724055 4278190080
0.026527019 0.10338104 0.61713856 4278190080
0.026887469 0.1040964 0.61649185 4278190080
0.027247919 0.10481175 0.61584514 4278190080
0.027608369 0.10552711 0.61519843 4278190080
0.027968818 0.10624247 0.61455172 4278190080
0.02832927 0.10695783 0.61390495 4278190080
0.02868972 0.10767319 0.61325824 4278190080
0.02905017 0.10838855 0.61261153 4278190080
0.029410619 0.10910391 0.61196482 4278190080
0.029771069 0.10981927 0.61131805 4278190080
0.030131521 0.11053462 0.61067134 4278190080
0.03049197 0.11124998 0.61002463 4278190080
0.031677868 0.11193639 0.60820168 4278190080
0.031573322 0.11339606 0.60808444 4278190080
0.03193377 0.11411142 0.60743773 4278190080
0.032294221 0.11482678 0.60679102 4278190080
0.032654673 0.11554214 0.60614425 4278190080
0.033015121 0.1162575 0.60549754 4278190080
0.033375572 0.11697286 0.60485083 4278190080
0.033736024 0.11768822 0.60420412 4278190080
0.034096472 0.11840358 0.60355735 4278190080
0.034456924 0.11911894 0.60291064 4278190080
0.037969053 0.1277564 0.59630424 4278190080
0.038239554 0.12996052 0.595514 4278190080
0.038601223 0.1306783 0.59486508 4278190080
0.039413292 0.13062267 0.59371299 4278190080
0.040857531 0.13348895 0.59112167 4278190080
0.041218594 0.13420552 0.59047389 4278190080
0.041579653 0.13492209 0.58982605 4278190080
0.041940711 0.13563865 0.58917826 4278190080
0.044107072 0.13993807 0.58529133 4278190080
0.044468135 0.14065465 0.58464348 4278190080
0.044829194 0.14137122 0.5839957 4278190080
0.044749614 0.14288056 0.58383358 4278190080
0.045111284 0.14359833 0.58318466 4278190080
0.045472953 0.14431612 0.58253574 4278190080
0.045834623 0.1450339 0.58188683 4278190080
0.046196293 0.14575167 0.58123791 4278190080
0.046557963 0.14646946 0.580589 4278190080
0.049089652 0.15149392 0.57604665 4278190080
0.049451325 0.1522117 0.57539773 4278190080
0.050174665 0.15364726 0.5740999 4278190080
0.050536335 0.15436503 0.57345098 4278190080
0.050898004 0.15508282 0.57280207 4278190080
0.051689334 0.15498604 0.5716871 4278190080
0.052050393 0.15570261 0.57103932 4278190080
0.052411456 0.15641919 0.57039148 4278190080
0.052772515 0.15713574 0.56974369 4278190080
0.053133573 0.15785232 0.56909585 4278190080
0.053068023 0.1593895 0.56890857 4278190080
0.053429693 0.16010727 0.56825966 4278190080
0.053791363 0.16082506 0.56761074 4278190080
0.053728275 0.16236703 0.56741911 4278190080
0.054090556 0.16308603 0.56676906 4278190080
0.006483526 0.060781915 0.65537739 4278190080
0.0073504685 0.06083725 0.65412343 4278190080
0.0077096978 0.061550185 0.65347892 4278190080
0.008574849 0.061601851 0.65222818 4278190080
0.0089334706 0.062313583 0.65158474 4278190080
0.0097967405 0.062361646 0.65033734 4278190080
0.010009331 0.064448766 0.64965445 4278190080
0.010367951 0.065160491 0.64901102 4278190080
0.010726571 0.065872222 0.64836752 4278190080
0.011586793 0.065914236 0.6471256 4278190080
0.011944804 0.066624753 0.64648324 4278190080
