# .PCD v0.7 - Point Cloud Data file format
VERSION 0.7
FIELDS x y z rgba
SIZE 4 4 4 4
TYPE F F F U
COUNT 1 1 1 1
WIDTH 1043
HEIGHT 1
VIEWPOINT 0 0 0 1 0 0 0
POINTS 1043
DATA ascii
0.28587875 -0.036291961 0.73100001 4291992682
0.28715217 -0.036291961 0.73100001 4292058475
0.28842556 -0.036291961 0.73100001 4292058214
0.28969899 -0.036291961 0.73100001 4292058214
0.29097238 -0.036291961 0.73100001 4291993184
0.29184601 -0.036242314 0.73000002 4291861855
0.29311764 -0.036242314 0.73000002 4291402349
0.29438934 -0.036242314 0.73000002 4291138920
0.29566097 -0.036242314 0.73000002 4291270247
0.29611912 -0.03614302 0.72800004 4291138661
0.2969788 -0.036093373 0.72700006 4291204454
0.29824525 -0.036093373 0.72700006 4291072868
0.2986877 -0.035994079 0.72500002 4291007070
0.29995063 -0.035994079 0.72500002 4291072864
0.30121359 -0.035994079 0.72500002 4291006557
0.30247656 -0.035994079 0.72500002 4290940764
0.30373949 -0.035994079 0.72500002 4291008347
0.30500245 -0.035994079 0.72500002 4291666020
0.13671131 -0.03597666 0.75100005 4294964479
0.13801955 -0.03597666 0.75100005 4293777643
0.13895674 -0.035880849 0.74900001 4290884047
0.1402615 -0.035880849 0.74900001 4286080902
0.14118825 -0.035785038 0.74700004 4284496970
0.14229877 -0.035737135 0.74600005 4287062641
0.1435983 -0.035737135 0.74600005 4288179786
0.14489785 -0.035737135 0.74600005 4286732340
0.14580542 -0.035641324 0.74400002 4287973919
0.14690375 -0.03559342 0.74300003 4287513369
0.14819805 -0.03559342 0.74300003 4289932837
0.14949237 -0.03559342 0.74300003 4290788145
0.15038079 -0.035497613 0.74100006 4291244331
0.1516716 -0.035497613 0.74100006 4291113002
0.15296243 -0.035497613 0.74100006 4291440429
0.15425324 -0.035497613 0.74100006 4291440429
0.15554407 -0.035497613 0.74100006 4291505207
0.1568349 -0.035497613 0.74100006 4291439414
0.15769891 -0.035401799 0.73900002 4291373357
0.15898626 -0.035401799 0.73900002 4291373357
0.1602736 -0.035401799 0.73900002 4291371572
0.16156092 -0.035401799 0.73900002 4291634743
0.16284828 -0.035401799 0.73900002 4291504707
0.16413561 -0.035401799 0.73900002 4290912570
0.16519912 -0.035353892 0.73800004 4291173427
0.1664847 -0.035353892 0.73800004 4291239220
0.16799763 -0.035401799 0.73900002 4291637814
0.16928497 -0.035401799 0.73900002 4290584870
0.1705723 -0.035401799 0.73900002 4291106351
0.17185964 -0.035401799 0.73900002 4291172144
0.17314698 -0.035401799 0.73900002 4290976296
0.17443432 -0.035401799 0.73900002 4291042089
0.17572166 -0.035401799 0.73900002 4291108395
0.17700899 -0.035401799 0.73900002 4291108395
0.17805506 -0.035353892 0.73800004 4291043886
0.17934066 -0.035353892 0.73800004 4290780970
0.18062626 -0.035353892 0.73800004 4290977579
0.18191186 -0.035353892 0.73800004 4291109422
0.18344568 -0.035401799 0.73900002 4290978863
0.18473302 -0.035401799 0.73900002 4290847276
0.18602036 -0.035401799 0.73900002 4290913070
0.1873077 -0.035401799 0.73900002 4290978863
0.18859504 -0.035401799 0.73900002 4290846511
0.18962543 -0.035353892 0.73800004 4290912304
0.19091102 -0.035353892 0.73800004 4290913335
0.19219662 -0.035353892 0.73800004 4290452784
0.19348222 -0.035353892 0.73800004 4290780968
0.19476782 -0.035353892 0.73800004 4290780968
0.19631906 -0.035401799 0.73900002 4290779185
0.1976064 -0.035401799 0.73900002 4290976564
0.19889374 -0.035401799 0.73900002 4290849607
0.20018108 -0.035401799 0.73900002 4290257213
0.20146842 -0.035401799 0.73900002 4290585133
0.20275575 -0.035401799 0.73900002 4290388011
0.20376699 -0.035353892 0.73800004 4290650413
0.20505258 -0.035353892 0.73800004 4290584620
0.20661777 -0.035401799 0.73900002 4290714171
0.20762378 -0.035353892 0.73800004 4290516792
0.20890936 -0.035353892 0.73800004 4290715436
0.21019496 -0.035353892 0.73800004 4290781229
0.21176712 -0.035401799 0.73900002 4290716206
0.21305446 -0.035401799 0.73900002 4290453034
0.21434179 -0.035401799 0.73900002 4290452280
0.21533735 -0.035353892 0.73800004 4290320951
0.21662295 -0.035353892 0.73800004 4290451767
0.21790855 -0.035353892 0.73800004 4290517560
0.21919413 -0.035353892 0.73800004 4290585133
0.22047974 -0.035353892 0.73800004 4290388011
0.22176534 -0.035353892 0.73800004 4290584368
0.22305092 -0.035353892 0.73800004 4290058024
0.22433652 -0.035353892 0.73800004 4290450472
0.22562213 -0.035353892 0.73800004 4290450472
0.22690772 -0.035353892 0.73800004 4290385192
0.22850251 -0.035401799 0.73900002 4290648365
0.22978985 -0.035401799 0.73900002 4290452519
0.23076451 -0.035353892 0.73800004 4289860381
0.23205009 -0.035353892 0.73800004 4290256169
0.2333357 -0.035353892 0.73800004 4289927460
0.2346213 -0.035353892 0.73800004 4290190627
0.23590688 -0.035353892 0.73800004 4289269525
0.2371925 -0.035353892 0.73800004 4289927710
0.23880123 -0.035401799 0.73900002 4288940815
0.24008855 -0.035401799 0.73900002 4288880398
0.24104926 -0.035353892 0.73800004 4293946459
0.24233487 -0.035353892 0.73800004 4290939749
0.24395056 -0.035401799 0.73900002 4292979075
0.24490607 -0.035353892 0.73800004 4292784013
0.24619167 -0.035353892 0.73800004 4292784013
0.24747725 -0.035353892 0.73800004 4292651920
0.24876286 -0.035353892 0.73800004 4292060040
0.25004843 -0.035353892 0.73800004 4290352754
0.25133404 -0.035353892 0.73800004 4288642136
0.25193503 -0.035258085 0.73600006 4288048965
0.25321716 -0.035258085 0.73600006 4285154330
0.25449926 -0.035258085 0.73600006 4285742336
0.25578138 -0.035258085 0.73600006 4284887040
0.25706348 -0.035258085 0.73600006 4283902720
0.2583456 -0.035258085 0.73600006 4284034304
0.25927496 -0.035210177 0.73500001 4284165896
0.26055533 -0.035210177 0.73500001 4284889618
0.26112324 -0.03511437 0.73300004 4284758800
0.26240012 -0.03511437 0.73300004 4284693007
0.26367697 -0.03511437 0.73300004 4285808671
0.26495388 -0.03511437 0.73300004 4285413914
0.26550433 -0.03501856 0.73100001 4286204168
0.26677772 -0.03501856 0.73100001 4285875459
0.26805115 -0.03501856 0.73100001 4287123200
0.26932454 -0.03501856 0.73100001 4288307724
0.27059793 -0.03501856 0.73100001 4289491530
0.27187133 -0.03501856 0.73100001 4291005026
0.27314475 -0.03501856 0.73100001 4291137625
0.27441815 -0.03501856 0.73100001 4291861605
0.27569157 -0.03501856 0.73100001 4292518013
0.27658609 -0.034970652 0.73000002 4292254584
0.27785775 -0.034970652 0.73000002 4292058468
0.27951175 -0.03501856 0.73100001 4291992419
0.28078517 -0.03501856 0.73100001 4292122472
0.28167272 -0.034970652 0.73000002 4292385643
0.28294438 -0.034970652 0.73000002 4292518767
0.28421602 -0.034970652 0.73000002 4291992423
0.28548771 -0.034970652 0.73000002 4291991908
0.28675935 -0.034970652 0.73000002 4292255079
0.28803101 -0.034970652 0.73000002 4292058475
0.28930268 -0.034970652 0.73000002 4292058475
0.29057434 -0.034970652 0.73000002 4292058727
0.29184601 -0.034970652 0.73000002 4291730018
0.29311764 -0.034970652 0.73000002 4291467108
0.29438934 -0.034970652 0.73000002 4291269729
0.29566097 -0.034970652 0.73000002 4291204704
0.29611912 -0.034874842 0.72800004 4291138911
0.2969788 -0.034826942 0.72700006 4291203934
0.29824525 -0.034826942 0.72700006 4291072604
0.2995117 -0.034826942 0.72700006 4291203936
0.29995063 -0.034731127 0.72500002 4291335522
0.30121359 -0.034731127 0.72500002 4291269216
0.30247656 -0.034731127 0.72500002 4291137373
0.30373949 -0.034731127 0.72500002 4291269729
0.30500245 -0.034731127 0.72500002 4291401315
0.30626538 -0.034731127 0.72500002 4291796856
0.30752835 -0.034731127 0.72500002 4292323201
0.13895674 -0.034576092 0.74900001 4294963199
0.1402615 -0.034576092 0.74900001 4293383398
0.14118825 -0.034483764 0.74700004 4290619326
0.14229877 -0.034437601 0.74600005 4285750645
0.1435983 -0.034437601 0.74600005 4285485076
0.14450936 -0.034345273 0.74400002 4286603300
0.14560944 -0.034299113 0.74300003 4287913809
0.14690375 -0.034299113 0.74300003 4288308567
0.14819805 -0.034299113 0.74300003 4289549619
0.14908996 -0.034206789 0.74100006 4287839001
0.15038079 -0.034206789 0.74100006 4289669632
0.15126224 -0.034114458 0.73900002 4289735424
0.15254956 -0.034114458 0.73900002 4290979365
0.15383691 -0.034114458 0.73900002 4291374122
0.15512423 -0.034114458 0.73900002 4291374376
0.15641159 -0.034114458 0.73900002 4291374376
0.15769891 -0.034114458 0.73900002 4291440177
0.15898626 -0.034114458 0.73900002 4291111468
0.1602736 -0.034114458 0.73900002 4291372855
0.16156092 -0.034114458 0.73900002 4291372855
0.16284828 -0.034114458 0.73900002 4291439927
0.1639135 -0.034068298 0.73800004 4290913583
0.16519912 -0.034068298 0.73800004 4291108916
0.1664847 -0.034068298 0.73800004 4291108916
0.1677703 -0.034068298 0.73800004 4291306033
0.16859776 -0.033975974 0.73600006 4291174190
0.16987985 -0.033975974 0.73600006 4291108145
0.17162707 -0.034068298 0.73800004 4291173938
0.17244408 -0.033975974 0.73600006 4291042089
0.1737262 -0.033975974 0.73600006 4291107882
0.17500831 -0.033975974 0.73600006 4290977329
0.17629044 -0.033975974 0.73600006 4291108916
0.17757253 -0.033975974 0.73600006 4290912568
0.17885466 -0.033975974 0.73600006 4290912568
0.18013676 -0.033975974 0.73600006 4291109935
0.18141888 -0.033975974 0.73600006 4291109935
0.18319745 -0.034068298 0.73800004 4291109935
0.18448305 -0.034068298 0.73800004 4291043886
0.1852652 -0.033975974 0.73600006 4291109935
0.18654732 -0.033975974 0.73600006 4291043886
0.18833983 -0.034068298 0.73800004 4290846511
0.18962543 -0.034068298 0.73800004 4290780718
0.19039366 -0.033975974 0.73600006 4290846511
0.19167578 -0.033975974 0.73600006 4290780718
0.19295788 -0.033975974 0.73600006 4290911775
0.19476782 -0.034068298 0.73800004 4290911775
0.19605342 -0.034068298 0.73800004 4290846511
0.19733901 -0.034068298 0.73800004 4290912304
0.1986246 -0.034068298 0.73800004 4290784048
0.19991019 -0.034068298 0.73800004 4290060325
0.20119581 -0.034068298 0.73800004 4290716712
0.2024814 -0.034068298 0.73800004 4290782505
0.20376699 -0.034068298 0.73800004 4290650926
0.20505258 -0.034068298 0.73800004 4290585133
0.20633818 -0.034068298 0.73800004 4290716208
0.20762378 -0.034068298 0.73800004 4290782002
0.20834322 -0.033975974 0.73600006 4290848308
0.20962535 -0.033975974 0.73600006 4290782515
0.21148057 -0.034068298 0.73800004 4290782252
0.21218957 -0.033975974 0.73600006 4290453286
0.21347167 -0.033975974 0.73600006 4290583355
0.21533735 -0.034068298 0.73800004 4290254133
0.2160359 -0.033975974 0.73600006 4290452280
0.21731803 -0.033975974 0.73600006 4290715708
0.21860012 -0.033975974 0.73600006 4290650413
0.21988225 -0.033975974 0.73600006 4290321705
0.22116435 -0.033975974 0.73600006 4290713408
0.22305092 -0.034068298 0.73800004 4290187064
0.22433652 -0.034068298 0.73800004 4290449972
0.22562213 -0.034068298 0.73800004 4290515765
0.22690772 -0.034068298 0.73800004 4290253863
0.22819333 -0.034068298 0.73800004 4290648365
0.22947891 -0.034068298 0.73800004 4290453282
0.23076451 -0.034068298 0.73800004 4289729815
0.23142125 -0.033975974 0.73600006 4290124069
0.23270337 -0.033975974 0.73600006 4290189862
0.23398547 -0.033975974 0.73600006 4290125603
0.23526759 -0.033975974 0.73600006 4289533465
0.2371925 -0.034068298 0.73800004 4289601068
0.23847808 -0.034068298 0.73800004 4288745759
0.23976368 -0.034068298 0.73800004 4288553790
0.24104926 -0.034068298 0.73800004 4293554059
0.24233487 -0.034068298 0.73800004 4291661393
0.24362049 -0.034068298 0.73800004 4293174632
0.24490607 -0.034068298 0.73800004 4293571966
0.24619167 -0.034068298 0.73800004 4293900931
0.24747725 -0.034068298 0.73800004 4293704570
0.24876286 -0.034068298 0.73800004 4293310068
0.25004843 -0.034068298 0.73800004 4292916614
0.25133404 -0.034068298 0.73800004 4292850821
0.25193503 -0.033975974 0.73600006 4292588437
0.25321716 -0.033975974 0.73600006 4292325008
0.25449926 -0.033975974 0.73600006 4292192864
0.25578138 -0.033975974 0.73600006 4290679625
0.25706348 -0.033975974 0.73600006 4290481228
0.2583456 -0.033975974 0.73600006 4287915558
0.2596277 -0.033975974 0.73600006 4286928953
0.26055533 -0.03392981 0.73500001 4285613094
0.26112324 -0.033837482 0.73300004 4285089328
0.26168415 -0.033745155 0.73100001 4284694570
0.26295754 -0.033745155 0.73100001 4285219381
0.26423094 -0.033745155 0.73100001 4285153587
0.26550433 -0.033745155 0.73100001 4285677342
0.26677772 -0.033745155 0.73100001 4285874464
0.26805115 -0.033745155 0.73100001 4285941000
0.26932454 -0.033745155 0.73100001 4285941000
0.27059793 -0.033745155 0.73100001 4286531073
0.27187133 -0.033745155 0.73100001 4286465280
0.27314475 -0.033745155 0.73100001 4286987778
0.27441815 -0.033745155 0.73100001 4289027105
0.27531439 -0.033698995 0.73000002 4289358175
0.27658609 -0.033698995 0.73000002 4290542706
0.27785775 -0.033698995 0.73000002 4291071278
0.27912939 -0.033698995 0.73000002 4291926587
0.28040108 -0.033698995 0.73000002 4292452457
0.28167272 -0.033698995 0.73000002 4292715628
0.28294438 -0.033698995 0.73000002 4292452459
0.28421602 -0.033698995 0.73000002 4292255079
0.28548771 -0.033698995 0.73000002 4292255338
0.28597373 -0.033606671 0.72800004 4292124009
0.28724191 -0.033606671 0.72800004 4292124011
0.28851008 -0.033606671 0.72800004 4291663460
0.28977823 -0.033606671 0.72800004 4291991910
0.29104641 -0.033606671 0.72800004 4291991910
0.29231462 -0.033606671 0.72800004 4291664484
0.2935828 -0.033606671 0.72800004 4291664484
0.29485095 -0.033606671 0.72800004 4291533153
0.29571238 -0.033560503 0.72700006 4291467360
0.2969788 -0.033560503 0.72700006 4291205206
0.29824525 -0.033560503 0.72700006 4291270999
0.2995117 -0.033560503 0.72700006 4291401830
0.29995063 -0.033468179 0.72500002 4291467623
0.30121359 -0.033468179 0.72500002 4291467110
0.30247656 -0.033468179 0.72500002 4291467110
0.30373949 -0.033468179 0.72500002 4291401074
0.30500245 -0.033468179 0.72500002 4291203952
0.30626538 -0.033468179 0.72500002 4291204454
0.30752835 -0.033468179 0.72500002 4290941025
0.30964315 -0.033560503 0.72700006 4290940775
0.1402615 -0.033271331 0.74900001 4294962684
0.14156626 -0.033271331 0.74900001 4293647592
0.14248951 -0.033182491 0.74700004 4289568169
0.14321332 -0.033049226 0.74400002 4286538861
0.14450936 -0.033049226 0.74400002 4285946724
0.14560944 -0.033004805 0.74300003 4286533190
0.14690375 -0.033004805 0.74300003 4287454292
0.14779913 -0.032915968 0.74100006 4288374603
0.14908996 -0.032915968 0.74100006 4287190072
0.1499749 -0.032827124 0.73900002 4288692511
0.15126224 -0.032827124 0.73900002 4288692511
0.15254956 -0.032827124 0.73900002 4290716708
0.15383691 -0.032827124 0.73900002 4291243308
0.15512423 -0.032827124 0.73900002 4291440429
0.15641159 -0.032827124 0.73900002 4291506222
0.15748553 -0.0327827 0.73800004 4291309361
0.15877113 -0.0327827 0.73800004 4291177774
0.16005673 -0.0327827 0.73800004 4291242802
0.16090509 -0.032693859 0.73600006 4291177009
0.16218719 -0.032693859 0.73600006 4291242051
0.16346931 -0.032693859 0.73600006 4291044671
0.16475141 -0.032693859 0.73600006 4291306810
0.16603354 -0.032693859 0.73600006 4291109431
0.16731563 -0.032693859 0.73600006 4291109168
0.16859776 -0.032693859 0.73600006 4291043374
0.16987985 -0.032693859 0.73600006 4290912306
0.17116198 -0.032693859 0.73600006 4290517291
0.17244408 -0.032693859 0.73600006 4290845230
0.1737262 -0.032693859 0.73600006 4290976816
0.17477052 -0.032649439 0.73500001 4290780718
0.17605089 -0.032649439 0.73500001 4290714925
0.17733125 -0.032649439 0.73500001 4290781229
0.17861162 -0.032649439 0.73500001 4290781229
0.18013676 -0.032693859 0.73600006 4291109429
0.18141888 -0.032693859 0.73600006 4291043636
0.18270098 -0.032693859 0.73600006 4291108916
0.1839831 -0.032693859 0.73600006 4291174965
0.1852652 -0.032693859 0.73600006 4291109168
0.18654732 -0.032693859 0.73600006 4291043374
0.18782943 -0.032693859 0.73600006 4290976816
0.18911156 -0.032693859 0.73600006 4290911023
0.19039366 -0.032693859 0.73600006 4291110964
0.19167578 -0.032693859 0.73600006 4290584620
0.19295788 -0.032693859 0.73600006 4290976296
0.19424 -0.032693859 0.73600006 4291239724
0.1955221 -0.032693859 0.73600006 4290976816
0.19680423 -0.032693859 0.73600006 4291108145
0.19808632 -0.032693859 0.73600006 4290715956
0.19991019 -0.0327827 0.73800004 4290518577
0.20119581 -0.0327827 0.73800004 4290584107
0.2024814 -0.0327827 0.73800004 4290715436
0.20321478 -0.032693859 0.73600006 4290781229
0.20449691 -0.032693859 0.73600006 4290781229
0.205779 -0.032693859 0.73600006 4290715956
0.20706113 -0.032693859 0.73600006 4290781750
0.20834322 -0.032693859 0.73600006 4291113015
0.20962535 -0.032693859 0.73600006 4290389292
0.21062088 -0.032649439 0.73500001 4290846763
0.21190125 -0.032649439 0.73500001 4291175728
0.21318163 -0.032649439 0.73500001 4290981443
0.21475379 -0.032693859 0.73600006 4289797168
0.21574236 -0.032649439 0.73500001 4290712888
0.21702273 -0.032649439 0.73500001 4291107645
0.21860012 -0.032693859 0.73600006 4290782002
0.21988225 -0.032693859 0.73600006 4290124071
0.22116435 -0.032693859 0.73600006 4290710587
0.22244647 -0.032693859 0.73600006 4290776636
0.22372857 -0.032693859 0.73600006 4290914614
0.22501069 -0.032693859 0.73600006 4290059561
0.22629279 -0.032693859 0.73600006 4290253863
0.22757491 -0.032693859 0.73600006 4290648365
0.22885703 -0.032693859 0.73600006 4290716206
0.23013915 -0.032693859 0.73600006 4289795104
0.23142125 -0.032693859 0.73600006 4290057263
0.23270337 -0.032693859 0.73600006 4290320178
0.23398547 -0.032693859 0.73600006 4290191911
0.23526759 -0.032693859 0.73600006 4289205016
0.23654969 -0.032693859 0.73600006 4289338653
0.23847808 -0.0327827 0.73800004 4290193961
0.23976368 -0.0327827 0.73800004 4289549117
0.24104926 -0.0327827 0.73800004 4292312423
0.24233487 -0.0327827 0.73800004 4291726934
0.24362049 -0.0327827 0.73800004 4293898103
0.24490607 -0.0327827 0.73800004 4293571730
0.24619167 -0.0327827 0.73800004 4293835158
0.24747725 -0.0327827 0.73800004 4293835921
0.24876286 -0.0327827 0.73800004 4293572750
0.25004843 -0.0327827 0.73800004 4293835166
0.25133404 -0.0327827 0.73800004 4293703579
0.25193503 -0.032693859 0.73600006 4294163365
0.25321716 -0.032693859 0.73600006 4293702814
0.25449926 -0.032693859 0.73600006 4293965220
0.25578138 -0.032693859 0.73600006 4292978325
0.25706348 -0.032693859 0.73600006 4292519321
0.2583456 -0.032693859 0.73600006 4289887601
0.2596277 -0.032693859 0.73600006 4289099618
0.26090983 -0.032693859 0.73600006 4288507738
0.26112324 -0.032560598 0.73300004 4285815127
0.26168415 -0.032471754 0.73100001 4284959818
0.26295754 -0.032471754 0.73100001 4285154351
0.26423094 -0.032471754 0.73100001 4285220144
0.26550433 -0.032471754 0.73100001 4285480740
0.26677772 -0.032471754 0.73100001 4285414947
0.26805115 -0.032471754 0.73100001 4285480740
0.26932454 -0.032471754 0.73100001 4285546533
0.27022776 -0.032427333 0.73000002 4285809442
0.27149945 -0.032427333 0.73000002 4285480220
0.27277109 -0.032427333 0.73000002 4285740800
0.27441815 -0.032471754 0.73100001 4285346048
0.27531439 -0.032427333 0.73000002 4287056667
0.27658609 -0.032427333 0.73000002 4288504113
0.27785775 -0.032427333 0.73000002 4289754679
0.27912939 -0.032427333 0.73000002 4291794263
0.27963287 -0.032338493 0.72800004 4291467371
0.28090101 -0.032338493 0.72800004 4291993716
0.28216919 -0.032338493 0.72800004 4292518263
0.28343737 -0.032338493 0.72800004 4292452470
0.28470555 -0.032338493 0.72800004 4292519280
0.28597373 -0.032338493 0.72800004 4292256109
0.28684735 -0.032294072 0.72700006 4292320882
0.28811377 -0.032294072 0.72700006 4291991917
0.28938019 -0.032294072 0.72700006 4291991908
0.29064664 -0.032294072 0.72700006 4291991908
0.29191309 -0.032294072 0.72700006 4291862118
0.29317951 -0.032294072 0.72700006 4291664482
0.2936359 -0.032205228 0.72500002 4291467360
0.29489887 -0.032205228 0.72500002 4291401567
0.2961618 -0.032205228 0.72500002 4291532901
0.29742476 -0.032205228 0.72500002 4291664487
0.2995117 -0.032294072 0.72700006 4291532901
0.29995063 -0.032205228 0.72500002 4291532901
0.30121359 -0.032205228 0.72500002 4291532903
0.30247656 -0.032205228 0.72500002 4291467110
0.30373949 -0.032205228 0.72500002 4291401067
0.30500245 -0.032205228 0.72500002 4291335018
0.30626538 -0.032205228 0.72500002 4291268973
0.30752835 -0.032205228 0.72500002 4291006057
0.30879131 -0.032205228 0.72500002 4290940512
0.31005424 -0.032205228 0.72500002 4290874719
0.31131721 -0.032205228 0.72500002 4291269465
0.31258014 -0.032205228 0.72500002 4291401052
0.14229877 -0.031838536 0.74600005 4294964987
0.14321332 -0.031753179 0.74400002 4294370795
0.14450936 -0.031753179 0.74400002 4290817972
0.14560944 -0.031710502 0.74300003 4288248703
0.14690375 -0.031710502 0.74300003 4284301122
0.14779913 -0.031625144 0.74100006 4286010398
0.14908996 -0.031625144 0.74100006 4287129135
0.1499749 -0.031539787 0.73900002 4288503120
0.15126224 -0.031539787 0.73900002 4288371534
0.15254956 -0.031539787 0.73900002 4289283908
0.15362874 -0.031497106 0.73800004 4288034097
0.15491433 -0.031497106 0.73800004 4289603354
0.15577663 -0.031411748 0.73600006 4289603354
0.15705873 -0.031411748 0.73600006 4290849573
0.15834086 -0.031411748 0.73600006 4291244331
0.15962297 -0.031411748 0.73600006 4291308327
0.16090509 -0.031411748 0.73600006 4291637292
0.16218719 -0.031411748 0.73600006 4291506256
0.16346931 -0.031411748 0.73600006 4291374413
0.16475141 -0.031411748 0.73600006 4291373882
0.16603354 -0.031411748 0.73600006 4291110966
0.1670883 -0.031369068 0.73500001 4291306810
0.16836867 -0.031369068 0.73500001 4291504189
0.16964905 -0.031369068 0.73500001 4291044156
0.17092942 -0.031369068 0.73500001 4290517812
0.17220977 -0.031369068 0.73500001 4290845759
0.17349014 -0.031369068 0.73500001 4290911553
0.17477052 -0.031369068 0.73500001 4290847024
0.17605089 -0.031369068 0.73500001 4290847024
0.17733125 -0.031369068 0.73500001 4290847013
0.17861162 -0.031369068 0.73500001 4290912806
0.179892 -0.031369068 0.73500001 4291043886
0.18117237 -0.031369068 0.73500001 4291043886
0.18245274 -0.031369068 0.73500001 4291043636
0.18373311 -0.031369068 0.73500001 4290912306
0.18501349 -0.031369068 0.73500001 4291043636
0.18629386 -0.031369068 0.73500001 4291043636
0.18757422 -0.031369068 0.73500001 4290912568
0.18885459 -0.031369068 0.73500001 4290978361
0.19013496 -0.031369068 0.73500001 4291045421
0.19141532 -0.031369068 0.73500001 4290782505
0.19269569 -0.031369068 0.73500001 4291043372
0.19397607 -0.031369068 0.73500001 4291043372
0.19525644 -0.031369068 0.73500001 4290977579
0.19653681 -0.031369068 0.73500001 4290648871
0.19781718 -0.031369068 0.73500001 4290716458
0.19936845 -0.031411748 0.73600006 4290650665
0.20065056 -0.031411748 0.73600006 4290649380
0.20193267 -0.031411748 0.73600006 4290254878
0.20321478 -0.031411748 0.73600006 4290847278
0.20421904 -0.031369068 0.73500001 4290847278
0.2054994 -0.031369068 0.73500001 4290715956
0.20677976 -0.031369068 0.73500001 4290715956
0.20806015 -0.031369068 0.73500001 4290848810
0.20962535 -0.031411748 0.73600006 4290585637
0.21004777 -0.031283714 0.73300004 4290781731
0.21132466 -0.031283714 0.73300004 4290781731
0.21260154 -0.031283714 0.73300004 4290913837
0.214462 -0.031369068 0.73500001 4289729563
0.21574236 -0.031369068 0.73500001 4290517310
0.21702273 -0.031369068 0.73500001 4290846275
0.21830311 -0.031369068 0.73500001 4290584620
0.21958348 -0.031369068 0.73500001 4290058276
0.22116435 -0.031411748 0.73600006 4290581820
0.22244647 -0.031411748 0.73600006 4290516026
0.22372857 -0.031411748 0.73600006 4290584870
0.22501069 -0.031411748 0.73600006 4290650663
0.22629279 -0.031411748 0.73600006 4290389806
0.22757491 -0.031411748 0.73600006 4290258219
0.22885703 -0.031411748 0.73600006 4290323749
0.22982642 -0.031369068 0.73500001 4289402647
0.23110679 -0.031369068 0.73500001 4290189362
0.23238717 -0.031369068 0.73500001 4290584120
0.23398547 -0.031411748 0.73600006 4289995550
0.23526759 -0.031411748 0.73600006 4288153346
0.23654969 -0.031411748 0.73600006 4288683787
0.23750865 -0.031369068 0.73500001 4291512886
0.23878902 -0.031369068 0.73500001 4289815914
0.24039604 -0.031411748 0.73600006 4291658118
0.24167813 -0.031411748 0.73600006 4292121431
0.24362049 -0.031497106 0.73800004 4294095221
0.24490607 -0.031497106 0.73800004 4294163087
0.24619167 -0.031497106 0.73800004 4294623638
0.24747725 -0.031497106 0.73800004 4293902730
0.24876286 -0.031497106 0.73800004 4292652663
0.25004843 -0.031497106 0.73800004 4291731341
0.25133404 -0.031497106 0.73800004 4290152308
0.25193503 -0.031411748 0.73600006 4289756506
0.25321716 -0.031411748 0.73600006 4289558870
0.25449926 -0.031411748 0.73600006 4289165148
0.25578138 -0.031411748 0.73600006 4289099355
0.25706348 -0.031411748 0.73600006 4289428570
0.2583456 -0.031411748 0.73600006 4289099605
0.2596277 -0.031411748 0.73600006 4288509264
0.26090983 -0.031411748 0.73600006 4288706644
0.26112324 -0.031283714 0.73300004 4286734432
0.26240012 -0.031283714 0.73300004 4286471260
0.26367697 -0.031283714 0.73300004 4286864946
0.26495388 -0.031283714 0.73300004 4286404395
0.26550433 -0.031198351 0.73100001 4286205998
0.26677772 -0.031198351 0.73100001 4285350689
0.26805115 -0.031198351 0.73100001 4285021486
0.26932454 -0.031198351 0.73100001 4284955693
0.27022776 -0.031155672 0.73000002 4284955693
0.27149945 -0.031155672 0.73000002 4284692521
0.27277109 -0.031155672 0.73000002 4285216300
0.27441815 -0.031198351 0.73100001 4285018665
0.27531439 -0.031155672 0.73000002 4285149211
0.27582833 -0.031070314 0.72800004 4285807141
0.27709648 -0.031070314 0.72800004 4286398976
0.27798229 -0.031027636 0.72700006 4286662144
0.27924874 -0.031027636 0.72700006 4286727715
0.28051519 -0.031027636 0.72700006 4288503870
0.28178158 -0.031027636 0.72700006 4289293908
0.28304803 -0.031027636 0.72700006 4290675561
0.28431448 -0.031027636 0.72700006 4291466565
0.2855809 -0.031027636 0.72700006 4292190288
0.28684735 -0.031027636 0.72700006 4292584560
0.28732115 -0.030942278 0.72500002 4292584560
0.28858411 -0.030942278 0.72500002 4292386665
0.28984708 -0.030942278 0.72500002 4292189030
0.29111001 -0.030942278 0.72500002 4291731032
0.29237297 -0.030942278 0.72500002 4291533909
0.2936359 -0.030942278 0.72500002 4291533153
0.29489887 -0.030942278 0.72500002 4291664482
0.2961618 -0.030942278 0.72500002 4291729778
0.29742476 -0.030942278 0.72500002 4291729778
0.2986877 -0.030942278 0.72500002 4291664487
0.29995063 -0.030942278 0.72500002 4291730280
0.30121359 -0.030942278 0.72500002 4291402349
0.30247656 -0.030942278 0.72500002 4291402349
0.30373949 -0.030942278 0.72500002 4291466858
0.30500245 -0.030942278 0.72500002 4291401065
0.30584297 -0.030899599 0.72400004 4291466610
0.30710417 -0.030899599 0.72400004 4291334768
0.30836537 -0.030899599 0.72400004 4291269477
0.30962658 -0.030899599 0.72400004 4291006305
0.31088778 -0.030899599 0.72400004 4291006316
0.31214902 -0.030899599 0.72400004 4290677608
0.3138431 -0.030942278 0.72500002 4290744155
0.31593266 -0.030899599 0.72400004 4290875221
0.32592735 -0.030771563 0.72100002 4293183920
0.14321332 -0.030457132 0.74400002 4294964733
0.14450936 -0.030457132 0.74400002 4294237925
0.14560944 -0.030416194 0.74300003 4291476166
0.14690375 -0.030416194 0.74300003 4287002499
0.14779913 -0.030334322 0.74100006 4285419356
0.14908996 -0.030334322 0.74100006 4286011236
0.1499749 -0.030252445 0.73900002 4286929496
0.15126224 -0.030252445 0.73900002 4287390047
0.15254956 -0.030252445 0.73900002 4287586382
0.15362874 -0.030211508 0.73800004 4286862658
0.15491433 -0.030211508 0.73800004 4288169249
0.15577663 -0.030129636 0.73600006 4288169249
0.15705873 -0.030129636 0.73600006 4290195497
0.15834086 -0.030129636 0.73600006 4290984757
0.15962297 -0.030129636 0.73600006 4291442218
0.16090509 -0.030129636 0.73600006 4291836720
0.16218719 -0.030129636 0.73600006 4291638866
0.16346931 -0.030129636 0.73600006 4291244364
0.16452757 -0.030088698 0.73500001 4291574079
0.16580793 -0.030088698 0.73500001 4291310907
0.1670883 -0.030088698 0.73500001 4291373361
0.16836867 -0.030088698 0.73500001 4291570484
0.16964905 -0.030088698 0.73500001 4291243077
0.17092942 -0.030088698 0.73500001 4291045955
0.17220977 -0.030088698 0.73500001 4291111746
0.17349014 -0.030088698 0.73500001 4290651195
0.17477052 -0.030088698 0.73500001 4290978613
0.17605089 -0.030088698 0.73500001 4290978613
0.17684874 -0.030006822 0.73300004 4290978863
0.1781256 -0.030006822 0.73300004 4290913070
0.179892 -0.030088698 0.73500001 4290912306
0.18117237 -0.030088698 0.73500001 4291043636
0.18245274 -0.030088698 0.73500001 4291175735
0.18373311 -0.030088698 0.73500001 4290912820
0.18501349 -0.030088698 0.73500001 4291044406
0.18629386 -0.030088698 0.73500001 4290912820
0.18757422 -0.030088698 0.73500001 4291043384
0.18885459 -0.030088698 0.73500001 4291043384
0.19013496 -0.030088698 0.73500001 4290912818
0.19141532 -0.030088698 0.73500001 4290847024
0.19217137 -0.030006822 0.73300004 4290847024
0.19344826 -0.030006822 0.73300004 4290715438
0.19472514 -0.030006822 0.73300004 4290780718
0.19600202 -0.030006822 0.73300004 4290780718
0.1972789 -0.030006822 0.73300004 4290911534
0.19909756 -0.030088698 0.73500001 4290911534
0.20037793 -0.030088698 0.73500001 4290713391
0.20165829 -0.030088698 0.73500001 4290910771
0.20293866 -0.030088698 0.73500001 4290912568
0.20366333 -0.030006822 0.73300004 4290780981
0.20494023 -0.030006822 0.73300004 4290780979
0.20621711 -0.030006822 0.73300004 4290715186
0.20749399 -0.030006822 0.73300004 4290584368
0.20877089 -0.030006822 0.73300004 4290518575
0.21004777 -0.030006822 0.73300004 4290584620
0.21132466 -0.030006822 0.73300004 4290716206
0.21260154 -0.030006822 0.73300004 4290650163
0.21387842 -0.030006822 0.73300004 4290452784
0.21515532 -0.030006822 0.73300004 4290715956
0.2164322 -0.030006822 0.73300004 4290452784
0.21770909 -0.030006822 0.73300004 4290517291
0.21958348 -0.030088698 0.73500001 4290517291
0.22086385 -0.030088698 0.73500001 4290716470
0.2221442 -0.030088698 0.73500001 4290255919
0.2234246 -0.030088698 0.73500001 4290385962
0.22470497 -0.030088698 0.73500001 4290780720
0.22537041 -0.030006822 0.73300004 4290258738
0.2266473 -0.030006822 0.73300004 4290192944
0.22792417 -0.030006822 0.73300004 4290390067
0.22920105 -0.030006822 0.73300004 4289732393
0.23047794 -0.030006822 0.73300004 4290257465
0.23238717 -0.030088698 0.73500001 4289994550
0.23366754 -0.030088698 0.73500001 4289995300
0.23430862 -0.030006822 0.73300004 4289271576
0.2355855 -0.030006822 0.73300004 4288421888
0.23686239 -0.030006822 0.73300004 4293093188
0.23813927 -0.030006822 0.73300004 4290479713
0.23941614 -0.030006822 0.73300004 4291335022
0.24167813 -0.030129636 0.73600006 4292516970
0.24296026 -0.030129636 0.73600006 4294359174
0.24490607 -0.030211508 0.73800004 4294294701
0.24619167 -0.030211508 0.73800004 4293834150
0.24747725 -0.030211508 0.73800004 4292652947
0.24876286 -0.030211508 0.73800004 4291797638
0.25004843 -0.030211508 0.73800004 4289498978
0.25133404 -0.030211508 0.73800004 4286998844
0.25193503 -0.030129636 0.73600006 4286338877
0.25321716 -0.030129636 0.73600006 4286207291
0.25519085 -0.030211508 0.73800004 4284435774
0.25647643 -0.030211508 0.73800004 4284238396
0.25776204 -0.030211508 0.73800004 4285156640
0.2590476 -0.030211508 0.73800004 4285485349
0.2596277 -0.030129636 0.73600006 4286009900
0.26090983 -0.030129636 0.73600006 4286470451
0.26183569 -0.030088698 0.73500001 4286797645
0.26240012 -0.030006822 0.73300004 4287192403
0.26367697 -0.030006822 0.73300004 4287325274
0.26495388 -0.030006822 0.73300004 4286338379
0.26623076 -0.030006822 0.73300004 4285944133
0.26750764 -0.030006822 0.73300004 4285088824
0.26805115 -0.029924948 0.73100001 4285021988
0.26932454 -0.029924948 0.73100001 4285021988
0.27059793 -0.029924948 0.73100001 4284693034
0.27149945 -0.029884012 0.73000002 4284364326
0.27277109 -0.029884012 0.73000002 4284626728
0.27404276 -0.029884012 0.73000002 4284495142
0.27531439 -0.029884012 0.73000002 4284887810
0.27582833 -0.029802142 0.72800004 4284887810
0.27671587 -0.029761203 0.72700006 4285217293
0.27798229 -0.029761203 0.72700006 4284756742
0.27924874 -0.029761203 0.72700006 4285546240
0.28051519 -0.029761203 0.72700006 4285546240
0.2810064 -0.029679328 0.72500002 4287320603
0.28226936 -0.029679328 0.72500002 4289031220
0.28353232 -0.029679328 0.72500002 4289821767
0.28479525 -0.029679328 0.72500002 4291861351
0.28605822 -0.029679328 0.72500002 4291731320
0.28732115 -0.029679328 0.72500002 4291994749
0.28858411 -0.029679328 0.72500002 4292519030
0.28984708 -0.029679328 0.72500002 4292321652
0.29111001 -0.029679328 0.72500002 4292059763
0.29237297 -0.029679328 0.72500002 4291730798
0.2936359 -0.029679328 0.72500002 4291665255
0.29489887 -0.029679328 0.72500002 4291467875
0.2961618 -0.029679328 0.72500002 4291663721
0.29742476 -0.029679328 0.72500002 4291729515
0.2986877 -0.029679328 0.72500002 4291729764
0.29995063 -0.029679328 0.72500002 4291729764
0.30079815 -0.029638389 0.72400004 4291664487
0.30205935 -0.029638389 0.72400004 4291664487
0.30332056 -0.029638389 0.72400004 4291730796
0.30458176 -0.029638389 0.72400004 4291730796
0.30584297 -0.029638389 0.72400004 4291598971
0.30710417 -0.029638389 0.72400004 4291336055
0.30836537 -0.029638389 0.72400004 4291204454
0.30877131 -0.029556518 0.72200006 4291072868
0.31002903 -0.029556518 0.72200006 4291072614
0.31214902 -0.029638389 0.72400004 4290612063
0.31341022 -0.029638389 0.72400004 4290744153
0.31467146 -0.029638389 0.72400004 4290744153
0.31505993 -0.029556518 0.72200006 4290809428
0.31631765 -0.029556518 0.72200006 4290743634
0.31845507 -0.029638389 0.72400004 4291073358
0.31883308 -0.029556518 0.72200006 4291204687
0.32009083 -0.029556518 0.72200006 4291401828
0.32134855 -0.029556518 0.72200006 4291467621
0.32260624 -0.029556518 0.72200006 4291731572
0.32386395 -0.029556518 0.72200006 4292257917
0.32467139 -0.029515579 0.72100002 4292325779
0.32592735 -0.029515579 0.72100002 4293049501
0.32718334 -0.029515579 0.72100002 4292460207
0.32752827 -0.029433707 0.71900004 4292789171
0.32878077 -0.029433707 0.71900004 4292790457
0.33003327 -0.029433707 0.71900004 4293053372
0.14560944 -0.029121889 0.74300003 4294369516
0.14690375 -0.029121889 0.74300003 4293908965
0.14779913 -0.029043498 0.74100006 4292132050
0.14908996 -0.029043498 0.74100006 4288710814
0.1499749 -0.028965108 0.73900002 4286535822
0.15126224 -0.028965108 0.73900002 4285548927
0.15254956 -0.028965108 0.73900002 4286205746
0.15362874 -0.028925914 0.73800004 4286995006
0.15491433 -0.028925914 0.73800004 4287912757
0.15577663 -0.028847525 0.73600006 4288044086
0.15705873 -0.028847525 0.73600006 4289088312
0.15834086 -0.028847525 0.73600006 4287377950
0.15962297 -0.028847525 0.73600006 4289079812
0.16090509 -0.028847525 0.73600006 4289343241
0.16196682 -0.028808327 0.73500001 4290192704
0.16324718 -0.028808327 0.73500001 4290061117
0.16452757 -0.028808327 0.73500001 4291244581
0.16580793 -0.028808327 0.73500001 4291508009
0.1670883 -0.028808327 0.73500001 4291375154
0.16791053 -0.028729938 0.73300004 4291441203
0.16918741 -0.028729938 0.73300004 4291310408
0.17046431 -0.028729938 0.73300004 4291244614
0.17174119 -0.028729938 0.73300004 4291179060
0.17301807 -0.028729938 0.73300004 4290586667
0.17429496 -0.028729938 0.73300004 4290979126
0.17557184 -0.028729938 0.73300004 4291110712
0.17684874 -0.028729938 0.73300004 4291045682
0.1781256 -0.028729938 0.73300004 4291045682
0.1794025 -0.028729938 0.73300004 4291044669
0.1806794 -0.028729938 0.73300004 4290978876
0.18195628 -0.028729938 0.73300004 4291175735
0.18323317 -0.028729938 0.73300004 4291175735
0.18451004 -0.028729938 0.73300004 4291175735
0.18578693 -0.028729938 0.73300004 4291175735
0.18706383 -0.028729938 0.73300004 4290978874
0.18834071 -0.028729938 0.73300004 4290978874
0.18910021 -0.028651547 0.73100001 4290848308
0.19037361 -0.028651547 0.73100001 4290782515
0.19164702 -0.028651547 0.73100001 4290913335
0.19292042 -0.028651547 0.73100001 4290715956
0.19419383 -0.028651547 0.73100001 4290846261
0.19546722 -0.028651547 0.73100001 4290780468
0.19674061 -0.028651547 0.73100001 4290780468
0.1985558 -0.028729938 0.73300004 4290648882
0.19983269 -0.028729938 0.73300004 4290714162
0.20110957 -0.028729938 0.73300004 4290911284
0.20238645 -0.028729938 0.73300004 4290912054
0.20310763 -0.028651547 0.73100001 4290912054
0.20438103 -0.028651547 0.73100001 4290715454
0.20621711 -0.028729938 0.73300004 4290452282
0.20749399 -0.028729938 0.73300004 4290649409
0.20877089 -0.028729938 0.73300004 4290320701
0.20947465 -0.028651547 0.73100001 4290715454
0.21074805 -0.028651547 0.73100001 4290715454
0.21260154 -0.028729938 0.73300004 4290715968
0.21387842 -0.028729938 0.73300004 4290715968
0.21515532 -0.028729938 0.73300004 4290650926
0.2164322 -0.028729938 0.73300004 4290453804
0.21770909 -0.028729938 0.73300004 4290585133
0.21898597 -0.028729938 0.73300004 4290585133
0.22026286 -0.028729938 0.73300004 4290520610
0.22153975 -0.028729938 0.73300004 4290389024
0.22281663 -0.028729938 0.73300004 4290323247
0.22409353 -0.028729938 0.73300004 4290389040
0.22475547 -0.028651547 0.73100001 4290192944
0.22602887 -0.028651547 0.73100001 4289535014
0.22730228 -0.028651547 0.73100001 4290125114
0.22857569 -0.028651547 0.73100001 4289664563
0.22984907 -0.028651547 0.73100001 4289993264
0.23112248 -0.028651547 0.73100001 4289664300
0.23239589 -0.028651547 0.73100001 4289667363
0.2336693 -0.028651547 0.73100001 4288943897
0.23494269 -0.028651547 0.73100001 4288881727
0.23686239 -0.028729938 0.73300004 4293487237
0.23813927 -0.028729938 0.73300004 4291925053
0.23941614 -0.028729938 0.73300004 4292780106
0.24134976 -0.028808327 0.73500001 4290941305
0.24296026 -0.028847525 0.73600006 4290481010
0.24424237 -0.028847525 0.73600006 4288302214
0.24619167 -0.028925914 0.73800004 4285670751
0.24747725 -0.028925914 0.73800004 4286125824
0.24876286 -0.028925914 0.73800004 4285402112
0.25004843 -0.028925914 0.73800004 4286138368
0.25133404 -0.028925914 0.73800004 4287125261
0.25261965 -0.028925914 0.73800004 4286208076
0.25390524 -0.028925914 0.73800004 4286470992
0.25519085 -0.028925914 0.73800004 4284630898
0.25647643 -0.028925914 0.73800004 4282591059
0.25776204 -0.028925914 0.73800004 4283116544
0.2590476 -0.028925914 0.73800004 4282458368
0.2596277 -0.028847525 0.73600006 4283442951
0.26090983 -0.028847525 0.73600006 4283442951
0.26183569 -0.028808327 0.73500001 4284165646
0.26311603 -0.028808327 0.73500001 4284560403
0.26439643 -0.028808327 0.73500001 4284562482
0.26495388 -0.028729938 0.73300004 4284496689
0.26623076 -0.028729938 0.73300004 4285154099
0.26750764 -0.028729938 0.73300004 4285022769
0.26878452 -0.028729938 0.73300004 4285153826
0.26932454 -0.028651547 0.73100001 4285416998
0.27059793 -0.028651547 0.73100001 4284957228
0.27149945 -0.028612353 0.73000002 4284759593
0.27277109 -0.028612353 0.73000002 4284628525
0.27404276 -0.028612353 0.73000002 4284562732
0.27531439 -0.028612353 0.73000002 4284694027
0.27582833 -0.028533963 0.72800004 4284891405
0.27671587 -0.02849477 0.72700006 4284825892
0.27798229 -0.02849477 0.72700006 4284496927
0.27924874 -0.02849477 0.72700006 4284758296
0.28051519 -0.02849477 0.72700006 4285087261
0.2810064 -0.028416377 0.72500002 4285677070
0.28226936 -0.028416377 0.72500002 4285677070
0.28353232 -0.028416377 0.72500002 4286531073
0.28479525 -0.028416377 0.72500002 4286794244
0.28605822 -0.028416377 0.72500002 4287911181
0.28692484 -0.028377183 0.72400004 4288832283
0.28818604 -0.028377183 0.72400004 4289359179
0.28944725 -0.028377183 0.72400004 4291004261
0.29111001 -0.028416377 0.72500002 4291467623
0.29196969 -0.028377183 0.72400004 4291665003
0.29323089 -0.028377183 0.72400004 4291862116
0.29449213 -0.028377183 0.72400004 4291862116
0.29575333 -0.028377183 0.72400004 4291993452
0.29742476 -0.028416377 0.72500002 4291861866
0.2986877 -0.028416377 0.72500002 4291730528
0.29953694 -0.028377183 0.72400004 4291664734
0.30079815 -0.028377183 0.72400004 4291664736
0.30205935 -0.028377183 0.72400004 4291533407
0.30332056 -0.028377183 0.72400004 4291730530
0.30374041 -0.028298793 0.72200006 4291927909
0.30499813 -0.028298793 0.72200006 4291796856
0.30625585 -0.028298793 0.72200006 4291336305
0.30751356 -0.028298793 0.72200006 4291401063
0.30877131 -0.028298793 0.72200006 4291335270
0.31002903 -0.028298793 0.72200006 4291204454
0.31128675 -0.028298793 0.72200006 4290809696
0.31254447 -0.028298793 0.72200006 4291072864
0.31380218 -0.028298793 0.72200006 4291204706
0.31505993 -0.028298793 0.72200006 4291138911
0.31631765 -0.028298793 0.72200006 4291138911
0.31757537 -0.028298793 0.72200006 4291269727
0.31883308 -0.028298793 0.72200006 4291203934
0.32009083 -0.028298793 0.72200006 4291203936
0.32134855 -0.028298793 0.72200006 4291072350
0.32260624 -0.028298793 0.72200006 4291006809
0.32386395 -0.028298793 0.72200006 4290743381
0.32467139 -0.028259596 0.72100002 4290876254
0.32592735 -0.028259596 0.72100002 4290942048
0.32718334 -0.028259596 0.72100002 4291008871
0.32752827 -0.02818121 0.71900004 4291008871
0.32878077 -0.02818121 0.71900004 4290747257
0.33003327 -0.02818121 0.71900004 4291865739
0.330825 -0.028142013 0.71800005 4291932581
0.33207577 -0.028142013 0.71800005 4292524718
0.33332652 -0.028142013 0.71800005 4292987066
0.14690375 -0.027827581 0.74300003 4294960111
0.14779913 -0.027752677 0.74100006 4294697713
0.14908996 -0.027752677 0.74100006 4292789716
0.15038079 -0.027752677 0.74100006 4290159025
0.1516716 -0.027752677 0.74100006 4286408824
0.15254956 -0.027677769 0.73900002 4286598746
0.15362874 -0.027640317 0.73800004 4286664539
0.15491433 -0.027640317 0.73800004 4286599750
0.15577663 -0.027565412 0.73600006 4286797130
0.15705873 -0.027565412 0.73600006 4287256899
0.15834086 -0.027565412 0.73600006 4286401590
0.15962297 -0.027565412 0.73600006 4287119889
0.16090509 -0.027565412 0.73600006 4286922767
0.16196682 -0.027527958 0.73500001 4289212212
0.16324718 -0.027527958 0.73500001 4289541176
0.16452757 -0.027527958 0.73500001 4291245607
0.16580793 -0.027527958 0.73500001 4291574316
0.1670883 -0.027527958 0.73500001 4291378497
0.16791053 -0.027453052 0.73300004 4291312704
0.16918741 -0.027453052 0.73300004 4291312454
0.16999918 -0.027378146 0.73100001 4291049539
0.17127259 -0.027378146 0.73100001 4291180607
0.17254598 -0.027378146 0.73100001 4290588213
0.17358162 -0.027340693 0.73000002 4291045421
0.17485327 -0.027340693 0.73000002 4291045421
0.17612493 -0.027340693 0.73000002 4291111214
0.17763959 -0.027378146 0.73100001 4291111214
0.17891298 -0.027378146 0.73100001 4291110714
0.1806794 -0.027453052 0.73300004 4291110714
0.1814598 -0.027378146 0.73100001 4291177021
0.18273319 -0.027378146 0.73100001 4291111227
0.1840066 -0.027378146 0.73100001 4290979126
0.18528001 -0.027378146 0.73100001 4291110712
0.1865534 -0.027378146 0.73100001 4291046720
0.18782681 -0.027378146 0.73100001 4290783548
0.18884154 -0.027340693 0.73000002 4290848814
0.19011319 -0.027340693 0.73000002 4291111729
0.19138485 -0.027340693 0.73000002 4291049539
0.1926565 -0.027340693 0.73000002 4290062644
0.19392817 -0.027340693 0.73000002 4290846261
0.19519982 -0.027340693 0.73000002 4291241019
0.19647148 -0.027340693 0.73000002 4291373886
0.19801402 -0.027378146 0.73100001 4290584370
0.19928743 -0.027378146 0.73100001 4290910771
0.20056082 -0.027378146 0.73100001 4291173942
0.20183423 -0.027378146 0.73100001 4291310656
0.20310763 -0.027378146 0.73100001 4290981947
0.20438103 -0.027378146 0.73100001 4290915648
0.20565444 -0.027378146 0.73100001 4290521146
0.20692784 -0.027378146 0.73100001 4290849855
0.20820124 -0.027378146 0.73100001 4290652475
0.20947465 -0.027378146 0.73100001 4290848323
0.21074805 -0.027378146 0.73100001 4290848323
0.21202146 -0.027378146 0.73100001 4290915648
0.21329485 -0.027378146 0.73100001 4290323510
0.21456826 -0.027378146 0.73100001 4290650163
0.21584165 -0.027378146 0.73100001 4290321199
0.21711504 -0.027378146 0.73100001 4290257454
0.21838845 -0.027378146 0.73100001 4290125868
0.21966186 -0.027378146 0.73100001 4290191398
0.22093526 -0.027378146 0.73100001 4290191398
0.22220866 -0.027378146 0.73100001 4290322495
0.22348206 -0.027378146 0.73100001 4290256702
0.22475547 -0.027378146 0.73100001 4290522674
0.22602887 -0.027378146 0.73100001 4289930538
0.22730228 -0.027378146 0.73100001 4290455862
0.22857569 -0.027378146 0.73100001 4289929518
0.22984907 -0.027378146 0.73100001 4290125353
0.23112248 -0.027378146 0.73100001 4289204251
0.23239589 -0.027378146 0.73100001 4289602590
0.2336693 -0.027378146 0.73100001 4290918450
0.23494269 -0.027378146 0.73100001 4290271309
0.23621608 -0.027378146 0.73100001 4292639857
0.23748948 -0.027378146 0.73100001 4292056683
0.23876289 -0.027378146 0.73100001 4291727718
0.24069303 -0.027453052 0.73300004 4289367108
0.24424237 -0.027565412 0.73600006 4285613342
0.24619167 -0.027640317 0.73800004 4284626446
0.24747725 -0.027640317 0.73800004 4286325248
0.24876286 -0.027640317 0.73800004 4288956966
0.25004843 -0.027640317 0.73800004 4288772691
0.25133404 -0.027640317 0.73800004 4289759586
0.25261965 -0.027640317 0.73800004 4290089875
0.25390524 -0.027640317 0.73800004 4290089875
0.25519085 -0.027640317 0.73800004 4288974753
0.25647643 -0.027640317 0.73800004 4285158759
0.25776204 -0.027640317 0.73800004 4285613648
0.2590476 -0.027640317 0.73800004 4284363581
0.26033321 -0.027640317 0.73800004 4283180606
0.26090983 -0.027565412 0.73600006 4283377985
0.26219192 -0.027565412 0.73600006 4283838241
0.26311603 -0.027527958 0.73500001 4283772448
0.26439643 -0.027527958 0.73500001 4283772700
0.2656768 -0.027527958 0.73500001 4284299044
0.26695716 -0.027527958 0.73500001 4284694581
0.26823753 -0.027527958 0.73500001 4284892217
0.26878452 -0.027453052 0.73300004 4285023785
0.26932454 -0.027378146 0.73100001 4285089578
0.27059793 -0.027378146 0.73100001 4285089591
0.27149945 -0.027340693 0.73000002 4284826419
0.27277109 -0.027340693 0.73000002 4284826925
0.27441815 -0.027378146 0.73100001 4284826925
0.27531439 -0.027340693 0.73000002 4284761371
0.27658609 -0.027340693 0.73000002 4284761371
0.27709648 -0.027265789 0.72800004 4284891685
0.27798229 -0.027228335 0.72700006 4284825892
0.27924874 -0.027228335 0.72700006 4284956447
0.28051519 -0.027228335 0.72700006 4284824604
0.28178158 -0.027228335 0.72700006 4285150746
0.28226936 -0.027153427 0.72500002 4284755988
0.28353232 -0.027153427 0.72500002 4285611008
0.28479525 -0.027153427 0.72500002 4285479424
0.28605822 -0.027153427 0.72500002 4286203392
0.28692484 -0.027115975 0.72400004 4285808640
0.28818604 -0.027115975 0.72400004 4287451659
0.28944725 -0.027115975 0.72400004 4289293863
0.29070848 -0.027115975 0.72400004 4289953369
0.29196969 -0.027115975 0.72400004 4291400815
0.29323089 -0.027115975 0.72400004 4291270758
0.29449213 -0.027115975 0.72400004 4291731309
0.29575333 -0.027115975 0.72400004 4292454007
0.29701453 -0.027115975 0.72400004 4292256372
0.29827574 -0.027115975 0.72400004 4291928693
0.29870951 -0.02704107 0.72200006 4291599471
0.29996723 -0.02704107 0.72200006 4291664482
0.30122495 -0.02704107 0.72200006 4291533153
0.30248266 -0.02704107 0.72200006 4291663710
0.30374041 -0.02704107 0.72200006 4292058468
0.30457565 -0.027003614 0.72100002 4292059509
0.30583164 -0.027003614 0.72100002 4291467371
0.30708763 -0.027003614 0.72100002 4291401063
0.30834362 -0.027003614 0.72100002 4291335270
0.30959958 -0.027003614 0.72100002 4291401830
0.31085557 -0.027003614 0.72100002 4291072866
0.31211156 -0.027003614 0.72100002 4291401828
0.31336755 -0.027003614 0.72100002 4291204706
0.3146235 -0.027003614 0.72100002 4291204452
0.31587949 -0.027003614 0.72100002 4291138659
0.31713548 -0.027003614 0.72100002 4291269727
0.31839144 -0.027003614 0.72100002 4291269727
0.31964746 -0.027003614 0.72100002 4291268964
0.32090342 -0.027003614 0.72100002 4291334757
0.32215941 -0.027003614 0.72100002 4291204706
0.3234154 -0.027003614 0.72100002 4290941277
0.32467139 -0.027003614 0.72100002 4291269729
0.32592735 -0.027003614 0.72100002 4291335522
0.32718334 -0.027003614 0.72100002 4291402601
0.32843933 -0.027003614 0.72100002 4290942050
0.32878077 -0.02692871 0.71900004 4290810459
0.33003327 -0.02692871 0.71900004 4291139424
0.330825 -0.026891258 0.71800005 4291666048
0.33207577 -0.026891258 0.71800005 4292192392
0.33379075 -0.02692871 0.71900004 4292129429
0.33504325 -0.02692871 0.71900004 4292984738
