# .PCD v0.7 - Point Cloud Data file format
VERSION 0.7
FIELDS x y z rgba
SIZE 4 4 4 4
TYPE F F F U
COUNT 1 1 1 1
WIDTH 1096
HEIGHT 1
VIEWPOINT 0 0 0 1 0 0 0
POINTS 1096
DATA ascii
0.21899556 0.1454936 0.57800001 4288491077
0.22000241 0.1454936 0.57800001 4288622401
0.22139169 0.14574532 0.57900006 4288622401
0.22240031 0.14574532 0.57900006 4288753720
0.22340894 0.14574532 0.57900006 4288885307
0.22441754 0.14574532 0.57900006 4288688959
0.22542615 0.14574532 0.57900006 4288754752
0.22643478 0.14574532 0.57900006 4288690244
0.2274434 0.14574532 0.57900006 4288558402
0.22845201 0.14574532 0.57900006 4288297031
0.22946064 0.14574532 0.57900006 4288297031
0.23046926 0.14574532 0.57900006 4288296513
0.23147786 0.14574532 0.57900006 4288493892
0.2324865 0.14574532 0.57900006 4288233802
0.2334951 0.14574532 0.57900006 4287773251
0.23450372 0.14574532 0.57900006 4287577932
0.23551235 0.14574532 0.57900006 4286920259
0.23652096 0.14574532 0.57900006 4286524227
0.23752956 0.14574532 0.57900006 4286063676
0.23853821 0.14574532 0.57900006 4284423212
0.23996054 0.14599703 0.58000004 4283633952
0.24097091 0.14599703 0.58000004 4281468160
0.24198124 0.14599703 0.58000004 4280942592
0.24299161 0.14599703 0.58000004 4279304192
0.17345445 0.14802125 0.58400005 4285016359
0.17447177 0.14802125 0.58400005 4285739826
0.1754891 0.14802125 0.58400005 4286073361
0.17620417 0.14776777 0.583 4286731547
0.17721976 0.14776777 0.583 4285814613
0.17823535 0.14776777 0.583 4286143578
0.17925094 0.14776777 0.583 4285617510
0.18026653 0.14776777 0.583 4285091165
0.18097116 0.14751431 0.58200002 4284829265
0.18167233 0.14726086 0.58100003 4284039749
0.18237001 0.14700741 0.58000004 4283446329
0.18306419 0.14675394 0.57900006 4282262055
0.18407282 0.14675394 0.57900006 4280221747
0.18508144 0.14675394 0.57900006 4279697451
0.18609005 0.14675394 0.57900006 4280221697
0.18709867 0.14675394 0.57900006 4279894016
0.1881073 0.14675394 0.57900006 4280156160
0.1891159 0.14675394 0.57900006 4279959552
0.19012453 0.14675394 0.57900006 4280549376
0.19113314 0.14675394 0.57900006 4280811520
0.19214176 0.14675394 0.57900006 4281270272
0.19315037 0.14675394 0.57900006 4281401344
0.194159 0.14675394 0.57900006 4281925632
0.19516762 0.14675394 0.57900006 4282187776
0.19617623 0.14675394 0.57900006 4282908672
0.19718485 0.14675394 0.57900006 4283039744
0.19819348 0.14675394 0.57900006 4283957248
0.19920208 0.14675394 0.57900006 4284416000
0.19986489 0.14650047 0.57800001 4284481536
0.20087178 0.14650047 0.57800001 4284481536
0.20222794 0.14675394 0.57900006 4285005824
0.20323656 0.14675394 0.57900006 4285005824
0.20424518 0.14675394 0.57900006 4285530112
0.20525379 0.14675394 0.57900006 4286187776
0.20626241 0.14675394 0.57900006 4285991424
0.20727104 0.14675394 0.57900006 4286254592
0.20827965 0.14675394 0.57900006 4286123550
0.20928827 0.14675394 0.57900006 4286189343
0.21029688 0.14675394 0.57900006 4286320159
0.21130551 0.14675394 0.57900006 4286649123
0.21231411 0.14675394 0.57900006 4286650168
0.21332274 0.14675394 0.57900006 4286847548
0.21396117 0.14650047 0.57800001 4286389286
0.21496804 0.14650047 0.57800001 4286389286
0.21560127 0.14624701 0.57700002 4286387260
0.21660639 0.14624701 0.57700002 4286124344
0.21761152 0.14624701 0.57700002 4286387008
0.21861666 0.14624701 0.57700002 4286650437
0.22000241 0.14650047 0.57800001 4286456124
0.2210093 0.14650047 0.57800001 4286324538
0.22240031 0.14675394 0.57900006 4286455842
0.22340894 0.14675394 0.57900006 4286521635
0.22441754 0.14675394 0.57900006 4285996073
0.22542615 0.14675394 0.57900006 4285930280
0.22643478 0.14675394 0.57900006 4285537071
0.2274434 0.14675394 0.57900006 4285076520
0.22845201 0.14675394 0.57900006 4284943650
0.22946064 0.14675394 0.57900006 4284351514
0.23046926 0.14675394 0.57900006 4284088320
0.23147786 0.14675394 0.57900006 4284088320
0.2324865 0.14675394 0.57900006 4283629578
0.2334951 0.14675394 0.57900006 4283236356
0.23450372 0.14675394 0.57900006 4283039755
0.23551235 0.14675394 0.57900006 4282974218
0.23652096 0.14675394 0.57900006 4282515460
0.23793982 0.14700741 0.58000004 4282384385
0.23895018 0.14700741 0.58000004 4282844448
0.23996054 0.14700741 0.58000004 4284028721
0.24097091 0.14700741 0.58000004 4284170024
0.17518859 0.14878336 0.583 4284361757
0.17620417 0.14878336 0.583 4285677617
0.17721976 0.14878336 0.583 4285877576
0.17823535 0.14878336 0.583 4286732885
0.17925094 0.14878336 0.583 4286471008
0.18026653 0.14878336 0.583 4286471008
0.1812821 0.14878336 0.583 4286471008
0.18167233 0.14827295 0.58100003 4286207836
0.18237001 0.14801776 0.58000004 4284500048
0.18306419 0.14776257 0.57900006 4283907911
0.18407282 0.14776257 0.57900006 4283447619
0.18508144 0.14776257 0.57900006 4280816156
0.18609005 0.14776257 0.57900006 4281271565
0.18709867 0.14776257 0.57900006 4280549377
0.1881073 0.14776257 0.57900006 4279697417
0.1891159 0.14776257 0.57900006 4279500807
0.19012453 0.14776257 0.57900006 4278910976
0.19113314 0.14776257 0.57900006 4278517760
0.19214176 0.14776257 0.57900006 4278190080
0.19315037 0.14776257 0.57900006 4278190080
0.194159 0.14776257 0.57900006 4278190080
0.19516762 0.14776257 0.57900006 4278190080
0.19617623 0.14776257 0.57900006 4278779908
0.19718485 0.14776257 0.57900006 4278779908
0.19819348 0.14776257 0.57900006 4279435264
0.19920208 0.14776257 0.57900006 4279435264
0.19986489 0.14750734 0.57800001 4280090624
0.20087178 0.14750734 0.57800001 4280287232
0.20222794 0.14776257 0.57900006 4280549376
0.20323656 0.14776257 0.57900006 4280614912
0.20424518 0.14776257 0.57900006 4281139200
0.20525379 0.14776257 0.57900006 4281270272
0.20626241 0.14776257 0.57900006 4282712064
0.20727104 0.14776257 0.57900006 4282712064
0.20827965 0.14776257 0.57900006 4283629839
0.20928827 0.14776257 0.57900006 4283893011
0.21029688 0.14776257 0.57900006 4283959583
0.21130551 0.14776257 0.57900006 4284156962
0.21231411 0.14776257 0.57900006 4284223012
0.21332274 0.14776257 0.57900006 4284683563
0.21396117 0.14750734 0.57800001 4284357419
0.21496804 0.14750734 0.57800001 4284357419
0.21560127 0.14725214 0.57700002 4284158763
0.21660639 0.14725214 0.57700002 4284158763
0.21761152 0.14725214 0.57700002 4284289849
0.21861666 0.14725214 0.57700002 4284486972
0.21962179 0.14725214 0.57700002 4284423212
0.2210093 0.14750734 0.57800001 4284094503
0.22240031 0.14776257 0.57900006 4283766815
0.22340894 0.14776257 0.57900006 4282845713
0.22441754 0.14776257 0.57900006 4282976512
0.22542615 0.14776257 0.57900006 4283108096
0.22643478 0.14776257 0.57900006 4282584603
0.2274434 0.14776257 0.57900006 4282321688
0.22845201 0.14776257 0.57900006 4280878353
0.22946064 0.14776257 0.57900006 4280352777
0.23007117 0.14750734 0.57800001 4278779904
0.23107806 0.14750734 0.57800001 4279304704
0.2324865 0.14776257 0.57900006 4278714368
0.2334951 0.14776257 0.57900006 4278517760
0.23450372 0.14776257 0.57900006 4278648832
0.23591909 0.14801776 0.58000004 4278845440
0.23692945 0.14801776 0.58000004 4279173120
0.17823535 0.14979894 0.583 4284690236
0.17925094 0.14979894 0.583 4285021486
0.18026653 0.14979894 0.583 4285613623
0.1812821 0.14979894 0.583 4286533694
0.18198501 0.149542 0.58200002 4286796609
0.18268444 0.14928506 0.58100003 4286338391
0.18338037 0.14902811 0.58000004 4286601563
0.18407282 0.14877118 0.57900006 4286732642
0.18508144 0.14877118 0.57900006 4286469727
0.18609005 0.14877118 0.57900006 4286272084
0.18709867 0.14877118 0.57900006 4286206035
0.1881073 0.14877118 0.57900006 4286270801
0.1891159 0.14877118 0.57900006 4285086527
0.19012453 0.14877118 0.57900006 4284890189
0.19113314 0.14877118 0.57900006 4283640378
0.19214176 0.14877118 0.57900006 4283442951
0.19315037 0.14877118 0.57900006 4282982400
0.194159 0.14877118 0.57900006 4281533982
0.19516762 0.14877118 0.57900006 4280942613
0.19617623 0.14877118 0.57900006 4281140519
0.19718485 0.14877118 0.57900006 4280746017
0.19819348 0.14877118 0.57900006 4280745984
0.19920208 0.14877118 0.57900006 4281008384
0.19986489 0.14851423 0.57800001 4281139226
0.20087178 0.14851423 0.57800001 4281073689
0.20222794 0.14877118 0.57900006 4281466898
0.20323656 0.14877118 0.57900006 4281204751
0.20424518 0.14877118 0.57900006 4281073664
0.20525379 0.14877118 0.57900006 4281270272
0.20626241 0.14877118 0.57900006 4281466906
0.20727104 0.14877118 0.57900006 4281008147
0.20791991 0.14851423 0.57800001 4281270272
0.2089268 0.14851423 0.57800001 4281270272
0.21029688 0.14877118 0.57900006 4281860103
0.21130551 0.14877118 0.57900006 4281794566
0.21231411 0.14877118 0.57900006 4281335809
0.2129543 0.14851423 0.57800001 4281401346
0.21396117 0.14851423 0.57800001 4281794578
0.21496804 0.14851423 0.57800001 4281532431
0.21560127 0.14825729 0.57700002 4281401348
0.21660639 0.14825729 0.57700002 4281532423
0.21761152 0.14825729 0.57700002 4281597982
0.21861666 0.14825729 0.57700002 4281073686
0.21962179 0.14825729 0.57700002 4280811520
0.2210093 0.14851423 0.57800001 4280680448
0.22240031 0.14877118 0.57900006 4280811525
0.22340894 0.14877118 0.57900006 4280483840
0.22441754 0.14877118 0.57900006 4280942592
0.22581549 0.14902811 0.58000004 4281204736
0.22682585 0.14902811 0.58000004 4280942598
0.2274434 0.14877118 0.57900006 4281008135
0.22845201 0.14877118 0.57900006 4280485669
0.2290643 0.14851423 0.57800001 4281933115
0.23007117 0.14851423 0.57800001 4282065485
0.23107806 0.14851423 0.57800001 4284104811
0.2324865 0.14877118 0.57900006 4284371009
0.2334951 0.14877118 0.57900006 4284897609
0.18338037 0.15003848 0.58000004 4286927184
0.18439072 0.15003848 0.58000004 4287517020
0.18540108 0.15003848 0.58000004 4287385435
0.18641146 0.15003848 0.58000004 4287386191
0.18709867 0.1497798 0.57900006 4287780949
0.1881073 0.1497798 0.57900006 4287780454
0.1891159 0.1497798 0.57900006 4287056987
0.19045289 0.15003848 0.58000004 4286664026
0.19146325 0.15003848 0.58000004 4285940303
0.19247361 0.15003848 0.58000004 4284296495
0.19348396 0.15003848 0.58000004 4284296495
0.19449432 0.15003848 0.58000004 4284164151
0.19516762 0.1497798 0.57900006 4284164151
0.19583741 0.1495211 0.57800001 4283047989
0.19684426 0.1495211 0.57800001 4281205785
0.19785115 0.1495211 0.57800001 4281073664
0.19885802 0.1495211 0.57800001 4281073664
0.19951913 0.14926241 0.57700002 4281073664
0.20052426 0.14926241 0.57700002 4280942592
0.20222794 0.1497798 0.57900006 4280549376
0.20323656 0.1497798 0.57900006 4280483840
0.20424518 0.1497798 0.57900006 4280483840
0.20525379 0.1497798 0.57900006 4280418304
0.20626241 0.1497798 0.57900006 4280221697
0.20727104 0.1497798 0.57900006 4279828480
0.20791991 0.1495211 0.57800001 4278976512
0.2089268 0.1495211 0.57800001 4279107584
0.20993365 0.1495211 0.57800001 4278976512
0.21130551 0.1497798 0.57900006 4278976512
0.21231411 0.1497798 0.57900006 4278648832
0.2129543 0.1495211 0.57800001 4278976512
0.21396117 0.1495211 0.57800001 4279238656
0.21496804 0.1495211 0.57800001 4279238656
0.21560127 0.14926241 0.57700002 4279173120
0.21660639 0.14926241 0.57700002 4278714368
0.21761152 0.14926241 0.57700002 4278386688
0.21861666 0.14926241 0.57700002 4278845440
0.21962179 0.14926241 0.57700002 4278779904
0.2210093 0.1495211 0.57800001 4278452224
0.22240031 0.1497798 0.57900006 4278648832
0.22340894 0.1497798 0.57900006 4279042048
0.22441754 0.1497798 0.57900006 4279435264
0.22581549 0.15003848 0.58000004 4280750853
0.22682585 0.15003848 0.58000004 4281081892
0.2274434 0.1497798 0.57900006 4282068787
0.22845201 0.1497798 0.57900006 4283909195
0.2290643 0.1495211 0.57800001 4284764503
0.23007117 0.1495211 0.57800001 4285355357
0.23107806 0.1495211 0.57800001 4286078824
0.19516762 0.15078841 0.57900006 4285412650
0.19583741 0.15052798 0.57800001 4285213470
0.19684426 0.15052798 0.57800001 4283963404
0.19785115 0.15052798 0.57800001 4284685076
0.19885802 0.15052798 0.57800001 4285079833
0.20626241 0.15078841 0.57900006 4284552976
0.20727104 0.15078841 0.57900006 4284618769
0.20827965 0.15078841 0.57900006 4284422671
0.2089268 0.15052798 0.57800001 4284488464
0.20993365 0.15052798 0.57800001 4284422671
0.21094054 0.15052798 0.57800001 4284291085
0.21231411 0.15078841 0.57900006 4284159763
0.2129543 0.15052798 0.57800001 4284093970
0.21359099 0.15026756 0.57700002 4284488730
0.21459614 0.15026756 0.57700002 4284488730
0.21560127 0.15026756 0.57700002 4284553258
0.21660639 0.15026756 0.57700002 4283697949
0.21798867 0.15052798 0.57800001 4284756480
0.21899556 0.15052798 0.57800001 4287980317
0.22000241 0.15052798 0.57800001 4287659116
0.22139169 0.15078841 0.57900006 4287330151
0.2227844 0.15104884 0.58000004 4287660147
0.22379479 0.15104884 0.58000004 4288186492
0.22480512 0.15104884 0.58000004 4288580227
0.22581549 0.15104884 0.58000004 4288909449
0.22682585 0.15104884 0.58000004 4289107609
0.22783621 0.15104884 0.58000004 4289304988
0.20993365 0.15153484 0.57800001 4286784544
0.21094054 0.15153484 0.57800001 4286850337
0.21194741 0.15153484 0.57800001 4286850337
0.2129543 0.15153484 0.57800001 4286718751
0.21359099 0.15127268 0.57700002 4286718499
0.21459614 0.15127268 0.57700002 4286718499
0.21597493 0.15153484 0.57800001 4286783790
0.18266511 0.14307448 0.58011758 4278190080
0.18381573 0.14316267 0.58003879 4278190080
0.18726763 0.14342725 0.57980251 4278190080
0.18864779 0.14452074 0.57989192 4278190080
0.18980016 0.14460906 0.57981306 4278190080
0.19095252 0.14469738 0.57973415 4278190080
0.19210486 0.14478572 0.57965529 4278190080
0.19325723 0.14487404 0.57957637 4278190080
0.19440959 0.14496237 0.57949746 4278190080
0.19556195 0.14505069 0.5794186 4278190080
0.19671431 0.14513901 0.57933968 4278190080
0.19762328 0.14422098 0.57909358 4278190080
0.19992454 0.14439736 0.57893604 4278190080
0.20107515 0.14448555 0.57885724 4278190080
0.17930143 0.14268315 0.58150023 4278190080
0.18045206 0.14277135 0.58142143 4278190080
0.18160269 0.14285953 0.5813427 4278190080
0.18275329 0.14294772 0.5812639 4278190080
0.18390393 0.14303592 0.58118516 4278190080
0.18505456 0.1431241 0.58110636 4278190080
0.18620519 0.1432123 0.58102757 4278190080
0.18735583 0.14330049 0.58094883 4278190080
0.18850644 0.14338869 0.58087003 4278190080
0.18965706 0.14347687 0.58079129 4278190080
0.19080772 0.14356507 0.5807125 4278190080
0.19195834 0.14365326 0.58063376 4278190080
0.19310896 0.14374144 0.58055496 4278190080
0.19425958 0.14382964 0.58047622 4278190080
0.19541021 0.14391783 0.58039743 4278190080
0.19656084 0.14400603 0.58031869 4278190080
0.19771148 0.14409421 0.58023989 4278190080
0.19886211 0.14418241 0.58016109 4278190080
0.20001273 0.1442706 0.58008236 4278190080
0.20116334 0.1443588 0.58000356 4278190080
0.2069165 0.14479975 0.57960975 4278190080
0.20806712 0.14488794 0.57953095 4278190080
0.20921776 0.14497614 0.57945216 4278190080
0.21036838 0.14506432 0.57937342 4278190080
0.211519 0.14515252 0.57929462 4278190080
0.21266964 0.14524071 0.57921588 4278190080
0.21382026 0.14532891 0.57913709 4278190080
0.17666341 0.14037283 0.58245844 4278190080
0.17781059 0.14046074 0.58237988 4278190080
0.17895773 0.14054868 0.58230132 4278190080
0.18010491 0.14063661 0.58222282 4278190080
0.18125208 0.14072452 0.58214426 4278190080
0.18239923 0.14081246 0.58206576 4278190080
0.18354641 0.14090039 0.5819872 4278190080
0.18469356 0.14098831 0.5819087 4278190080
0.18584073 0.14107624 0.58183014 4278190080
0.19042937 0.14142793 0.58151603 4278190080
0.19157653 0.14151587 0.58143747 4278190080
0.19845952 0.14204343 0.58096629 4278190080
0.19960666 0.14213134 0.58088773 4278190080
0.17539331 0.13915519 0.58350515 4278190080
0.17653874 0.13924299 0.58342671 4278190080
0.17768417 0.13933079 0.58334827 4278190080
0.17904566 0.1404223 0.58344424 4278190080
0.18019284 0.14051023 0.58336568 4278190080
0.18133999 0.14059816 0.58328718 4278190080
0.18248716 0.14068608 0.58320862 4278190080
0.18363433 0.14077401 0.58313012 4278190080
0.18478149 0.14086194 0.58305156 4278190080
0.18592864 0.14094986 0.582973 4278190080
0.18707581 0.14103779 0.5828945 4278190080
0.18822297 0.14112571 0.58281595 4278190080
0.18937013 0.14121364 0.58273745 4278190080
0.19051729 0.14130157 0.58265889 4278190080
0.19142932 0.1403843 0.5824073 4278190080
0.19257474 0.1404721 0.58232892 4278190080
0.19372018 0.1405599 0.58225048 4278190080
0.1948656 0.14064768 0.5821721 4278190080
0.19601102 0.14073548 0.58209366 4278190080
0.19715647 0.14082327 0.58201528 4278190080
0.1983019 0.14091106 0.58193684 4278190080
0.19944732 0.14099886 0.5818584 4278190080
0.20059276 0.14108665 0.58178002 4278190080
0.2272265 0.14411521 0.58014584 4278190080
0.23151936 0.14345707 0.5796628 4278190080
0.23266476 0.14354487 0.57958442 4278190080
0.23525661 0.14473069 0.5795961 4278190080
0.23610106 0.14380825 0.57934916 4278190080
0.24640992 0.14459838 0.57864344 4278190080
0.24755536 0.14468618 0.578565 4278190080
0.17319024 0.13885343 0.5848031 4278190080
0.17433567 0.13894123 0.58472472 4278190080
0.1754811 0.13902901 0.58464628 4278190080
0.17662653 0.13911681 0.58456784 4278190080
0.17777197 0.13920461 0.58448946 4278190080
0.17891739 0.13929239 0.58441103 4278190080
0.18006282 0.13938019 0.58433264 4278190080
0.18120824 0.13946798 0.58425421 4278190080
0.18235368 0.13955578 0.58417583 4278190080
0.1834991 0.13964356 0.58409739 4278190080
0.18486941 0.14073557 0.58419442 4278190080
0.18578997 0.13981916 0.58394057 4278190080
0.1869354 0.13990694 0.58386213 4278190080
0.18808082 0.13999474 0.58378375 4278190080
0.18922625 0.14008254 0.58370531 4278190080
0.19037168 0.14017034 0.58362687 4278190080
0.1915171 0.14025812 0.58354849 4278190080
0.19242555 0.13934085 0.5832954 4278190080
0.19356924 0.13942851 0.58321714 4278190080
0.19471294 0.13951616 0.58313882 4278190080
0.19585663 0.13960382 0.58306056 4278190080
0.19700034 0.13969149 0.58298224 4278190080
0.19814403 0.13977915 0.58290392 4278190080
0.19928771 0.13986681 0.58282566 4278190080
0.20043141 0.13995446 0.58274734 4278190080
0.20157512 0.14004213 0.58266908 4278190080
0.20246622 0.13912353 0.58241719 4278190080
0.23046173 0.1432431 0.58088237 4278190080
0.23245494 0.14240897 0.58055508 4278190080
0.23389798 0.14350648 0.58064711 4278190080
0.23504344 0.14359428 0.58056873 4278190080
0.23618884 0.14368206 0.58049029 4278190080
0.23702973 0.14275961 0.58024186 4278190080
0.2381734 0.14284727 0.5801636 4278190080
0.2393171 0.14293493 0.58008528 4278190080
0.2404608 0.1430226 0.58000702 4278190080
0.24649772 0.14447221 0.57978457 4278190080
0.24764316 0.14455999 0.57970619 4278190080
0.24878857 0.14464779 0.57962775 4278190080
0.16829485 0.1363719 0.58590025 4278190080
0.16963926 0.13746165 0.5860008 4278190080
0.17078297 0.13754931 0.58592248 4278190080
0.17192666 0.13763696 0.58584416 4278190080
0.17307037 0.13772462 0.5857659 4278190080
0.17421405 0.13781229 0.58568758 4278190080
0.17535776 0.13789995 0.58560932 4278190080
0.17650145 0.13798761 0.585531 4278190080
0.17764516 0.13807526 0.58545274 4278190080
0.17878886 0.13816293 0.58537441 4278190080
0.18015061 0.139254 0.58547378 4278190080
0.18129604 0.1393418 0.5853954 4278190080
0.18244147 0.1394296 0.58531696 4278190080
0.1835869 0.13951738 0.58523852 4278190080
0.18473232 0.13960518 0.58516014 4278190080
0.18587776 0.13969298 0.5850817 4278190080
0.1890821 0.13895187 0.58466977 4278190080
0.19022581 0.13903953 0.58459145 4278190080
0.1913695 0.13912719 0.58451313 4278190080
0.19251321 0.13921486 0.58443487 4278190080
0.19341804 0.1382975 0.5841803 4278190080
0.19456001 0.13838503 0.58410215 4278190080
0.19570197 0.13847256 0.58402395 4278190080
0.19684394 0.13856009 0.58394581 4278190080
0.19798589 0.13864762 0.58386761 4278190080
0.19912785 0.13873515 0.58378941 4278190080
0.20026983 0.13882267 0.58371127 4278190080
0.2014118 0.1389102 0.58363307 4278190080
0.20255375 0.13899772 0.58355492 4278190080
0.20369573 0.13908525 0.58347672 4278190080
0.20483768 0.13917278 0.58339852 4278190080
0.20597966 0.13926031 0.58332038 4278190080
0.20712161 0.13934784 0.58324218 4278190080
0.22911149 0.14201999 0.58192939 4278190080
0.23025519 0.14210765 0.58185107 4278190080
0.2313989 0.14219531 0.5817728 4278190080
0.23254259 0.14228298 0.58169448 4278190080
0.23368627 0.14237064 0.58161622 4278190080
0.23482998 0.14245829 0.5815379 4278190080
0.23597369 0.14254595 0.58145958 4278190080
0.23711738 0.14263362 0.58138132 4278190080
0.24054846 0.14289659 0.58114642 4278190080
0.24169216 0.14298426 0.58106816 4278190080
0.24283583 0.14307192 0.58098984 4278190080
0.16724041 0.13615857 0.58711612 4278190080
0.16838238 0.1362461 0.58703792 4278190080
0.16952433 0.13633361 0.58695972 4278190080
0.17066631 0.13642114 0.58688158 4278190080
0.17180826 0.13650867 0.58680338 4278190080
0.17295022 0.1365962 0.58672523 4278190080
0.17409219 0.13668373 0.58664703 4278190080
0.17523414 0.13677126 0.58656889 4278190080
0.17637612 0.13685879 0.58649069 4278190080
0.1788765 0.13803694 0.58651382 4278190080
0.1800202 0.1381246 0.58643556 4278190080
0.18116391 0.13821226 0.58635724 4278190080
0.1823076 0.13829991 0.58627898 4278190080
0.18345129 0.13838758 0.58620065 4278190080
0.1957895 0.13834676 0.58516169 4278190080
0.19693145 0.13843429 0.58508348 4278190080
0.19807342 0.13852182 0.58500534 4278190080
0.19921538 0.13860933 0.58492714 4278190080
0.20035736 0.13869686 0.58484894 4278190080
0.20149933 0.13878439 0.5847708 4278190080
0.20264128 0.13887192 0.5846926 4278190080
0.20378326 0.13895945 0.58461446 4278190080
0.20492521 0.13904698 0.58453625 4278190080
0.20606717 0.13913451 0.58445805 4278190080
0.20720914 0.13922204 0.58437991 4278190080
0.20835111 0.13930957 0.58430171 4278190080
0.20949307 0.13939708 0.58422357 4278190080
0.21063502 0.13948461 0.58414537 4278190080
0.21177699 0.13957214 0.58406717 4278190080
0.21291895 0.13965967 0.58398902 4278190080
0.21406092 0.1397472 0.58391082 4278190080
0.23347428 0.14123517 0.58258182 4278190080
0.23461625 0.1413227 0.58250362 4278190080
0.23575823 0.14141023 0.58242548 4278190080
0.2369002 0.14149776 0.58234727 4278190080
0.23804215 0.14158529 0.58226913 4278190080
0.2391841 0.14167282 0.58219093 4278190080
0.24032609 0.14176035 0.58211273 4278190080
0.19539183 0.13621111 0.58594042 4278190080
0.19653033 0.13629837 0.58586252 4278190080
0.19766882 0.13638563 0.58578455 4278190080
0.19880733 0.1364729 0.58570665 4278190080
0.19994582 0.13656016 0.58562869 4278190080
0.20158686 0.1386586 0.58590847 4278190080
0.20272881 0.13874613 0.58583033 4278190080
0.20387079 0.13883366 0.58575213 4278190080
0.20449983 0.1369092 0.5853169 4278190080
0.2056383 0.13699646 0.58523899 4278190080
0.21360779 0.13760731 0.58469343 4278190080
0.2147463 0.13769457 0.58461547 4278190080
0.2158848 0.13778183 0.58453751 4278190080
0.21702328 0.13786909 0.5844596 4278190080
0.21816178 0.13795635 0.58438164 4278190080
0.21930027 0.13804361 0.58430368 4278190080
0.22271578 0.1383054 0.58406991 4278190080
0.23751625 0.13943981 0.58305669 4278190080
0.19409959 0.13499385 0.58697134 4278190080
0.19523637 0.13508098 0.5868935 4278190080
0.19637315 0.13516812 0.58681571 4278190080
0.19775608 0.13626021 0.58691883 4278190080
0.19889459 0.13634747 0.58684087 4278190080
0.20003308 0.13643473 0.58676291 4278190080
0.20117158 0.136522 0.586685 4278190080
0.20231009 0.13660926 0.58660704 4278190080
0.20344858 0.13669652 0.58652914 4278190080
0.20458709 0.13678379 0.58645117 4278190080
0.20572557 0.13687105 0.58637321 4278190080
0.20686407 0.13695832 0.58629531 4278190080
0.20800258 0.13704558 0.58621734 4278190080
0.21456137 0.13656218 0.58557057 4278190080
0.21569814 0.13664931 0.58549273 4278190080
0.2168349 0.13673644 0.58541489 4278190080
0.21797167 0.13682356 0.5853371 4278190080
0.21938755 0.13791819 0.58543795 4278190080
0.22024518 0.13699782 0.58518142 4278190080
0.22138196 0.13708496 0.58510363 4278190080
0.23418801 0.1390526 0.58442473 4278190080
0.23532653 0.13913986 0.58434677 4278190080
0.23874201 0.13940164 0.584113 4278190080
0.2398805 0.13948891 0.58403504 4278190080
0.241019 0.13957617 0.58395708 4278190080
0.16556981 0.13168934 0.58986342 4278190080
0.16670483 0.13177633 0.5897857 4278190080
0.16783987 0.13186333 0.58970797 4278190080
0.16897491 0.13195032 0.58963031 4278190080
0.18713541 0.13334227 0.58838707 4278190080
0.18827045 0.13342926 0.58830935 4278190080
0.18940549 0.13351625 0.58823162 4278190080
0.19987056 0.13530427 0.58771473 4278190080
0.20100734 0.1353914 0.58763695 4278190080
0.20239735 0.13648385 0.58774132 4278190080
0.20353584 0.13657111 0.58766335 4278190080
0.20441762 0.1356528 0.58740348 4278190080
0.20555438 0.13573992 0.58732563 4278190080
0.20669116 0.13582705 0.58724785 4278190080
0.20782791 0.13591418 0.58717 4278190080
0.21664625 0.13560417 0.58636677 4278190080
0.21778129 0.13569117 0.58628905 4278190080
0.21919557 0.13678548 0.58639181 4278190080
0.22005135 0.13586517 0.58613366 4278190080
0.22118637 0.13595216 0.58605593 4278190080
0.22232141 0.13603915 0.58597827 4278190080
0.22345644 0.13612615 0.58590055 4278190080
0.23511027 0.13800529 0.58530229 4278190080
0.23624703 0.13809241 0.58522445 4278190080
0.23738381 0.13817954 0.58514667 4278190080
0.16772546 0.13073716 0.59065127 4278190080
0.16885877 0.13082401 0.59057373 4278190080
0.16999206 0.13091089 0.59049612 4278190080
0.18495235 0.13304324 0.58967322 4278190080
0.19039145 0.13247442 0.58909965 4278190080
0.20538293 0.13460918 0.5882746 4278190080
0.20651795 0.13469617 0.58819687 4278190080
0.20765299 0.13478316 0.58811921 4278190080
0.20878802 0.13487016 0.58804148 4278190080
0.21532404 0.13438542 0.58739275 4278190080
0.21645734 0.1344723 0.5873152 4278190080
0.21759064 0.13455915 0.5872376 4278190080
0.21900332 0.13565314 0.58734214 4278190080
0.21985723 0.13473289 0.58708245 4278190080
0.22581352 0.13617511 0.58687592 4278190080
0.22694854 0.1362621 0.58679825 4278190080
0.22808358 0.13634911 0.58672053 4278190080
0.2292186 0.1364361 0.58664286 4278190080
0.16327913 0.13026485 0.59209073 4278190080
0.16441242 0.13035172 0.59201312 4278190080
0.16554575 0.13043858 0.59193552 4278190080
0.16667904 0.13052544 0.59185797 4278190080
0.16781233 0.13061231 0.59178036 4278190080
0.17007893 0.13078603 0.59162521 4278190080
0.17121223 0.13087291 0.59154761 4278190080
0.17234552 0.13095976 0.59147006 4278190080
0.17347883 0.13104662 0.59139246 4278190080
0.17461212 0.1311335 0.59131485 4278190080
0.18367852 0.1318284 0.59069419 4278190080
0.18481182 0.13191526 0.59061658 4278190080
0.18594512 0.13200213 0.59053904 4278190080
0.18707842 0.13208899 0.59046143 4278190080
0.20747781 0.13365254 0.58906496 4278190080
0.2086111 0.1337394 0.58898735 4278190080
0.20974441 0.13382627 0.58890975 4278190080
0.2108777 0.13391313 0.5888322 4278190080
0.21201101 0.13399999 0.58875459 4278190080
0.21314429 0.13408685 0.58867699 4278190080
0.21427761 0.13417372 0.58859944 4278190080
0.2154109 0.13426058 0.58852184 4278190080
0.2165442 0.13434745 0.58844423 4278190080
0.2176775 0.13443431 0.58836669 4278190080
0.21881078 0.13452117 0.58828908 4278190080
0.2199441 0.13460803 0.58821148 4278190080
0.22107741 0.1346949 0.58813393 4278190080
0.22221071 0.13478176 0.58805633 4278190080
0.223344 0.13486862 0.58797872 4278190080
0.22447729 0.1349555 0.58790118 4278190080
0.2278772 0.13521609 0.58766842 4278190080
0.22901048 0.13530295 0.58759081 4278190080
0.2301438 0.1353898 0.58751327 4278190080
0.23127708 0.13547668 0.58743566 4278190080
0.2324104 0.13556354 0.58735806 4278190080
0.23354369 0.1356504 0.58728051 4278190080
0.23467697 0.13573727 0.58720291 4278190080
0.23581029 0.13582413 0.5871253 4278190080
0.23694357 0.13591099 0.58704776 4278190080
0.23952091 0.13709404 0.58707428 4278190080
0.16789919 0.13048746 0.59290946 4278190080
0.16903248 0.13057433 0.59283185 4278190080
0.17016579 0.13066119 0.5927543 4278190080
0.17129909 0.13074805 0.5926767 4278190080
0.17243239 0.13083492 0.59259909 4278190080
0.17356569 0.13092178 0.59252155 4278190080
0.17427485 0.12900548 0.59206349 4278190080
0.19687153 0.13073744 0.59051651 4278190080
0.19800135 0.13082404 0.5904392 4278190080
0.19913119 0.13091063 0.59036183 4278190080
0.20026103 0.13099724 0.59028453 4278190080
0.20139086 0.13108383 0.59020716 4278190080
0.20365052 0.13125703 0.59005249 4278190080
0.20478034 0.13134363 0.58997512 4278190080
0.21720853 0.1322962 0.58912432 4278190080
0.21946819 0.1324694 0.58896959 4278190080
0.22172786 0.1326426 0.58881491 4278190080
0.22285768 0.1327292 0.58873755 4278190080
0.22398753 0.13281579 0.58866024 4278190080
0.23023066 0.13526496 0.5886423 4278190080
0.23136394 0.13535182 0.58856475 4278190080
0.23249726 0.1354387 0.58848715 4278190080
0.23363055 0.13552555 0.58840954 4278190080
0.23476385 0.13561241 0.588332 4278190080
0.23589715 0.13569929 0.58825439 4278190080
0.23703045 0.13578615 0.58817679 4278190080
0.23816375 0.135873 0.58809924 4278190080
0.23929705 0.13595988 0.58802164 4278190080
0.24043036 0.13604674 0.58794403 4278190080
0.24156363 0.1361336 0.58786649 4278190080
0.24269696 0.13622047 0.58778888 4278190080
0.24383023 0.13630733 0.58771127 4278190080
0.24496354 0.13639419 0.58763373 4278190080
0.24609685 0.13648106 0.58755612 4278190080
0.24723014 0.13656792 0.58747858 4278190080
0.24836345 0.13665478 0.58740097 4278190080
0.24949673 0.13674165 0.58732337 4278190080
0.25063005 0.13682851 0.58724582 4278190080
0.16193327 0.12792844 0.59403992 4278190080
0.16306311 0.12801504 0.59396255 4278190080
0.16419294 0.12810163 0.59388524 4278190080
0.1664526 0.12827483 0.59373051 4278190080
0.16758245 0.12836143 0.5936532 4278190080
0.16871229 0.12844802 0.59357584 4278190080
0.16984211 0.12853463 0.59349847 4278190080
0.17097194 0.12862122 0.59342116 4278190080
0.17210178 0.12870783 0.59334379 4278190080
0.17323162 0.12879442 0.59326643 4278190080
0.18227029 0.1294872 0.59264767 4278190080
0.18340011 0.12957381 0.5925703 4278190080
0.19671126 0.12960896 0.5914526 4278190080
0.19783936 0.12969543 0.59137535 4278190080
0.19896747 0.12978189 0.5912981 4278190080
0.20009556 0.12986836 0.59122092 4278190080
0.20122366 0.12995483 0.59114367 4278190080
0.20235178 0.13004129 0.59106642 4278190080
0.20347987 0.13012776 0.59098923 4278190080
0.20460796 0.13021421 0.59091198 4278190080
0.20573607 0.13030069 0.59083474 4278190080
0.21616529 0.13208514 0.59032726 4278190080
0.21729513 0.13217175 0.5902499 4278190080
0.21842495 0.13225834 0.59017259 4278190080
0.21955478 0.13234495 0.59009522 4278190080
0.22068462 0.13243154 0.59001786 4278190080
0.22152948 0.1315112 0.58975357 4278190080
0.22265758 0.13159767 0.58967632 4278190080
0.22378567 0.13168412 0.58959907 4278190080
0.22520396 0.13277793 0.58970851 4278190080
0.22604187 0.13185705 0.58944464 4278190080
0.22972327 0.13312432 0.5893991 4278190080
0.23085314 0.13321093 0.58932173 4278190080
0.2331128 0.13338412 0.58916706 4278190080
0.23424262 0.13347071 0.58908969 4278190080
0.23537245 0.13355732 0.58901238 4278190080
0.23650229 0.13364391 0.58893502 4278190080
0.23989178 0.13390371 0.58870298 4278190080
0.24102163 0.1339903 0.58862561 4278190080
0.24554096 0.1343367 0.58831626 4278190080
0.25683931 0.13520268 0.58754277 4278190080
0.25909895 0.13537587 0.5873881 4278190080
0.26022881 0.13546246 0.58731073 4278190080
0.16408281 0.12697721 0.59481609 4278190080
0.1652109 0.12706366 0.59473884 4278190080
0.16633901 0.12715013 0.59466165 4278190080
0.16972332 0.12740953 0.59442997 4278190080
0.17085141 0.12749599 0.59435272 4278190080
0.17197953 0.12758246 0.59427547 4278190080
0.17310761 0.12766892 0.59419829 4278190080
0.1742357 0.12775539 0.59412104 4278190080
0.17536382 0.12784185 0.59404379 4278190080
0.17649192 0.12792832 0.5939666 4278190080
0.18100433 0.12827417 0.59365767 4278190080
0.18213241 0.12836064 0.59358042 4278190080
0.18326052 0.12844712 0.59350324 4278190080
0.18438862 0.12853357 0.59342599 4278190080
0.18551672 0.12862004 0.59334874 4278190080
0.18664482 0.1287065 0.59327155 4278190080
0.18777293 0.12879297 0.59319431 4278190080
0.19454153 0.12931176 0.59273094 4278190080
0.19566964 0.12939823 0.59265369 4278190080
0.19679773 0.12948468 0.59257644 4278190080
0.19792584 0.12957115 0.59249926 4278190080
0.19905393 0.12965763 0.59242201 4278190080
0.20018204 0.12974408 0.59234476 4278190080
0.20131013 0.12983055 0.59226757 4278190080
0.20243824 0.12991701 0.59219033 4278190080
0.20356633 0.13000348 0.59211308 4278190080
0.20469444 0.13008995 0.59203589 4278190080
0.20582254 0.13017641 0.59195864 4278190080
0.20695063 0.13026288 0.59188139 4278190080
0.21597543 0.13095459 0.59126359 4278190080
0.21710356 0.13104106 0.59118634 4278190080
0.21823163 0.13112754 0.59110916 4278190080
0.22500025 0.13164632 0.59064579 4278190080
0.22583631 0.1307255 0.59038031 4278190080
0.22696267 0.13081184 0.59030318 4278190080
0.22838454 0.13190572 0.59041411 4278190080
0.22951265 0.13199218 0.59033686 4278190080
0.25207469 0.13372149 0.58879226 4278190080
0.25320277 0.13380796 0.58871508 4278190080
0.25658706 0.13406734 0.58848339 4278190080
0.25997135 0.13432674 0.58825171 4278190080
0.26109946 0.13441321 0.58817446 4278190080
0.26222754 0.13449967 0.58809721 4278190080
0.16171968 0.12568048 0.59589773 4278190080
0.16284604 0.12576681 0.59582061 4278190080
0.16397241 0.12585314 0.59574354 4278190080
0.16529737 0.12693939 0.59586275 4278190080
0.16622515 0.12602581 0.59558928 4278190080
0.16735151 0.12611213 0.59551221 4278190080
0.16847788 0.12619847 0.59543508 4278190080
0.16980979 0.12728526 0.59555382 4278190080
0.17093788 0.12737171 0.59547663 4278190080
0.17185698 0.12645747 0.59520376 4278190080
0.17298335 0.12654381 0.59512663 4278190080
0.17410973 0.12663014 0.5950495 4278190080
0.18424703 0.12740713 0.59435552 4278190080
0.18537341 0.12749346 0.59427845 4278190080
0.18649977 0.12757979 0.59420133 4278190080
0.19551072 0.12827045 0.59358442 4278190080
0.19663708 0.12835678 0.59350735 4278190080
0.19776346 0.12844312 0.59343022 4278190080
0.19888981 0.12852944 0.59335309 4278190080
0.20001617 0.12861578 0.59327602 4278190080
0.20114255 0.12870212 0.5931989 4278190080
0.20226891 0.12878844 0.59312177 4278190080
0.20339529 0.12887478 0.5930447 4278190080
0.20452164 0.12896112 0.59296757 4278190080
0.20564802 0.12904744 0.59289044 4278190080
0.20677438 0.12913378 0.59281337 4278190080
0.20790076 0.12922011 0.59273624 4278190080
0.20902713 0.12930644 0.59265912 4278190080
0.21916442 0.13008343 0.59196514 4278190080
0.22479627 0.1305151 0.59157962 4278190080
0.22592264 0.13060142 0.59150249 4278190080
0.22704901 0.13068776 0.59142536 4278190080
0.22817537 0.1307741 0.59134829 4278190080
0.22930174 0.13086042 0.59127116 4278190080
0.2304281 0.13094676 0.59119403 4278190080
0.25182909 0.13258708 0.58972895 4278190080
0.25295547 0.1326734 0.58965182 4278190080
0.25408185 0.13275973 0.58957475 4278190080
0.25520819 0.13284607 0.58949763 4278190080
0.25633457 0.13293239 0.5894205 4278190080
0.25746095 0.13301873 0.58934343 4278190080
0.25858733 0.13310507 0.5892663 4278190080
0.26196644 0.13336407 0.58903497 4278190080
0.16161247 0.12455707 0.59682143 4278190080
0.16273712 0.12464327 0.59674448 4278190080
0.16386175 0.12472947 0.59666747 4278190080
0.16498639 0.12481567 0.59659046 4278190080
0.16611101 0.12490187 0.59651351 4278190080
0.16743784 0.12598807 0.59663433 4278190080
0.16856422 0.12607439 0.59655726 4278190080
0.16948491 0.12516047 0.59628254 4278190080
0.17060955 0.12524667 0.59620553 4278190080
0.1717342 0.12533286 0.59612852 4278190080
0.17285882 0.12541907 0.59605151 4278190080
0.17398345 0.12550527 0.59597456 4278190080
0.17510809 0.12559147 0.59589756 4278190080
0.17623274 0.12567766 0.59582055 4278190080
0.17735736 0.12576386 0.5957436 4278190080
0.17960663 0.12593627 0.59558958 4278190080
0.18073128 0.12602246 0.59551263 4278190080
0.1818559 0.12610866 0.59543562 4278190080
0.18298054 0.12619486 0.59535861 4278190080
0.18410517 0.12628107 0.59528166 4278190080
0.18522982 0.12636727 0.59520465 4278190080
0.18635444 0.12645346 0.59512764 4278190080
0.18747908 0.12653966 0.59505063 4278190080
0.18860371 0.12662587 0.59497368 4278190080
0.19197762 0.12688446 0.59474272 4278190080
0.19310226 0.12697066 0.59466571 4278190080
0.19422689 0.12705685 0.5945887 4278190080
0.19535151 0.12714306 0.59451175 4278190080
0.19647616 0.12722926 0.59443474 4278190080
0.1976008 0.12731546 0.59435773 4278190080
0.19872543 0.12740166 0.59428078 4278190080
0.19985005 0.12748785 0.59420377 4278190080
0.2009747 0.12757406 0.59412676 4278190080
0.20209934 0.12766026 0.59404975 4278190080
0.20322397 0.12774646 0.5939728 4278190080
0.20434859 0.12783265 0.59389579 4278190080
0.20547324 0.12791885 0.59381878 4278190080
0.20659786 0.12800506 0.59374183 4278190080
0.20772251 0.12809126 0.59366482 4278190080
0.21334568 0.12852225 0.59327984 4278190080
0.21447033 0.12860845 0.59320289 4278190080
0.22121812 0.12912565 0.59274095 4278190080
0.22234276 0.12921184 0.59266394 4278190080
0.22346741 0.12929805 0.59258693 4278190080
0.22488259 0.13039102 0.59270173 4278190080
0.22571667 0.12947045 0.59243298 4278190080
0.22684129 0.12955664 0.59235597 4278190080
0.22796594 0.12964284 0.59227896 4278190080
0.22909057 0.12972905 0.59220201 4278190080
0.23246449 0.12998764 0.59197104 4278190080
0.2459601 0.13102204 0.59104711 4278190080
0.25495717 0.13171163 0.59043121 4278190080
0.25608182 0.13179784 0.5903542 4278190080
0.25720647 0.13188404 0.59027719 4278190080
0.26092634 0.13315365 0.59023422 4278190080
0.26205274 0.13323998 0.59015715 4278190080
0.16619721 0.12477798 0.59763396 4278190080
0.16732185 0.12486418 0.59755695 4278190080
0.16844648 0.12495038 0.59747994 4278190080
0.1695711 0.12503658 0.59740293 4278190080
0.17069575 0.12512277 0.59732598 4278190080
0.1803712 0.12389573 0.59623677 4278190080
0.18149237 0.12398166 0.59615999 4278190080
0.18261354 0.12406759 0.59608322 4278190080
0.18373471 0.12415352 0.59600651 4278190080
0.18934056 0.1245832 0.59562272 4278190080
0.19046174 0.12466913 0.59554595 4278190080
0.1915829 0.12475506 0.59546924 4278190080
0.19270407 0.124841 0.59539247 4278190080
0.19382523 0.12492693 0.59531569 4278190080
0.19494641 0.12501287 0.59523892 4278190080
0.19606759 0.12509879 0.59516221 4278190080
0.19718874 0.12518473 0.59508544 4278190080
0.19830991 0.12527066 0.59500867 4278190080
0.2078087 0.12796736 0.59478527 4278190080
0.20893334 0.12805356 0.59470826 4278190080
0.21005797 0.12813976 0.59463125 4278190080
0.22580285 0.12934655 0.59355342 4278190080
0.22692749 0.12943275 0.59347641 4278190080
0.22805212 0.12951896 0.59339941 4278190080
0.24829558 0.13107055 0.5920136 4278190080
0.24942021 0.13115674 0.59193659 4278190080
0.25166947 0.13132915 0.59178263 4278190080
0.25279409 0.13141535 0.59170562 4278190080
0.25391871 0.13150154 0.59162861 4278190080
0.25504339 0.13158774 0.59155166 4278190080
0.25616801 0.13167395 0.59147465 4278190080
0.16251844 0.12239727 0.59858179 4278190080
0.16363961 0.12248321 0.59850502 4278190080
0.16812427 0.12282694 0.598198 4278190080
0.16924544 0.12291288 0.59812129 4278190080
0.17036662 0.12299881 0.59804451 4278190080
0.17148778 0.12308475 0.59796774 4278190080
0.17260894 0.12317068 0.59789103 4278190080
0.18157831 0.12385815 0.59727699 4278190080
0.18269947 0.12394408 0.59720021 4278190080
0.18382064 0.12403002 0.59712344 4278190080
0.18494181 0.12411595 0.59704673 4278190080
0.18606298 0.12420189 0.59696996 4278190080
0.18718415 0.12428782 0.59689319 4278190080
0.18830532 0.12437376 0.59681648 4278190080
0.1894265 0.12445969 0.59673971 4278190080
0.19054767 0.12454563 0.59666294 4278190080
0.19166884 0.12463155 0.59658617 4278190080
0.19279 0.12471749 0.59650946 4278190080
0.19391116 0.12480342 0.59643269 4278190080
0.19503234 0.12488936 0.59635592 4278190080
0.19615351 0.12497529 0.5962792 4278190080
0.19727467 0.12506123 0.59620243 4278190080
0.19814487 0.12414383 0.59592772 4278190080
0.1992643 0.12422963 0.59585106 4278190080
0.20400169 0.12557682 0.59574193 4278190080
0.20512286 0.12566276 0.59566516 4278190080
0.20624404 0.12574869 0.59558839 4278190080
0.2073652 0.12583463 0.59551162 4278190080
0.20848636 0.12592056 0.5954349 4278190080
0.22754623 0.12738144 0.5941301 4278190080
0.22866739 0.12746738 0.59405333 4278190080
0.22978857 0.12755331 0.59397656 4278190080
0.23090975 0.12763925 0.59389979 4278190080
0.24436377 0.12867045 0.59297878 4278190080
0.25109079 0.12918605 0.59251827 4278190080
0.25221196 0.12927198 0.5924415 4278190080
0.25333315 0.12935792 0.59236473 4278190080
0.25445431 0.12944385 0.59228796 4278190080
0.25557545 0.12952979 0.59221125 4278190080
0.15233377 0.12050267 0.60018498 4278190080
0.15345322 0.12058847 0.60010839 4278190080
0.15457264 0.12067427 0.60003173 4278190080
0.15569209 0.12076008 0.59995508 4278190080
0.16128926 0.12118908 0.59957188 4278190080
0.16240871 0.12127488 0.59949529 4278190080
0.16352814 0.12136068 0.59941864 4278190080
0.16464758 0.12144648 0.59934199 4278190080
0.16576701 0.12153228 0.5992654 4278190080
0.16688645 0.12161808 0.59918875 4278190080
0.1680059 0.12170389 0.59911209 4278190080
0.17248364 0.12204709 0.59880555 4278190080
0.17360306 0.12213289 0.59872895 4278190080
0.17472251 0.12221869 0.5986523 4278190080
0.17808081 0.12247609 0.59842241 4278190080
0.18255855 0.1228193 0.59811586 4278190080
0.18367799 0.1229051 0.59803921 4278190080
0.18591687 0.1230767 0.59788597 4278190080
0.18703629 0.1231625 0.59780931 4278190080
0.18815574 0.1232483 0.59773266 4278190080
0.18927516 0.1233341 0.59765601 4278190080
0.19039461 0.12341991 0.59757942 4278190080
0.19151405 0.1235057 0.59750277 4278190080
0.19263348 0.12359151 0.59742612 4278190080
0.1937529 0.12367731 0.59734946 4278190080
0.19487236 0.12376311 0.59727287 4278190080
0.1959918 0.12384892 0.59719622 4278190080
0.19711122 0.12393472 0.59711957 4278190080
0.20046954 0.12419212 0.59688967 4278190080
0.20158897 0.12427792 0.59681302 4278190080
0.20718615 0.12470692 0.59642988 4278190080
0.2085723 0.12579706 0.5965519 4278190080
0.20969348 0.125883 0.59647512 4278190080
0.21054445 0.12496433 0.59619999 4278190080
0.2116639 0.12505013 0.59612334 4278190080
0.23069431 0.12650874 0.59482056 4278190080
0.23181376 0.12659454 0.59474391 4278190080
0.24412754 0.12753835 0.59390092 4278190080
0.25005555 0.12897661 0.59371197 4278190080
0.25196362 0.12813897 0.59336448 4278190080
0.25308305 0.12822478 0.59328783 4278190080
0.25420246 0.12831058 0.59321117 4278190080
0.27807832 0.1281728 0.59114289 4278190080
0.16341642 0.12023854 0.6003288 4278190080
0.16453411 0.1203242 0.60025227 4278190080
0.16565183 0.12040987 0.6001758 4278190080
0.16676952 0.12049554 0.60009927 4278190080
0.16788721 0.1205812 0.60002273 4278190080
0.16921112 0.12166636 0.6001507 4278190080
0.17033055 0.12175217 0.60007411 4278190080
0.17145 0.12183797 0.59999746 4278190080
0.17256944 0.12192377 0.59992081 4278190080
0.17571115 0.12118088 0.59948713 4278190080
0.17682886 0.12126655 0.59941059 4278190080
0.17794655 0.12135222 0.59933412 4278190080
0.17906426 0.12143789 0.59925759 4278190080
0.18018195 0.12152356 0.59918106 4278190080
0.18129966 0.12160923 0.59910452 4278190080
0.18241736 0.12169489 0.59902805 4278190080
0.18353507 0.12178056 0.59895152 4278190080
0.18465278 0.12186623 0.59887499 4278190080
0.18577048 0.1219519 0.59879845 4278190080
0.18688817 0.12203757 0.59872198 4278190080
0.18800588 0.12212323 0.59864545 4278190080
0.18912359 0.1222089 0.59856892 4278190080
0.19048041 0.12329659 0.59869468 4278190080
0.19159985 0.12338239 0.59861803 4278190080
0.19271928 0.12346819 0.59854138 4278190080
0.19359441 0.12255158 0.59826285 4278190080
0.1947121 0.12263724 0.59818637 4278190080
0.19582982 0.12272292 0.59810984 4278190080
0.19694752 0.12280858 0.59803331 4278190080
0.19781397 0.1218913 0.59775537 4278190080
0.20030062 0.12306558 0.59780377 4278190080
0.20141833 0.12315126 0.59772724 4278190080
0.20477143 0.12340826 0.5974977 4278190080
0.20588914 0.12349392 0.59742117 4278190080
0.20700684 0.1235796 0.59734464 4278190080
0.20812453 0.12366527 0.59726816 4278190080
0.20951083 0.12475521 0.59739184 4278190080
0.22489008 0.12495029 0.59612042 4278190080
0.2260078 0.12503596 0.59604388 4278190080
0.22712551 0.12512162 0.59596735 4278190080
0.2486911 0.12775825 0.59470963 4278190080
0.25171497 0.12700632 0.594284 4278190080
0.25283268 0.12709199 0.59420747 4278190080
0.2561858 0.127349 0.59397793 4278190080
0.27927983 0.1281354 0.59217834 4278190080
0.15549262 0.11851802 0.60177028 4278190080
0.16126667 0.11994407 0.60159534 4278190080
0.16238436 0.12002974 0.60151887 4278190080
0.16350208 0.12011541 0.60144234 4278190080
0.16685519 0.12037241 0.6012128 4278190080
0.16797288 0.12045808 0.60113627 4278190080
0.1690906 0.12054375 0.60105973 4278190080
0.17020829 0.12062941 0.60098326 4278190080
0.17132601 0.12071508 0.60090673 4278190080
0.17446412 0.11997212 0.60047156 4278190080
0.17558008 0.12005766 0.60039514 4278190080
0.17669606 0.12014319 0.60031873 4278190080
0.18227592 0.12057087 0.59993672 4278190080
0.18339187 0.12065641 0.59986037 4278190080
0.18450786 0.12074194 0.59978396 4278190080
0.18585615 0.12182877 0.59991199 4278190080
0.18697384 0.12191444 0.59983552 4278190080
0.18809155 0.12200011 0.59975898 4278190080
0.18920925 0.12208578 0.59968245 4278190080
0.19032696 0.12217145 0.59960592 4278190080
0.19144467 0.12225711 0.59952945 4278190080
0.19256237 0.12234278 0.59945291 4278190080
0.19343561 0.12142622 0.59917277 4278190080
0.19455159 0.12151176 0.59909636 4278190080
0.19566758 0.1215973 0.59901994 4278190080
0.19678353 0.12168283 0.59894359 4278190080
0.20099081 0.12102176 0.59843516 4278190080
0.20210506 0.12110716 0.59835887 4278190080
0.20459533 0.12228158 0.59840876 4278190080
0.20571131 0.12236711 0.59833241 4278190080
0.20682725 0.12245265 0.59825599 4278190080
0.2082102 0.12354214 0.5983817 4278190080
0.20905921 0.12262372 0.59810317 4278190080
0.21017517 0.12270926 0.59802681 4278190080
0.21129115 0.12279479 0.5979504 4278190080
0.22721118 0.1249985 0.59708089 4278190080
0.23584251 0.12467658 0.59626967 4278190080
0.23695847 0.12476211 0.59619325 4278190080
0.24844754 0.12662619 0.59562707 4278190080
0.24956523 0.12671186 0.59555054 4278190080
0.25068295 0.12679753 0.59547406 4278190080
0.25258204 0.1259596 0.59512365 4278190080
0.25369805 0.12604514 0.5950473 4278190080
0.27080163 0.12833956 0.59409672 4278190080
0.27191928 0.12842523 0.59402025 4278190080
0.27303702 0.12851089 0.59394372 4278190080
0.27936536 0.12801246 0.59329015 4278190080
0.28048134 0.128098 0.59321374 4278190080
0.28121597 0.12717076 0.59294307 4278190080
0.15111427 0.11805294 0.60318768 4278190080
0.15223025 0.11813848 0.60311127 4278190080
0.15334621 0.11822401 0.60303491 4278190080
0.15446219 0.11830955 0.6029585 4278190080
0.15557815 0.11839508 0.60288209 4278190080
0.15762095 0.11756831 0.60252011 4278190080
0.15873519 0.11765371 0.60244387 4278190080
0.15984944 0.11773912 0.60236758 4278190080
0.16115801 0.11882276 0.60250008 4278190080
0.16227397 0.11890829 0.60242373 4278190080
0.16338995 0.11899383 0.60234731 4278190080
0.16450591 0.11907937 0.6022709 4278190080
0.16562189 0.11916491 0.60219449 4278190080
0.16673785 0.11925044 0.60211813 4278190080
0.17008577 0.11950704 0.6018889 4278190080
0.17120174 0.11959258 0.60181254 4278190080
0.17231771 0.11967812 0.60173613 4278190080
0.17343368 0.11976365 0.60165972 4278190080
0.17454965 0.11984919 0.6015833 4278190080
0.17901354 0.12019133 0.60127771 4278190080
0.18012951 0.12027687 0.60120136 4278190080
0.18124548 0.1203624 0.60112494 4278190080
0.18236145 0.12044793 0.60104853 4278190080
0.18347742 0.12053347 0.60097218 4278190080
0.18459339 0.12061901 0.60089576 4278190080
0.18570936 0.12070454 0.60081935 4278190080
0.18682534 0.12079008 0.60074294 4278190080
0.18794131 0.12087561 0.60066658 4278190080
0.19017325 0.12104668 0.60051376 4278190080
0.1912892 0.12113222 0.60043734 4278190080
0.19240518 0.12121776 0.60036099 4278190080
0.19327657 0.12030119 0.60007918 4278190080
0.1943908 0.1203866 0.60000294 4278190080
0.19550504 0.120472 0.59992665 4278190080
0.19661926 0.12055741 0.59985036 4278190080
0.19773351 0.12064281 0.59977406 4278190080
0.19884774 0.12072821 0.59969783 4278190080
0.19996199 0.12081362 0.59962153 4278190080
0.20107622 0.12089901 0.59954524 4278190080
