# .PCD v0.7 - Point Cloud Data file format
VERSION 0.7
FIELDS x y z rgba
SIZE 4 4 4 4
TYPE F F F U
COUNT 1 1 1 1
WIDTH 1021
HEIGHT 1
VIEWPOINT 0 0 0 1 0 0 0
POINTS 1021
DATA ascii
-0.038740341 0.007994039 0.70600003 4289428318
-0.037510488 0.007994039 0.70600003 4289165402
-0.032175615 0.0078921318 0.69700003 4291659583
-0.030917021 0.0078808088 0.69600004 4293106498
-0.029661911 0.0078694858 0.69500005 4294553944
-0.028369343 0.0078468397 0.69300002 4294617924
-0.027162138 0.0078468397 0.69300002 4294552131
-0.026029838 0.0078694858 0.69500005 4294420813
-0.024819149 0.0078694858 0.69500005 4294420813
-0.023608457 0.0078694858 0.69500005 4294486354
-0.022397768 0.0078694858 0.69500005 4294749269
-0.021187078 0.0078694858 0.69500005 4294420809
-0.019976387 0.0078694858 0.69500005 4294881360
-0.018765697 0.0078694858 0.69500005 4294750794
-0.017555006 0.0078694858 0.69500005 4294685001
-0.016297283 0.0078468397 0.69300002 4294159692
-0.015090076 0.0078468397 0.69300002 4294291021
-0.01388287 0.0078468397 0.69300002 4294488653
-0.012675664 0.0078468397 0.69300002 4294951774
-0.011468458 0.0078468397 0.69300002 4294489959
-0.010261252 0.0078468397 0.69300002 4292647755
-0.0090801762 0.0078694858 0.69500005 4292711242
-0.0030702753 0.007982716 0.70500004 4292576571
-0.0018447782 0.007994039 0.70600003 4292248152
-0.00061579706 0.0080053611 0.70700002 4292379738
0.0006175391 0.008028008 0.70900005 4291593036
0.00310076 0.0080619771 0.71200001 4293048495
-0.032129452 0.0090932408 0.69600004 4291397188
-0.0308726 0.0090801762 0.69500005 4293040443
-0.029576549 0.0090540461 0.69300002 4294948440
-0.028369343 0.0090540461 0.69300002 4294749523
-0.027162138 0.0090540461 0.69300002 4294420559
-0.026029838 0.0090801762 0.69500005 4294551375
-0.024747726 0.0090540461 0.69300002 4294485582
-0.023540519 0.0090540461 0.69300002 4294355799
-0.022333313 0.0090540461 0.69300002 4294947936
-0.021126106 0.0090540461 0.69300002 4294488153
-0.019918902 0.0090540461 0.69300002 4294619739
-0.018711694 0.0090540461 0.69300002 4294947920
-0.017504489 0.0090540461 0.69300002 4294949976
-0.016297283 0.0090540461 0.69300002 4294948707
-0.015090076 0.0090540461 0.69300002 4294882656
-0.01388287 0.0090540461 0.69300002 4294948696
-0.012675664 0.0090540461 0.69300002 4294952294
-0.011468458 0.0090540461 0.69300002 4294753387
-0.010261252 0.0090540461 0.69300002 4292779597
-0.0090932408 0.0090932408 0.69600004 4292384083
-0.0078808088 0.0090932408 0.69600004 4292910683
-0.032129452 0.010305673 0.69600004 4291396173
-0.030783758 0.010261252 0.69300002 4292974128
-0.029576549 0.010261252 0.69300002 4294947918
-0.028328408 0.010246445 0.69200003 4294749271
-0.027122943 0.010246445 0.69200003 4294354514
-0.025954932 0.010261252 0.69300002 4294354766
-0.024747726 0.010261252 0.69300002 4294223179
-0.023540519 0.010261252 0.69300002 4294223698
-0.022333313 0.010261252 0.69300002 4294947677
-0.021126106 0.010261252 0.69300002 4294488403
-0.019918902 0.010261252 0.69300002 4294751318
-0.018711694 0.010261252 0.69300002 4294948175
-0.01747923 0.010246445 0.69200003 4294948947
-0.016273765 0.010246445 0.69200003 4294948705
-0.015068302 0.010246445 0.69200003 4294882397
-0.013862837 0.010246445 0.69200003 4294816861
-0.012657373 0.010246445 0.69200003 4294952302
-0.011468458 0.010261252 0.69300002 4294689137
-0.010261252 0.010261252 0.69300002 4292518224
-0.0090801762 0.010290866 0.69500005 4292253780
-0.0078694858 0.010290866 0.69500005 4291793229
-0.03199096 0.011468458 0.69300002 4291003486
-0.030739333 0.011451909 0.69200003 4292644904
-0.029533871 0.011451909 0.69200003 4294947659
-0.028328408 0.011451909 0.69200003 4294552660
-0.027122943 0.011451909 0.69200003 4294223696
-0.025917478 0.011451909 0.69200003 4294354766
-0.024712015 0.011451909 0.69200003 4294223179
-0.02350655 0.011451909 0.69200003 4294158166
-0.022301087 0.011451909 0.69200003 4294948196
-0.021095622 0.011451909 0.69200003 4294750796
-0.019890158 0.011451909 0.69200003 4294882125
-0.018684695 0.011451909 0.69200003 4294947659
-0.01747923 0.011451909 0.69200003 4294947916
-0.016273765 0.011451909 0.69200003 4294947664
-0.015068302 0.011451909 0.69200003 4294947407
-0.013862837 0.011451909 0.69200003 4294947675
-0.012657373 0.011451909 0.69200003 4294951788
-0.011451909 0.011451909 0.69200003 4294819432
-0.010246445 0.011451909 0.69200003 4292977228
-0.0090540461 0.011468458 0.69300002 4292715094
-0.0078694858 0.011501556 0.69500005 4291399491
-0.033150263 0.012657373 0.69200003 4290083913
-0.0319448 0.012657373 0.69200003 4290873172
-0.030739333 0.012657373 0.69200003 4292381727
-0.029448513 0.012620792 0.69000006 4294947655
-0.028246535 0.012620792 0.69000006 4294552660
-0.027044555 0.012620792 0.69000006 4294684247
-0.025917478 0.012657373 0.69200003 4294554207
-0.024712015 0.012657373 0.69200003 4294225242
-0.02350655 0.012657373 0.69200003 4294223696
-0.022301087 0.012657373 0.69200003 4294618453
-0.021095622 0.012657373 0.69200003 4294552381
-0.019890158 0.012657373 0.69200003 4294947138
-0.018684695 0.012657373 0.69200003 4294881614
-0.01747923 0.012657373 0.69200003 4294947407
-0.016273765 0.012657373 0.69200003 4294947409
-0.015068302 0.012657373 0.69200003 4294881360
-0.013862837 0.012657373 0.69200003 4294947416
-0.012657373 0.012657373 0.69200003 4294952043
-0.011451909 0.012657373 0.69200003 4294753646
-0.010246445 0.012657373 0.69200003 4292977492
-0.0090540461 0.012675664 0.69300002 4292846181
-0.0078694858 0.012712247 0.69500005 4291003977
-0.0066587958 0.012712247 0.69500005 4291591239
-0.033150263 0.013862837 0.69200003 4290476881
-0.0319448 0.013862837 0.69200003 4291069018
-0.030650495 0.013822772 0.69000006 4292579122
-0.029448513 0.013822772 0.69000006 4294947927
-0.028246535 0.013822772 0.69000006 4294684499
-0.027044555 0.013822772 0.69000006 4294684499
-0.025842573 0.013822772 0.69000006 4294750816
-0.024640594 0.013822772 0.69000006 4294619487
-0.023438614 0.013822772 0.69000006 4294223707
-0.022236634 0.013822772 0.69000006 4294618465
-0.021034652 0.013822772 0.69000006 4294685255
-0.019832673 0.013822772 0.69000006 4294751048
-0.018630693 0.013822772 0.69000006 4294750292
-0.017428713 0.013822772 0.69000006 4294881877
-0.016226731 0.013822772 0.69000006 4294750296
-0.015024752 0.013822772 0.69000006 4294684247
-0.013822772 0.013822772 0.69000006 4294947162
-0.012620792 0.013822772 0.69000006 4294952559
-0.011418811 0.013822772 0.69000006 4294950513
-0.010246445 0.013862837 0.69200003 4293239381
-0.0090409806 0.013862837 0.69200003 4292517468
-0.0078355167 0.013862837 0.69200003 4290543678
-0.033054456 0.015024752 0.69000006 4290475073
-0.031852476 0.015024752 0.69000006 4291593297
-0.030650495 0.015024752 0.69000006 4292515144
-0.029448513 0.015024752 0.69000006 4294423141
-0.028205594 0.015002976 0.68900001 4294354756
-0.027005358 0.015002976 0.68900001 4294683465
-0.025842573 0.015024752 0.69000006 4294553692
-0.024640594 0.015024752 0.69000006 4294356312
-0.023438614 0.015024752 0.69000006 4293960775
-0.022204405 0.015002976 0.68900001 4294552912
-0.021004166 0.015002976 0.68900001 4294554696
-0.019803928 0.015002976 0.68900001 4294554696
-0.018603692 0.015002976 0.68900001 4294881623
-0.017403454 0.015002976 0.68900001 4294750294
-0.016203215 0.015002976 0.68900001 4294552399
-0.014981202 0.014981202 0.68800002 4294749521
-0.013782705 0.014981202 0.68800002 4294947169
-0.012584209 0.014981202 0.68800002 4294952566
-0.011402262 0.015002976 0.68900001 4294951805
-0.010216832 0.015024752 0.69000006 4293305952
-0.0090148505 0.015024752 0.69000006 4292189023
-0.0078128716 0.015024752 0.69000006 4290346819
-0.033054456 0.016226731 0.69000006 4290871376
-0.031852476 0.016226731 0.69000006 4291595098
-0.030606071 0.016203215 0.68900001 4292713046
-0.029405834 0.016203215 0.68900001 4294621299
-0.028205594 0.016203215 0.68900001 4294355004
-0.027005358 0.016203215 0.68900001 4294289211
-0.025767667 0.016179698 0.68800002 4294420559
-0.024569171 0.016179698 0.68800002 4294486352
-0.023404643 0.016203215 0.68900001 4294027350
-0.022172179 0.016179698 0.68800002 4294290265
-0.020973681 0.016179698 0.68800002 4294422828
-0.019775186 0.016179698 0.68800002 4294620463
-0.018576691 0.016179698 0.68800002 4294815315
-0.017378194 0.016179698 0.68800002 4294815315
-0.016132664 0.016132664 0.68600005 4294750044
-0.014937652 0.016132664 0.68600005 4294750044
-0.013782705 0.016179698 0.68800002 4294946914
-0.012584209 0.016179698 0.68800002 4294952311
-0.011402262 0.016203215 0.68900001 4294952051
-0.010202024 0.016203215 0.68900001 4293568857
-0.0090148505 0.016226731 0.69000006 4292451688
-0.0078128716 0.016226731 0.69000006 4290609484
-0.033006549 0.017403454 0.68900001 4290870874
-0.031806313 0.017403454 0.68900001 4291594596
-0.03056165 0.017378194 0.68800002 4292844107
-0.029277798 0.017327676 0.68600005 4294423139
-0.028082784 0.017327676 0.68600005 4294420809
-0.026887774 0.017327676 0.68600005 4294223429
-0.025692763 0.017327676 0.68600005 4294551368
-0.024497749 0.017327676 0.68600005 4294682954
-0.023302738 0.017327676 0.68600005 4294158668
-0.022107724 0.017327676 0.68600005 4294224461
-0.020912712 0.017327676 0.68600005 4294225467
-0.019717701 0.017327676 0.68600005 4294357053
-0.018522687 0.017327676 0.68600005 4294684232
-0.017327676 0.017327676 0.68600005 4294947405
-0.016132664 0.017327676 0.68600005 4294947416
-0.014937652 0.017327676 0.68600005 4294946903
-0.01374264 0.017327676 0.68600005 4294749790
-0.012547628 0.017327676 0.68600005 4294952308
-0.011385713 0.017378194 0.68800002 4294953346
-0.010202024 0.017403454 0.68900001 4293373029
-0.0090017859 0.017403454 0.68900001 4292583275
-0.032958642 0.018576691 0.68800002 4291133539
-0.031760145 0.018576691 0.68800002 4291594090
-0.030472811 0.018522687 0.68600005 4292975411
-0.029235119 0.018495688 0.68500006 4294620493
-0.028041849 0.018495688 0.68500006 4294749269
-0.026848579 0.018495688 0.68500006 4294420561
-0.025655309 0.018495688 0.68500006 4294420813
-0.024462039 0.018495688 0.68500006 4294947671
-0.023268769 0.018495688 0.68500006 4294750025
-0.022107724 0.018522687 0.68600005 4294421061
-0.020882228 0.018495688 0.68500006 4294290771
-0.019688958 0.018495688 0.68500006 4294619737
-0.018495688 0.018495688 0.68500006 4294882379
-0.017302418 0.018495688 0.68500006 4294949971
-0.016109146 0.018495688 0.68500006 4294948182
-0.014915878 0.018495688 0.68500006 4294947925
-0.013722607 0.018495688 0.68500006 4294948455
-0.012529337 0.018495688 0.68500006 4294953081
-0.011352615 0.018522687 0.68600005 4294952835
-0.010157603 0.018522687 0.68600005 4293635433
-0.0089887213 0.018576691 0.68800002 4292780138
-0.032862835 0.019717701 0.68600005 4291067739
-0.031621661 0.019688958 0.68500006 4291462241
-0.030428387 0.019688958 0.68500006 4293172795
-0.029192436 0.019660214 0.68400002 4294883156
-0.028000912 0.019660214 0.68400002 4294947168
-0.026809383 0.019660214 0.68400002 4294420824
-0.025617855 0.019660214 0.68400002 4294683206
-0.024426326 0.019660214 0.68400002 4294947149
-0.023268769 0.019688958 0.68500006 4294946903
-0.022075498 0.019688958 0.68500006 4294552401
-0.020882228 0.019688958 0.68500006 4294486606
-0.019688958 0.019688958 0.68500006 4294947414
-0.018495688 0.019688958 0.68500006 4294947918
-0.017302418 0.019688958 0.68500006 4294948175
-0.01608563 0.019660214 0.68400002 4294947921
-0.014894101 0.019660214 0.68400002 4294947921
-0.013702573 0.019660214 0.68400002 4294948192
-0.012511045 0.019660214 0.68400002 4294952047
-0.011336067 0.019688958 0.68500006 4294951798
-0.010142797 0.019688958 0.68500006 4293569631
-0.0089625912 0.019717701 0.68600005 4292845670
-0.032814931 0.020882228 0.68500006 4290738004
-0.031621661 0.020882228 0.68500006 4291527777
-0.030428387 0.020882228 0.68500006 4293040954
-0.029192436 0.020851742 0.68400002 4294950493
-0.028000912 0.020851742 0.68400002 4294947683
-0.026809383 0.020851742 0.68400002 4294354775
-0.025617855 0.020851742 0.68400002 4294485820
-0.024426326 0.020851742 0.68400002 4294814785
-0.023234798 0.020851742 0.68400002 4294815319
-0.022043269 0.020851742 0.68400002 4294881112
-0.020851742 0.020851742 0.68400002 4294619207
-0.019660214 0.020851742 0.68400002 4294948172
-0.018468685 0.020851742 0.68400002 4294882377
-0.017277157 0.020851742 0.68400002 4294882377
-0.01608563 0.020851742 0.68400002 4294948175
-0.014894101 0.020851742 0.68400002 4294947662
-0.013702573 0.020851742 0.68400002 4294947928
-0.012511045 0.020851742 0.68400002 4294951526
-0.011319517 0.020851742 0.68400002 4294952292
-0.010127989 0.020851742 0.68400002 4293634890
-0.031575494 0.022043269 0.68400002 4291789909
-0.030383969 0.022043269 0.68400002 4293040695
-0.029064404 0.02194659 0.68100005 4294949721
-0.027878102 0.02194659 0.68100005 4294947169
-0.026691798 0.02194659 0.68100005 4294420311
-0.02554295 0.021978816 0.68200004 4294354486
-0.024354905 0.021978816 0.68200004 4294815037
-0.023166861 0.021978816 0.68200004 4294552914
-0.021978816 0.021978816 0.68200004 4294684501
-0.020790773 0.021978816 0.68200004 4294552397
-0.019602727 0.021978816 0.68200004 4294683726
-0.018414686 0.021978816 0.68200004 4294684230
-0.01722664 0.021978816 0.68200004 4294948173
-0.016038597 0.021978816 0.68200004 4294948692
-0.014850552 0.021978816 0.68200004 4294948434
-0.013662508 0.021978816 0.68200004 4294949208
-0.012474463 0.021978816 0.68200004 4294952293
-0.01128642 0.021978816 0.68200004 4294953334
-0.010098375 0.021978816 0.68200004 4293832283
-0.032671213 0.023166861 0.68200004 4289816146
-0.031437006 0.023132892 0.68100005 4291790192
-0.030250706 0.023132892 0.68100005 4293106750
-0.029064404 0.023132892 0.68100005 4294949468
-0.027878102 0.023132892 0.68100005 4294947416
-0.026691798 0.023132892 0.68100005 4294749523
-0.025505496 0.023132892 0.68100005 4294749512
-0.024319194 0.023132892 0.68100005 4294749512
-0.023132892 0.023132892 0.68100005 4294683730
-0.021978816 0.023166861 0.68200004 4294552401
-0.020790773 0.023166861 0.68200004 4294552397
-0.019602727 0.023166861 0.68200004 4294486604
-0.018414686 0.023166861 0.68200004 4294749523
-0.01722664 0.023166861 0.68200004 4294948188
-0.016015079 0.023132892 0.68100005 4294948686
-0.014828777 0.023132892 0.68100005 4294948944
-0.013642475 0.023132892 0.68100005 4294948947
-0.012456173 0.023132892 0.68100005 4294950746
-0.01126987 0.023132892 0.68100005 4294952295
-0.010083568 0.023132892 0.68100005 4294292053
-0.0088972664 0.023132892 0.68100005 4293172849
-0.03262331 0.024319194 0.68100005 4289356590
-0.031344678 0.024247771 0.67900002 4292054102
-0.030161863 0.024247771 0.67900002 4293238601
-0.028979043 0.024247771 0.67900002 4294949733
-0.027796226 0.024247771 0.67900002 4294947164
-0.026613407 0.024247771 0.67900002 4294749271
-0.025505496 0.024319194 0.68100005 4294814801
-0.024319194 0.024319194 0.68100005 4294814801
-0.023132892 0.024319194 0.68100005 4294749523
-0.02194659 0.024319194 0.68100005 4294683730
-0.020760287 0.024319194 0.68100005 4294749262
-0.019573985 0.024319194 0.68100005 4294683469
-0.018387685 0.024319194 0.68100005 4294683215
-0.017201383 0.024319194 0.68100005 4294946901
-0.016015079 0.024319194 0.68100005 4294881866
-0.014785226 0.024247771 0.67900002 4294947916
-0.013602409 0.024247771 0.67900002 4294948182
-0.012419591 0.024247771 0.67900002 4294952295
-0.01126987 0.024319194 0.68100005 4294953083
-0.010083568 0.024319194 0.68100005 4294030182
-0.0088972664 0.024319194 0.68100005 4293369706
-0.032527499 0.02543059 0.67900002 4289160995
-0.031344678 0.02543059 0.67900002 4291924045
-0.030161863 0.02543059 0.67900002 4293238597
-0.028979043 0.02543059 0.67900002 4294950757
-0.027755288 0.025393136 0.67800003 4294946914
-0.026574213 0.025393136 0.67800003 4294552412
-0.02543059 0.02543059 0.67900002 4294683726
-0.024247771 0.02543059 0.67900002 4294749775
-0.023132892 0.025505496 0.68100005 4294815065
-0.02194659 0.025505496 0.68100005 4294683478
-0.020760287 0.025505496 0.68100005 4294486604
-0.019573985 0.025505496 0.68100005 4294420811
-0.018387685 0.025505496 0.68100005 4294486606
-0.017201383 0.025505496 0.68100005 4294881364
-0.015968043 0.02543059 0.67900002 4294881866
-0.014785226 0.02543059 0.67900002 4294947659
-0.013602409 0.02543059 0.67900002 4294947932
-0.012419591 0.02543059 0.67900002 4294952558
-0.011236772 0.02543059 0.67900002 4294953323
-0.010053954 0.02543059 0.67900002 4294161237
-0.0088711362 0.02543059 0.67900002 4293369960
-0.032527499 0.026613407 0.67900002 4289029426
-0.031298518 0.026574213 0.67800003 4292055647
-0.030117443 0.026574213 0.67800003 4293172806
-0.028936364 0.026574213 0.67800003 4294949731
-0.027755288 0.026574213 0.67800003 4294816350
-0.026574213 0.026574213 0.67800003 4294552922
-0.02543059 0.026613407 0.67900002 4294618707
-0.024247771 0.026613407 0.67900002 4294486865
-0.023064952 0.026613407 0.67900002 4294552660
-0.021882135 0.026613407 0.67900002 4294618453
-0.020699317 0.026613407 0.67900002 4294420813
-0.0195165 0.026613407 0.67900002 4294354764
-0.018333679 0.026613407 0.67900002 4294486354
-0.017150862 0.026613407 0.67900002 4294815319
-0.015968043 0.026613407 0.67900002 4294684749
-0.014785226 0.026613407 0.67900002 4294487369
-0.013602409 0.026613407 0.67900002 4294947409
-0.012419591 0.026613407 0.67900002 4294953320
-0.011236772 0.026613407 0.67900002 4294954378
-0.010053954 0.026613407 0.67900002 4294556022
-0.0088711362 0.026613407 0.67900002 4293304937
-0.032479592 0.027755288 0.67800003 4289028920
-0.031252358 0.027714353 0.67700005 4292121190
-0.030073019 0.027714353 0.67700005 4293106250
-0.028893689 0.027714353 0.67700005 4294949482
-0.027632477 0.027632477 0.67500001 4294816348
-0.026456626 0.027632477 0.67500001 4294618969
-0.025355684 0.027714353 0.67700005 4294421844
-0.02417635 0.027714353 0.67700005 4294356051
-0.023030985 0.027755288 0.67800003 4294422094
-0.021849908 0.027755288 0.67800003 4294619217
-0.020668833 0.027755288 0.67800003 4294290256
-0.019487755 0.027755288 0.67800003 4294092876
-0.01830668 0.027755288 0.67800003 4294092625
-0.017150862 0.027796226 0.67900002 4294224211
-0.015944529 0.027755288 0.67800003 4294159190
-0.014763451 0.027755288 0.67800003 4294159190
-0.013582376 0.027755288 0.67800003 4294815819
-0.0124013 0.027755288 0.67800003 4294953059
-0.011220223 0.027755288 0.67800003 4294953089
-0.010039148 0.027755288 0.67800003 4294752883
-0.0088450061 0.027714353 0.67700005 4293175148
-0.0076656719 0.027714353 0.67700005 4288767017
-0.032431688 0.028893689 0.67700005 4288962347
-0.031160029 0.028808327 0.67500001 4292317790
-0.029984176 0.028808327 0.67500001 4293040464
-0.028765649 0.028765649 0.67400002 4294948718
-0.027591541 0.028765649 0.67400002 4294882397
-0.026417432 0.028765649 0.67400002 4294684762
-0.025280776 0.028808327 0.67500001 4294225242
-0.024104927 0.028808327 0.67500001 4294093656
-0.022929078 0.028808327 0.67500001 4294159699
-0.021817682 0.028893689 0.67700005 4294225748
-0.020638349 0.028893689 0.67700005 4294290769
-0.019459013 0.028893689 0.67700005 4293961804
-0.018279679 0.028893689 0.67700005 4293829955
-0.017125603 0.028936364 0.67800003 4294093126
-0.015944529 0.028936364 0.67800003 4293962318
-0.014741677 0.028893689 0.67700005 4294028111
-0.013562343 0.028893689 0.67700005 4294750023
-0.012383008 0.028893689 0.67700005 4294952028
-0.011203675 0.028893689 0.67700005 4294952581
-0.01002434 0.028893689 0.67700005 4294951296
-0.0088450061 0.028893689 0.67700005 4292716910
-0.0076656719 0.028893689 0.67700005 4287979813
-0.033511728 0.029984176 0.67500001 4287969297
-0.032335877 0.029984176 0.67500001 4289355293
-0.031113865 0.029939756 0.67400002 4292710736
-0.029939756 0.029939756 0.67400002 4293040216
-0.028765649 0.029939756 0.67400002 4294948470
-0.027591541 0.029939756 0.67400002 4294882397
-0.026417432 0.029939756 0.67400002 4294816348
-0.025280776 0.029984176 0.67500001 4294487651
-0.024104927 0.029984176 0.67500001 4294290015
-0.022929078 0.029984176 0.67500001 4294290004
-0.021753227 0.029984176 0.67500001 4294355797
-0.020577377 0.029984176 0.67500001 4294356303
-0.019401526 0.029984176 0.67500001 4294290254
-0.018225677 0.029984176 0.67500001 4293961545
-0.017100345 0.030073019 0.67700005 4294224461
-0.015921012 0.030073019 0.67700005 4294159186
-0.014698126 0.029984176 0.67500001 4294093393
-0.013522277 0.029984176 0.67500001 4294356551
-0.012346426 0.029984176 0.67500001 4294951258
-0.011170575 0.029984176 0.67500001 4294952570
-0.0099947257 0.029984176 0.67500001 4294951799
-0.0088450061 0.030073019 0.67700005 4293111669
-0.0076656719 0.030073019 0.67700005 4288308780
-0.034636192 0.031113865 0.67400002 4289481232
-0.033462081 0.031113865 0.67400002 4288625923
-0.03228797 0.031113865 0.67400002 4290010406
-0.031113865 0.031113865 0.67400002 4293234263
-0.029939756 0.031113865 0.67400002 4292843603
-0.02872297 0.031067703 0.67300004 4294883186
-0.027550604 0.031067703 0.67300004 4294882397
-0.026378239 0.031067703 0.67300004 4294618969
-0.025243323 0.031113865 0.67400002 4294486867
-0.024069216 0.031113865 0.67400002 4294486867
-0.022895109 0.031113865 0.67400002 4294551881
-0.021721002 0.031113865 0.67400002 4294683467
-0.020546891 0.031113865 0.67400002 4294552660
-0.019372784 0.031113865 0.67400002 4294355281
-0.018198676 0.031113865 0.67400002 4294289224
-0.017024569 0.031113865 0.67400002 4294420811
-0.015873976 0.031160029 0.67500001 4294290256
-0.014676351 0.031113865 0.67400002 4294356049
-0.013502244 0.031113865 0.67400002 4294356033
-0.012328135 0.031113865 0.67400002 4294950996
-0.011170575 0.031160029 0.67500001 4294954127
-0.0099947257 0.031160029 0.67500001 4294953098
-0.008818876 0.031160029 0.67500001 4293440380
-0.0076430258 0.031160029 0.67500001 4288703284
-0.034636192 0.03228797 0.67400002 4289546242
-0.033462081 0.03228797 0.67400002 4290006793
-0.03224007 0.03224007 0.67300004 4290078513
-0.031067703 0.03224007 0.67300004 4292907612
-0.029895337 0.03224007 0.67300004 4293041236
-0.02872297 0.03224007 0.67300004 4294883440
-0.027550604 0.03224007 0.67300004 4294947416
-0.026378239 0.03224007 0.67300004 4294552914
-0.025205871 0.03224007 0.67300004 4294486858
-0.024033507 0.03224007 0.67300004 4294749773
-0.02286114 0.03224007 0.67300004 4294618955
-0.021721002 0.03228797 0.67400002 4294948177
-0.020546891 0.03228797 0.67400002 4294488149
-0.019344041 0.03224007 0.67300004 4294027598
-0.018171676 0.03224007 0.67300004 4294223959
-0.016999308 0.03224007 0.67300004 4294355801
-0.015850458 0.03228797 0.67400002 4294422094
-0.014676351 0.03228797 0.67400002 4294553423
-0.013502244 0.03228797 0.67400002 4294290506
-0.012328135 0.03228797 0.67400002 4294949978
-0.011154028 0.03228797 0.67400002 4294952825
-0.0099799186 0.03228797 0.67400002 4294952825
-0.008818876 0.032335877 0.67500001 4293572220
-0.0076317023 0.03228797 0.67400002 4289163833
-0.0064575947 0.03228797 0.67400002 4288763978
-0.034584802 0.033412438 0.67300004 4289414656
-0.033412438 0.033412438 0.67300004 4290072832
-0.03224007 0.033412438 0.67300004 4290341940
-0.031067703 0.033412438 0.67300004 4292907610
-0.029895337 0.033412438 0.67300004 4293238610
-0.028637612 0.03331314 0.671 4294883692
-0.02746873 0.03331314 0.671 4294947425
-0.026299847 0.03331314 0.671 4294618204
-0.025205871 0.033412438 0.67300004 4294684232
-0.024033507 0.033412438 0.67300004 4294750025
-0.02286114 0.033412438 0.67300004 4294553423
-0.021688772 0.033412438 0.67300004 4294751059
-0.020516409 0.033412438 0.67300004 4294553946
-0.019286554 0.03331314 0.671 4294027602
-0.018117672 0.03331314 0.671 4294355018
-0.016948789 0.03331314 0.671 4294683726
-0.015826942 0.033412438 0.67300004 4294618703
-0.014611025 0.03331314 0.671 4294552910
-0.013442145 0.03331314 0.671 4294223666
-0.012273261 0.03331314 0.671 4294949959
-0.011137478 0.033412438 0.67300004 4294952573
-0.0099651124 0.033412438 0.67300004 4294952830
-0.0088058114 0.033462081 0.67400002 4293704320
-0.0076317023 0.033462081 0.67400002 4289230652
-0.0064575947 0.033462081 0.67400002 4288633162
-0.034584802 0.034584802 0.67300004 4289612291
-0.033412438 0.034584802 0.67300004 4289875463
-0.03224007 0.034584802 0.67300004 4290340906
-0.031067703 0.034584802 0.67300004 4293038419
-0.029895337 0.034584802 0.67300004 4293369669
-0.028637612 0.034482021 0.671 4294949729
-0.02746873 0.034482021 0.671 4294947694
-0.026299847 0.034482021 0.671 4294618215
-0.025205871 0.034584802 0.67300004 4294749521
-0.023962082 0.034482021 0.671 4294749521
-0.022793202 0.034482021 0.671 4294552914
-0.021624317 0.034482021 0.671 4294684501
-0.020455437 0.034482021 0.671 4294684499
-0.019257812 0.034430634 0.67000002 4294158154
-0.018090671 0.034430634 0.67000002 4294354486
-0.016923532 0.034430634 0.67000002 4294486072
-0.015756391 0.034430634 0.67000002 4294552647
-0.014589251 0.034430634 0.67000002 4294948175
-0.013422112 0.034430634 0.67000002 4294882379
-0.012254971 0.034430634 0.67000002 4294949201
-0.01110438 0.034482021 0.671 4294950753
-0.0099354973 0.034482021 0.671 4294953324
-0.0087927459 0.034584802 0.67300004 4293966724
-0.0076317023 0.034636192 0.67400002 4289690179
-0.0064575947 0.034636192 0.67400002 4288698435
-0.034482021 0.035650901 0.671 4289678336
-0.03331314 0.035650901 0.671 4289809922
-0.032144256 0.035650901 0.671 4290208805
-0.031067703 0.035757165 0.67300004 4293037904
-0.029806493 0.035650901 0.671 4293434695
-0.028594933 0.035597775 0.67000002 4294949219
-0.027386855 0.035544641 0.66900003 4294947177
-0.026221458 0.035544641 0.66900003 4294814563
-0.025093513 0.035597775 0.67000002 4294749521
-0.023926372 0.035597775 0.67000002 4294683728
-0.022759233 0.035597775 0.67000002 4294289222
-0.021592092 0.035597775 0.67000002 4294881360
-0.020424953 0.035597775 0.67000002 4294751070
-0.019257812 0.035597775 0.67000002 4294027348
-0.018090671 0.035597775 0.67000002 4294420277
-0.016923532 0.035597775 0.67000002 4294552119
-0.015756391 0.035597775 0.67000002 4294420277
-0.014567477 0.035544641 0.66900003 4294946877
-0.013402078 0.035544641 0.66900003 4294948172
-0.012254971 0.035597775 0.67000002 4294949458
-0.011087831 0.035597775 0.67000002 4294950748
-0.0099206911 0.035597775 0.67000002 4294953576
-0.0087666158 0.035650901 0.671 4293966724
-0.0075977333 0.035650901 0.671 4289624386
-0.0064288513 0.035650901 0.671 4288762154
-0.034482021 0.036819786 0.671 4289546496
-0.033263493 0.036764916 0.67000002 4289875200
-0.032096352 0.036764916 0.67000002 4290208805
-0.030929213 0.036764916 0.67000002 4293103697
-0.029717654 0.036710043 0.66900003 4293501006
-0.028552255 0.036710043 0.66900003 4294949736
-0.027386855 0.036710043 0.66900003 4294946914
-0.026221458 0.036710043 0.66900003 4294749022
-0.02505606 0.036710043 0.66900003 4294749523
-0.023890661 0.036710043 0.66900003 4294749523
-0.022725264 0.036710043 0.66900003 4294881866
-0.021559864 0.036710043 0.66900003 4294948688
-0.020394467 0.036710043 0.66900003 4294948963
-0.019229069 0.036710043 0.66900003 4294488412
-0.01806367 0.036710043 0.66900003 4294619723
-0.016898273 0.036710043 0.66900003 4294619723
-0.015732875 0.036710043 0.66900003 4294354766
-0.014567477 0.036710043 0.66900003 4294486352
-0.013402078 0.036710043 0.66900003 4294947920
-0.012236681 0.036710043 0.66900003 4294949976
-0.011071282 0.036710043 0.66900003 4294950238
-0.0099206911 0.036764916 0.67000002 4294953836
-0.0087666158 0.036819786 0.671 4294623625
-0.0075977333 0.036819786 0.671 4290018115
-0.0064288513 0.036819786 0.671 4289089041
-0.033213846 0.037875436 0.66900003 4289874944
-0.032000542 0.037818823 0.66800004 4290405414
-0.03083689 0.037818823 0.66800004 4293695064
-0.029717654 0.037875436 0.66900003 4293698650
-0.028509576 0.037818823 0.66800004 4294882668
-0.02734592 0.037818823 0.66800004 4294881373
-0.026182262 0.037818823 0.66800004 4294618458
-0.025018606 0.037818823 0.66800004 4294749523
-0.023854952 0.037818823 0.66800004 4294815317
-0.022725264 0.037875436 0.66900003 4294946903
-0.021527639 0.037818823 0.66800004 4294948445
-0.020363983 0.037818823 0.66800004 4294817895
-0.019200325 0.037818823 0.66800004 4294357344
-0.01806367 0.037875436 0.66900003 4294554457
-0.016898273 0.037875436 0.66900003 4294225748
-0.015732875 0.037875436 0.66900003 4294026818
-0.014567477 0.037875436 0.66900003 4294487369
-0.013402078 0.037875436 0.66900003 4294817617
-0.012236681 0.037875436 0.66900003 4294949718
-0.011071282 0.037875436 0.66900003 4294949987
-0.0099206911 0.037932053 0.67000002 4294954099
-0.0087666158 0.03798867 0.671 4294952337
-0.0075977333 0.03798867 0.671 4290871887
-0.0064288513 0.03798867 0.671 4289810183
-0.033164203 0.038982481 0.66800004 4290073344
-0.031904735 0.038865767 0.66600001 4290274348
-0.03074456 0.038865767 0.66600001 4294024549
-0.029584387 0.038865767 0.66600001 4294094942
-0.028509576 0.038982481 0.66800004 4294687079
-0.02734592 0.038982481 0.66800004 4294815315
-0.026103873 0.038865767 0.66600001 4294683728
-0.0249437 0.038865767 0.66600001 4294749523
-0.023783527 0.038865767 0.66600001 4294683730
-0.022623356 0.038865767 0.66600001 4294552401
-0.021463184 0.038865767 0.66600001 4294683730
-0.020303011 0.038865767 0.66600001 4294289752
-0.01914284 0.038865767 0.66600001 4294223959
-0.018036671 0.038982481 0.66800004 4294290004
-0.016873015 0.038982481 0.66800004 4294092625
-0.015709357 0.038982481 0.66800004 4294026818
-0.014545701 0.038982481 0.66800004 4294487369
-0.013382046 0.038982481 0.66800004 4294488653
-0.01221839 0.038982481 0.66800004 4294817617
-0.011071282 0.039040837 0.66900003 4294948965
-0.009905884 0.039040837 0.66900003 4294954362
-0.0087535512 0.03909919 0.67000002 4294952835
-0.0075977333 0.039157551 0.671 4291332678
-0.033064906 0.040025938 0.66600001 4290400774
-0.031856827 0.039965838 0.66500002 4290274096
-0.0306984 0.039965838 0.66500002 4294090090
-0.029539967 0.039965838 0.66500002 4294160235
-0.02838154 0.039965838 0.66500002 4294686579
-0.027223108 0.039965838 0.66500002 4294750292
-0.026064677 0.039965838 0.66500002 4294618705
-0.024906248 0.039965838 0.66500002 4294749523
-0.023747819 0.039965838 0.66500002 4294552401
-0.022589387 0.039965838 0.66500002 4294486858
-0.021430958 0.039965838 0.66500002 4294289222
-0.020272527 0.039965838 0.66500002 4294485582
-0.019114098 0.039965838 0.66500002 4294551375
-0.017982667 0.040025938 0.66600001 4294486356
-0.016822496 0.040025938 0.66600001 4294354514
-0.015662324 0.040025938 0.66600001 4293960773
-0.014502151 0.040025938 0.66600001 4294158152
-0.013341979 0.040025938 0.66600001 4294422076
-0.012181806 0.040025938 0.66600001 4294948420
-0.011021635 0.040025938 0.66600001 4294883172
-0.0098910769 0.040146139 0.66800004 4294954362
-0.0087404866 0.040206235 0.66900003 4294953353
-0.033015259 0.041124269 0.66500002 4290139918
-0.031856827 0.041124269 0.66500002 4290209587
-0.030652234 0.041062426 0.66400003 4293893994
-0.029495548 0.041062426 0.66400003 4294357344
-0.028338861 0.041062426 0.66400003 4294949994
-0.027182171 0.041062426 0.66400003 4294881364
-0.026064677 0.041124269 0.66500002 4294815315
-0.024906248 0.041124269 0.66500002 4294684247
-0.023747819 0.041124269 0.66500002 4294552660
-0.022589387 0.041124269 0.66500002 4294552397
-0.021430958 0.041124269 0.66500002 4294420811
-0.020272527 0.041124269 0.66500002 4294485834
-0.019114098 0.041124269 0.66500002 4294551627
-0.017955666 0.041124269 0.66500002 4294420559
-0.016797235 0.041124269 0.66500002 4294354766
-0.015638806 0.041124269 0.66500002 4294158416
-0.014502151 0.041186109 0.66600001 4294092622
-0.013341979 0.041186109 0.66600001 4294225217
-0.012181806 0.041186109 0.66600001 4294950996
-0.011021635 0.041186109 0.66600001 4294950256
-0.0098910769 0.041309793 0.66800004 4294955138
-0.0087274211 0.041309793 0.66800004 4294953093
-0.0075637652 0.041309793 0.66800004 4291661130
-0.033015259 0.042282701 0.66500002 4290336268
-0.031808924 0.042219117 0.66400003 4290537016
-0.030652234 0.042219117 0.66400003 4294221424
-0.029495548 0.042219117 0.66400003 4294422887
-0.028338861 0.042219117 0.66400003 4294817645
-0.027182171 0.042219117 0.66400003 4294881360
-0.026064677 0.042282701 0.66500002 4294881360
-0.024906248 0.042282701 0.66500002 4294815315
-0.023712106 0.042219117 0.66400003 4294683728
-0.022555418 0.042219117 0.66400003 4294552922
-0.021398731 0.042219117 0.66400003 4294224213
-0.020242043 0.042219117 0.66400003 4294222664
-0.019085353 0.042219117 0.66400003 4294617422
-0.017928667 0.042219117 0.66400003 4294485582
-0.016771978 0.042219117 0.66400003 4294485582
-0.01561529 0.042219117 0.66400003 4294356562
-0.014480376 0.042282701 0.66500002 4293961804
-0.013321945 0.042282701 0.66500002 4293895984
-0.012163516 0.042282701 0.66500002 4294949957
-0.011005086 0.042282701 0.66500002 4294950514
-0.0098614627 0.04234628 0.66600001 4294955398
-0.00870129 0.04234628 0.66600001 4294953352
-0.0075411187 0.04234628 0.66600001 4291991639
-0.032965612 0.043375805 0.66400003 4291324721
-0.031808924 0.043375805 0.66400003 4290998863
-0.030652234 0.043375805 0.66400003 4294091135
-0.029495548 0.043375805 0.66400003 4294487910
-0.028253503 0.043245159 0.66200006 4294751339
-0.027100299 0.043245159 0.66200006 4294947662
-0.026025483 0.043375805 0.66400003 4294949718
-0.024868796 0.043375805 0.66400003 4294750025
-0.023712106 0.043375805 0.66400003 4293763130
-0.022555418 0.043375805 0.66400003 4293894478
-0.021398731 0.043375805 0.66400003 4293763149
-0.020181073 0.043245159 0.66200006 4294090826
-0.01902787 0.043245159 0.66200006 4294946392
-0.017874664 0.043245159 0.66200006 4294683715
-0.016721461 0.043245159 0.66200006 4294289213
-0.015568257 0.043245159 0.66200006 4294290506
-0.014458601 0.043375805 0.66400003 4294158920
-0.013301914 0.043375805 0.66400003 4293960771
-0.012145225 0.043375805 0.66400003 4294684751
-0.010988537 0.043375805 0.66400003 4294949228
-0.0098466557 0.043441128 0.66500002 4294954625
-0.0086882263 0.043441128 0.66500002 4294953083
-0.032965612 0.044532493 0.66400003 4290928898
-0.031808924 0.044532493 0.66400003 4291458897
-0.03055991 0.04439836 0.66200006 4294354045
-0.029406708 0.04439836 0.66200006 4294487910
-0.028253503 0.04439836 0.66200006 4294948461
-0.027100299 0.04439836 0.66200006 4294947424
-0.026025483 0.044532493 0.66400003 4294947939
-0.024793891 0.04439836 0.66200006 4294553162
-0.023640685 0.04439836 0.66200006 4293303096
-0.022487482 0.04439836 0.66200006 4293434677
-0.021334277 0.04439836 0.66200006 4293566519
-0.020181073 0.04439836 0.66200006 4294024517
-0.01902787 0.04439836 0.66200006 4294946904
-0.017874664 0.04439836 0.66200006 4294881112
-0.016721461 0.04439836 0.66200006 4294354768
-0.015568257 0.04439836 0.66200006 4294551881
-0.014415052 0.04439836 0.66200006 4294354502
-0.013261848 0.04439836 0.66200006 4293763356
-0.012108644 0.04439836 0.66200006 4294881580
-0.01095544 0.04439836 0.66200006 4294948456
-0.0098318486 0.044532493 0.66400003 4294953596
-0.0086751617 0.044532493 0.66400003 4294953090
-0.0075297961 0.044599559 0.66500002 4293569638
-0.032866322 0.045551565 0.66200006 4291186708
-0.031713117 0.045551565 0.66200006 4291263053
-0.03055991 0.045551565 0.66200006 4294289532
-0.029406708 0.045551565 0.66200006 4294619239
-0.028210821 0.045482755 0.66100001 4294949747
-0.027059359 0.045482755 0.66100001 4294947422
-0.025947094 0.045551565 0.66200006 4294682965
-0.024793891 0.045551565 0.66200006 4294420809
-0.023640685 0.045551565 0.66200006 4293170998
-0.022487482 0.045551565 0.66200006 4293237554
-0.021334277 0.045551565 0.66200006 4293632312
-0.020181073 0.045551565 0.66200006 4294090828
-0.018999124 0.045482755 0.66100001 4294946908
-0.017847663 0.045482755 0.66100001 4294946905
-0.0166962 0.045482755 0.66100001 4294552147
-0.015544738 0.045482755 0.66100001 4294683715
-0.014393276 0.045482755 0.66100001 4294749764
-0.013241814 0.045482755 0.66100001 4294552115
-0.012090352 0.045482755 0.66100001 4294946873
-0.010938889 0.045482755 0.66100001 4294947943
-0.0097874282 0.045482755 0.66100001 4294952568
-0.0086490316 0.045551565 0.66200006 4294952827
-0.031713117 0.046704769 0.66200006 4291197776
-0.030513747 0.046634216 0.66100001 4294355840
-0.029362286 0.046634216 0.66100001 4294488160
-0.028168142 0.046563666 0.66000003 4294949224
-0.027018422 0.046563666 0.66000003 4294947669
-0.025907896 0.046634216 0.66100001 4294420811
-0.024756435 0.046634216 0.66100001 4294289224
-0.023604972 0.046634216 0.66100001 4293170744
-0.022453511 0.046634216 0.66100001 4293171498
-0.021302048 0.046634216 0.66100001 4293763378
-0.020150587 0.046634216 0.66100001 4294026314
-0.018999124 0.046634216 0.66100001 4294684501
-0.017847663 0.046634216 0.66100001 4294684501
-0.016670942 0.046563666 0.66000003 4294486865
-0.015521223 0.046563666 0.66000003 4294683719
-0.014371501 0.046563666 0.66000003 4294946635
-0.013221781 0.046563666 0.66000003 4294683454
-0.012072061 0.046563666 0.66000003 4294551867
-0.010938889 0.046634216 0.66100001 4294947680
-0.0097874282 0.046634216 0.66100001 4294953590
-0.0086359652 0.046634216 0.66100001 4294952587
-0.007484504 0.046634216 0.66100001 4294818174
-0.031665206 0.047785677 0.66100001 4291526739
-0.030467581 0.047713384 0.66000003 4294487680
-0.029317861 0.047713384 0.66000003 4294882897
-0.028125463 0.047641091 0.65900004 4294882897
-0.026977487 0.047641091 0.65900004 4294947403
-0.025868703 0.047713384 0.66000003 4294354752
-0.024718983 0.047713384 0.66000003 4294223948
-0.023569264 0.047713384 0.66000003 4293697603
-0.022419542 0.047713384 0.66000003 4293698369
-0.021269821 0.047713384 0.66000003 4293829955
-0.020120101 0.047713384 0.66000003 4293894726
-0.018970381 0.047713384 0.66000003 4293960775
-0.017820662 0.047713384 0.66000003 4294485834
-0.016670942 0.047713384 0.66000003 4294551627
-0.015521223 0.047713384 0.66000003 4294486858
-0.014371501 0.047713384 0.66000003 4294749773
-0.013221781 0.047713384 0.66000003 4294552647
-0.012072061 0.047713384 0.66000003 4293960510
-0.010922342 0.047713384 0.66000003 4294749271
-0.0097726211 0.047713384 0.66000003 4294953333
-0.0086229006 0.047713384 0.66000003 4294954874
-0.0074731805 0.047713384 0.66000003 4294819432
-0.030421421 0.048789069 0.65900004 4294356090
-0.029273441 0.048789069 0.65900004 4294948190
-0.028125463 0.048789069 0.65900004 4294948960
-0.026977487 0.048789069 0.65900004 4294947677
-0.025829509 0.048789069 0.65900004 4294223698
-0.024718983 0.048863105 0.66000003 4294224463
-0.023569264 0.048863105 0.66000003 4293895498
-0.022419542 0.048863105 0.66000003 4293960775
-0.021269821 0.048863105 0.66000003 4293960775
-0.020120101 0.048863105 0.66000003 4293828671
-0.018970381 0.048863105 0.66000003 4294026307
-0.017820662 0.048863105 0.66000003 4294485834
-0.016645683 0.048789069 0.65900004 4294617420
-0.015497705 0.048789069 0.65900004 4294552399
-0.014349726 0.048789069 0.65900004 4294749521
-0.013201748 0.048789069 0.65900004 4294422096
-0.01205377 0.048789069 0.65900004 4293895752
-0.010905792 0.048789069 0.65900004 4294552647
-0.0097726211 0.048863105 0.66000003 4294954344
-0.0086229006 0.048863105 0.66000003 4294954900
-0.0074731805 0.048863105 0.66000003 4294952844
-0.030329091 0.049785491 0.65700001 4293897329
-0.029184598 0.049785491 0.65700001 4294947909
-0.028040105 0.049785491 0.65700001 4294949708
-0.026895611 0.049785491 0.65700001 4294947419
-0.025751118 0.049785491 0.65700001 4294420561
-0.024681531 0.049937051 0.65900004 4294224463
-0.023533551 0.049937051 0.65900004 4294356049
-0.022385575 0.049937051 0.65900004 4294092874
-0.021237595 0.049937051 0.65900004 4294158668
-0.020089617 0.049937051 0.65900004 4294224202
-0.018941639 0.049937051 0.65900004 4294158152
-0.017793661 0.049937051 0.65900004 4294288718
-0.016645683 0.049937051 0.65900004 4294420561
-0.015497705 0.049937051 0.65900004 4294486356
-0.014349726 0.049937051 0.65900004 4294683478
-0.013201748 0.049937051 0.65900004 4294553173
-0.01205377 0.049937051 0.65900004 4294092622
-0.010905792 0.049937051 0.65900004 4294290254
-0.0097578149 0.049937051 0.65900004 4294954095
-0.008609836 0.049937051 0.65900004 4294954633
-0.007461858 0.049937051 0.65900004 4294952577
-0.030282931 0.05085247 0.65600002 4293765486
-0.029140178 0.05085247 0.65600002 4294749262
-0.027997427 0.05085247 0.65600002 4294948184
-0.026854673 0.05085247 0.65600002 4294946897
-0.025751118 0.050929986 0.65700001 4294617161
-0.024606623 0.050929986 0.65700001 4294223179
-0.023462128 0.050929986 0.65700001 4294354766
-0.022385575 0.051085029 0.65900004 4294026314
-0.021237595 0.051085029 0.65900004 4294158156
-0.020089617 0.051085029 0.65900004 4294223948
-0.018941639 0.051085029 0.65900004 4293960775
-0.017793661 0.051085029 0.65900004 4294091330
-0.016645683 0.051085029 0.65900004 4294617674
-0.01545067 0.050929986 0.65700001 4294290256
-0.014306176 0.050929986 0.65700001 4294685014
-0.013141649 0.05085247 0.65600002 4294620000
-0.011998896 0.05085247 0.65600002 4294027863
-0.010856145 0.05085247 0.65600002 4294289220
-0.0097133927 0.05085247 0.65600002 4294953061
-0.0085837059 0.050929986 0.65700001 4294954898
-0.0074392119 0.050929986 0.65700001 4294953871
-0.0062947175 0.050929986 0.65700001 4294229635
-0.030236768 0.051915962 0.65500003 4293831013
-0.02909576 0.051915962 0.65500003 4294683967
-0.027954748 0.051915962 0.65500003 4294947910
-0.026813738 0.051915962 0.65500003 4294946625
-0.025711922 0.051995222 0.65600002 4294946882
-0.024569171 0.051995222 0.65600002 4294355799
-0.023462128 0.052074481 0.65700001 4294290006
-0.022317635 0.052074481 0.65700001 4294224209
-0.02117314 0.052074481 0.65700001 4294092622
-0.019998163 0.051995222 0.65600002 4294157905
-0.01885541 0.051995222 0.65600002 4294026318
-0.017685656 0.051915962 0.65500003 4294288709
-0.016544648 0.051915962 0.65500003 4294947153
-0.015403637 0.051915962 0.65500003 4294815819
-0.014262626 0.051915962 0.65500003 4294947405
-0.013121616 0.051915962 0.65500003 4294816611
-0.011980606 0.051915962 0.65500003 4294356060
-0.010839596 0.051915962 0.65500003 4294552899
-0.0096985856 0.051915962 0.65500003 4294952539
-0.0085706403 0.051995222 0.65600002 4294952848
-0.0074278885 0.051995222 0.65600002 4294954390
-0.0062851366 0.051995222 0.65600002 4294952594
-0.031377777 0.053056974 0.65500003 4291790664
-0.030190606 0.052975968 0.65400004 4293567332
-0.029051339 0.052975968 0.65400004 4294156610
-0.027912069 0.052975968 0.65400004 4294485318
-0.026772803 0.052975968 0.65400004 4294486324
-0.025672728 0.053056974 0.65500003 4294947390
-0.024531716 0.053056974 0.65500003 4294553442
-0.023390708 0.053056974 0.65500003 4294421856
-0.022249699 0.053056974 0.65500003 4294290006
-0.021108687 0.053056974 0.65500003 4294224213
-0.019967677 0.053056974 0.65500003 4294158416
-0.018826667 0.053056974 0.65500003 4294092622
-0.017685656 0.053056974 0.65500003 4294354504
-0.016544648 0.053056974 0.65500003 4294551627
-0.01538012 0.052975968 0.65400004 4294486606
-0.014240852 0.052975968 0.65400004 4294552399
-0.013121616 0.053056974 0.65500003 4294816350
-0.011980606 0.053056974 0.65500003 4294750557
-0.010839596 0.053056974 0.65500003 4294816071
-0.0096985856 0.053056974 0.65500003 4294951255
-0.0085575758 0.053056974 0.65500003 4294951547
-0.0074165659 0.053056974 0.65500003 4294954374
-0.0062851366 0.053137973 0.65600002 4294954387
-0.0051423847 0.053137973 0.65600002 4290936902
-0.031234063 0.053949747 0.65200001 4291659342
-0.030098278 0.053949747 0.65200001 4293106789
-0.028962493 0.053949747 0.65200001 4293958945
-0.02782671 0.053949747 0.65200001 4294419496
-0.026690926 0.053949747 0.65200001 4294222651
-0.025633534 0.054115236 0.65400004 4294947915
-0.024494264 0.054115236 0.65400004 4294815850
-0.023354996 0.054115236 0.65400004 4294618215
-0.02221573 0.054115236 0.65400004 4294486617
-0.021076461 0.054115236 0.65400004 4294354775
-0.019937193 0.054115236 0.65400004 4294354768
-0.018797925 0.054115236 0.65400004 4294354768
-0.017658656 0.054115236 0.65400004 4294354504
-0.016519388 0.054115236 0.65400004 4294354504
-0.01538012 0.054115236 0.65400004 4294288970
-0.014240852 0.054115236 0.65400004 4294354764
-0.013101583 0.054115236 0.65400004 4294749521
-0.011962316 0.054115236 0.65400004 4294948186
-0.010823047 0.054115236 0.65400004 4294881612
-0.0096837794 0.054115236 0.65400004 4294881612
-0.0085445112 0.054115236 0.65400004 4294950213
-0.0074052433 0.054115236 0.65400004 4294955610
-0.0062755556 0.054197982 0.65500003 4294953856
-0.0051345457 0.054197982 0.65500003 4291331899
-0.032369848 0.055085529 0.65200001 4289888869
-0.031234063 0.055085529 0.65200001 4291790931
-0.030098278 0.055085529 0.65200001 4292909155
-0.028962493 0.055085529 0.65200001 4293563689
-0.02782671 0.055085529 0.65200001 4294484791
-0.026690926 0.055085529 0.65200001 4294091566
-0.025555141 0.055085529 0.65200001 4294947132
-0.024419358 0.055085529 0.65200001 4294750303
-0.023354996 0.055254504 0.65400004 4294618717
-0.02221573 0.055254504 0.65400004 4294683476
-0.021076461 0.055254504 0.65400004 4294552147
-0.019937193 0.055254504 0.65400004 4294288970
-0.018797925 0.055254504 0.65400004 4294354764
-0.017658656 0.055254504 0.65400004 4294354502
-0.016519388 0.055254504 0.65400004 4294222916
-0.015333085 0.055085529 0.65200001 4294157362
-0.014197302 0.055085529 0.65200001 4294157362
-0.013061517 0.055085529 0.65200001 4294683469
-0.011925733 0.055085529 0.65200001 4294947926
-0.010789949 0.055085529 0.65200001 4294552381
-0.0096541652 0.055085529 0.65200001 4294683967
-0.0085183801 0.055085529 0.65200001 4294948186
-0.0074052433 0.055254504 0.65400004 4294955895
-0.0062659746 0.055254504 0.65400004 4294954903
-0.0051345457 0.05533899 0.65500003 4290939217
-0.033505633 0.056221314 0.65200001 4290348908
-0.032369848 0.056221314 0.65200001 4289888357
-0.031234063 0.056221314 0.65200001 4291856206
-0.030052116 0.056135088 0.65100002 4292974687
-0.028918073 0.056135088 0.65100002 4293367341
-0.027784033 0.056135088 0.65100002 4294156858
-0.026649989 0.056135088 0.65100002 4294156610
-0.025555141 0.056221314 0.65200001 4294814283
-0.024419358 0.056221314 0.65200001 4294749258
-0.023354996 0.056393772 0.65400004 4294749258
-0.02221573 0.056393772 0.65400004 4294683726
-0.021076461 0.056393772 0.65400004 4294552397
-0.019937193 0.056393772 0.65400004 4294420813
-0.018740438 0.056221314 0.65200001 4294354764
-0.017604653 0.056221314 0.65200001 4294355004
-0.01646887 0.056221314 0.65200001 4294157625
-0.015333085 0.056221314 0.65200001 4294026010
-0.014197302 0.056221314 0.65200001 4294223388
-0.013061517 0.056221314 0.65200001 4294354001
-0.011925733 0.056221314 0.65200001 4294948450
-0.010789949 0.056221314 0.65200001 4294946392
-0.0096541652 0.056221314 0.65200001 4294814805
-0.0085183801 0.056221314 0.65200001 4294947431
-0.0073712738 0.056135088 0.65100002 4294954370
-0.0062372317 0.056135088 0.65100002 4294954891
-0.0051031895 0.056135088 0.65100002 4292977503
-0.033505633 0.057357095 0.65200001 4290348904
-0.032369848 0.057357095 0.65200001 4289954403
-0.031186158 0.057269122 0.65100002 4291856208
-0.030052116 0.057269122 0.65100002 4292843103
-0.028873652 0.057181153 0.65000004 4293170467
-0.027741354 0.057181153 0.65000004 4293893933
-0.026649989 0.057269122 0.65100002 4293893431
-0.025515947 0.057269122 0.65100002 4294551618
-0.024381904 0.057269122 0.65100002 4294616888
-0.023283573 0.057357095 0.65200001 4294616888
-0.02214779 0.057357095 0.65200001 4294617420
-0.021012006 0.057357095 0.65200001 4294617420
-0.019876221 0.057357095 0.65200001 4294551881
-0.018711695 0.057269122 0.65100002 4294485832
-0.017577652 0.057269122 0.65100002 4294355004
-0.01646887 0.057357095 0.65200001 4294355004
-0.015309568 0.057269122 0.65100002 4294025523
-0.014175527 0.057269122 0.65100002 4293893681
-0.013041484 0.057269122 0.65100002 4294419277
-0.011907442 0.057269122 0.65100002 4294947420
-0.0107734 0.057269122 0.65100002 4294946638
-0.0096393581 0.057269122 0.65100002 4294682952
-0.0085053155 0.057269122 0.65100002 4294881373
-0.0073712738 0.057269122 0.65100002 4294954876
-0.0062372317 0.057269122 0.65100002 4294955671
-0.0051031895 0.057269122 0.65100002 4292847468
-0.034641415 0.058492877 0.65200001 4290417039
-0.033505633 0.058492877 0.65200001 4290282848
-0.032320201 0.058403168 0.65100002 4289756504
