# .PCD v0.7 - Point Cloud Data file format
VERSION 0.7
FIELDS x y z rgba
SIZE 4 4 4 4
TYPE F F F U
COUNT 1 1 1 1
WIDTH 1054
HEIGHT 1
VIEWPOINT 0 0 0 1 0 0 0
POINTS 1054
DATA ascii
-0.20588613 0.082066499 0.551 4287323205
-0.20604204 0.082513317 0.55400002 4287323205
-0.20581733 0.082811214 0.55600005 4287389255
-0.20705937 0.083704852 0.56200004 4287651142
-0.20608038 0.083704852 0.56200004 4287717191
-0.20583126 0.084002726 0.56400001 4287521595
-0.20484877 0.084002726 0.56400001 4287389752
-0.20422775 0.08415167 0.565 4287520548
-0.20324351 0.08415167 0.565 4287783719
-0.20225927 0.08415167 0.565 4287915054
-0.20590617 0.086087905 0.57800001 4287980847
-0.20525379 0.086236857 0.57900006 4287980345
-0.20424518 0.086236857 0.57900006 4287914552
-0.20323656 0.086236857 0.57900006 4288441650
-0.20222794 0.086236857 0.57900006 4288638772
-0.20156685 0.086385794 0.58000004 4288638791
-0.20090227 0.086534731 0.58100003 4288112447
-0.26194632 0.081067465 0.53800005 4286011754
-0.26100913 0.081067465 0.53800005 4284103757
-0.26007193 0.081067465 0.53800005 4284368964
-0.25913474 0.081067465 0.53800005 4284895308
-0.25819752 0.081067465 0.53800005 4285222726
-0.25726035 0.081067465 0.53800005 4285222726
-0.25584671 0.080916777 0.537 4285288519
-0.25491124 0.080916777 0.537 4285156933
-0.25350282 0.080766097 0.53600001 4285419324
-0.25256911 0.080766097 0.53600001 4285419324
-0.25163543 0.080766097 0.53600001 4285944133
-0.24836306 0.080012687 0.53100002 4286075975
-0.24743807 0.080012687 0.53100002 4286010439
-0.24651305 0.080012687 0.53100002 4286010439
-0.24558805 0.080012687 0.53100002 4286010439
-0.2442023 0.079861999 0.53000003 4286142281
-0.24327905 0.079861999 0.53000003 4286076234
-0.24235579 0.079861999 0.53000003 4286076234
-0.2414325 0.079861999 0.53000003 4286273349
-0.24096304 0.080012687 0.53100002 4286273349
-0.24003805 0.080012687 0.53100002 4286273097
-0.23911303 0.080012687 0.53100002 4286338890
-0.23818803 0.080012687 0.53100002 4286338881
-0.23726304 0.080012687 0.53100002 4286273088
-0.2367831 0.080163367 0.53200001 4286207293
-0.23585635 0.080163367 0.53200001 4286141500
-0.23492962 0.080163367 0.53200001 4286403139
-0.23400287 0.080163367 0.53200001 4286403139
-0.23307614 0.080163367 0.53200001 4286402887
-0.23214939 0.080163367 0.53200001 4286402887
-0.23122266 0.080163367 0.53200001 4286533194
-0.2302959 0.080163367 0.53200001 4286598987
-0.22936915 0.080163367 0.53200001 4286534223
-0.22887182 0.080314048 0.53300005 4286468430
-0.22794336 0.080314048 0.53300005 4286598987
-0.22701487 0.080314048 0.53300005 4286138436
-0.22608636 0.080314048 0.53300005 4286203194
-0.22558032 0.080464728 0.53400004 4285940021
-0.2246501 0.080464728 0.53400004 4286005301
-0.22371985 0.080464728 0.53400004 4286071094
-0.22278965 0.080464728 0.53400004 4286071094
-0.22227487 0.080615416 0.53500003 4286005301
-0.22175662 0.080766097 0.53600001 4285938993
-0.2208229 0.080766097 0.53600001 4285873199
-0.21988919 0.080766097 0.53600001 4286069811
-0.21895549 0.080766097 0.53600001 4286135604
-0.21802178 0.080766097 0.53600001 4286137137
-0.21749307 0.080916777 0.537 4286071344
-0.21696091 0.081067465 0.53800005 4286005299
-0.21642524 0.081218153 0.53900003 4285873713
-0.21588609 0.081368834 0.54000002 4285938993
-0.21494541 0.081368834 0.54000002 4285873199
-0.21440102 0.081519507 0.54100001 4285938993
-0.2134586 0.081519507 0.54100001 4285938993
-0.21251617 0.081519507 0.54100001 4285873199
-0.21196486 0.081670195 0.54200006 4285741613
-0.21141003 0.081820883 0.54300004 4285874215
-0.21046412 0.081820883 0.54300004 4285874215
-0.21028991 0.082122244 0.54500002 4286138164
-0.20972462 0.082272924 0.546 4287059266
-0.20992061 0.082724974 0.54900002 4287257412
-0.20896424 0.082724974 0.54900002 4287389255
-0.20838676 0.082875654 0.55000001 4287257935
-0.20818296 0.08317703 0.55200005 4287192141
-0.20722137 0.08317703 0.55200005 4287322694
-0.20663345 0.083327711 0.55300003 4287256901
-0.20604204 0.083478391 0.55400002 4287387454
-0.20581733 0.08377976 0.55600005 4287387454
-0.20669095 0.084533177 0.56100005 4287453762
-0.20571367 0.084533177 0.56100005 4287453762
-0.2054663 0.084834538 0.56300002 4287651898
-0.20484877 0.084985219 0.56400001 4287586104
-0.20422775 0.085135899 0.565 4287651627
-0.20324351 0.085135899 0.565 4287783213
-0.20225927 0.085135899 0.565 4287849009
-0.20626241 0.087245472 0.57900006 4287914802
-0.20525379 0.087245472 0.57900006 4288045620
-0.20424518 0.087245472 0.57900006 4288045620
-0.20358758 0.087396152 0.58000004 4288703804
-0.2025772 0.087396152 0.58000004 4289032769
-0.20156685 0.087396152 0.58000004 4288573765
-0.20055649 0.087396152 0.58000004 4288310593
-0.19954613 0.087396152 0.58000004 4288965175
-0.2624332 0.082157083 0.53900003 4287529354
-0.26100913 0.082004666 0.53800005 4282989637
-0.26007193 0.082004666 0.53800005 4284104763
-0.25913474 0.082004666 0.53800005 4285091658
-0.25819752 0.082004666 0.53800005 4285353794
-0.25726035 0.082004666 0.53800005 4285353794
-0.25584671 0.081852227 0.537 4285353794
-0.25443652 0.081699811 0.53600001 4285353794
-0.25302988 0.081547387 0.53500003 4285420089
-0.2516267 0.081394956 0.53400004 4285420089
-0.25069648 0.081394956 0.53400004 4285748287
-0.24883077 0.0810901 0.53200001 4285814080
-0.24743807 0.080937684 0.53100002 4285945416
-0.24651305 0.080937684 0.53100002 4285945416
-0.24558805 0.080937684 0.53100002 4286142533
-0.2442023 0.08078526 0.53000003 4286142533
-0.24327905 0.08078526 0.53000003 4286142027
-0.24235579 0.08078526 0.53000003 4286208076
-0.2414325 0.08078526 0.53000003 4286142281
-0.24096304 0.080937684 0.53100002 4286273868
-0.24003805 0.080937684 0.53100002 4286273870
-0.23911303 0.080937684 0.53100002 4286208076
-0.23818803 0.080937684 0.53100002 4286142529
-0.23726304 0.080937684 0.53100002 4285945150
-0.2367831 0.0810901 0.53200001 4286141496
-0.23585635 0.0810901 0.53200001 4286141496
-0.23492962 0.0810901 0.53200001 4286271289
-0.23400287 0.0810901 0.53200001 4285810738
-0.23307614 0.0810901 0.53200001 4286271301
-0.23214939 0.0810901 0.53200001 4286402887
-0.23122266 0.0810901 0.53200001 4286797130
-0.23072882 0.081242539 0.53300005 4287060301
-0.22980031 0.081242539 0.53300005 4286863197
-0.22887182 0.081242539 0.53300005 4286139731
-0.22794336 0.081242539 0.53300005 4286204744
-0.22701487 0.081242539 0.53300005 4286007109
-0.22608636 0.081242539 0.53300005 4286203959
-0.22558032 0.081394956 0.53400004 4286006836
-0.2246501 0.081394956 0.53400004 4286005301
-0.22371985 0.081394956 0.53400004 4286005301
-0.22278965 0.081394956 0.53400004 4286136367
-0.22227487 0.081547387 0.53500003 4285939245
-0.22175662 0.081699811 0.53600001 4286070322
-0.2208229 0.081699811 0.53600001 4285938993
-0.21988919 0.081699811 0.53600001 4286070574
-0.21895549 0.081699811 0.53600001 4286070574
-0.21842852 0.081852227 0.537 4285939243
-0.21749307 0.081852227 0.537 4285939243
-0.21696091 0.082004666 0.53800005 4285743147
-0.21642524 0.082157083 0.53900003 4285677353
-0.21588609 0.082309507 0.54000002 4285676590
-0.21494541 0.082309507 0.54000002 4285478955
-0.21440102 0.082461931 0.54100001 4285610545
-0.2134586 0.082461931 0.54100001 4285676338
-0.21251617 0.082461931 0.54100001 4285873199
-0.21196486 0.082614362 0.54200006 4285873199
-0.21141003 0.082766786 0.54300004 4285873713
-0.21123929 0.083071627 0.54500002 4285873713
-0.21067576 0.083224058 0.546 4286138686
-0.21010874 0.083376482 0.54700005 4287256910
-0.20992061 0.083681338 0.54900002 4287257653
-0.20896424 0.083681338 0.54900002 4287323446
-0.20838676 0.083833754 0.55000001 4287455059
-0.20818296 0.084138609 0.55200005 4287126094
-0.20759678 0.084291041 0.55300003 4287125563
-0.20700711 0.084443457 0.55400002 4287191356
-0.20641395 0.084595881 0.55500001 4287191356
-0.2061875 0.084900737 0.55700004 4287323198
-0.20595406 0.085205585 0.55900002 4287586102
-0.20571367 0.08551044 0.56100005 4287520309
-0.20510136 0.085662864 0.56200004 4287586354
-0.20448557 0.085815281 0.56300002 4287520561
-0.20422775 0.086120129 0.565 4287586354
-0.20324351 0.086120129 0.565 4287586354
-0.20626241 0.088254094 0.57900006 4287849522
-0.20525379 0.088254094 0.57900006 4288111413
-0.20424518 0.088254094 0.57900006 4288111413
-0.20358758 0.088406511 0.58000004 4288441148
-0.2025772 0.088406511 0.58000004 4288835906
-0.20156685 0.088406511 0.58000004 4288706116
-0.20055649 0.088406511 0.58000004 4288706116
-0.19954613 0.088406511 0.58000004 4288835915
-0.26100913 0.082941853 0.53800005 4283385177
-0.26007193 0.082941853 0.53800005 4283446830
-0.25913474 0.082941853 0.53800005 4284894277
-0.25819752 0.082941853 0.53800005 4285091910
-0.25726035 0.082941853 0.53800005 4285157703
-0.25584671 0.082787685 0.537 4285222726
-0.25443652 0.082633518 0.53600001 4285222726
-0.25302988 0.082479358 0.53500003 4285222463
-0.2516267 0.08232519 0.53400004 4285419585
-0.25069648 0.08232519 0.53400004 4285420609
-0.24883077 0.082016848 0.53200001 4285617732
-0.24743807 0.081862681 0.53100002 4285617480
-0.24651305 0.081862681 0.53100002 4285749322
-0.24558805 0.081862681 0.53100002 4286142794
-0.24466306 0.081862681 0.53100002 4286011465
-0.24373804 0.081862681 0.53100002 4286142544
-0.24281307 0.081862681 0.53100002 4286142544
-0.24188805 0.081862681 0.53100002 4286208326
-0.24096304 0.081862681 0.53100002 4286208326
-0.24003805 0.081862681 0.53100002 4286207822
-0.23911303 0.081862681 0.53100002 4286142029
-0.23818803 0.081862681 0.53100002 4286076484
-0.23726304 0.081862681 0.53100002 4286010691
-0.23633803 0.081862681 0.53100002 4286010432
-0.23585635 0.082016848 0.53200001 4285878589
-0.23492962 0.082016848 0.53200001 4286139701
-0.23400287 0.082016848 0.53200001 4285810736
-0.23307614 0.082016848 0.53200001 4286401603
-0.23214939 0.082016848 0.53200001 4286533190
-0.23122266 0.082016848 0.53200001 4286995541
-0.23072882 0.082171023 0.53300005 4286929748
-0.22980031 0.082171023 0.53300005 4286995040
-0.22887182 0.082171023 0.53300005 4286008144
-0.22794336 0.082171023 0.53300005 4286138182
-0.22701487 0.082171023 0.53300005 4286006596
-0.22608636 0.082171023 0.53300005 4286137662
-0.2251579 0.082171023 0.53300005 4285874746
-0.2246501 0.08232519 0.53400004 4285808690
-0.22371985 0.08232519 0.53400004 4285742897
-0.22278965 0.08232519 0.53400004 4285807919
-0.22227487 0.082479358 0.53500003 4285807919
-0.22175662 0.082633518 0.53600001 4285807919
-0.2208229 0.082633518 0.53600001 4285873713
-0.21988919 0.082633518 0.53600001 4286005812
-0.21936397 0.082787685 0.537 4285611054
-0.21842852 0.082787685 0.537 4285675557
-0.21789812 0.082941853 0.53800005 4285807143
-0.21696091 0.082941853 0.53800005 4285807143
-0.21642524 0.083096027 0.53900003 4285807143
-0.21588609 0.083250187 0.54000002 4285675820
-0.21494541 0.083250187 0.54000002 4285741613
-0.21440102 0.083404355 0.54100001 4285610545
-0.2134586 0.083404355 0.54100001 4285939254
-0.21290903 0.08355853 0.54200006 4285808440
-0.21235593 0.08371269 0.54300004 4285939769
-0.21179935 0.083866857 0.54400003 4286136619
-0.21123929 0.084021024 0.54500002 4286531377
-0.21067576 0.084175184 0.546 4286796087
-0.21010874 0.084329359 0.54700005 4287190845
-0.20992061 0.084637694 0.54900002 4287125563
-0.20896424 0.084637694 0.54900002 4287388991
-0.20876564 0.084946021 0.551 4287520337
-0.20856011 0.085254364 0.55300003 4287125579
-0.20797217 0.085408531 0.55400002 4287059254
-0.20738076 0.085562691 0.55500001 4287059254
-0.20641395 0.085562691 0.55500001 4287059758
-0.2061875 0.085871026 0.55700004 4287454516
-0.20595406 0.086179361 0.55900002 4287521595
-0.20571367 0.086487703 0.56100005 4287323959
-0.20473643 0.086487703 0.56100005 4287454516
-0.20448557 0.08679603 0.56300002 4287454516
-0.20422775 0.087104358 0.565 4287650862
-0.20324351 0.087104358 0.565 4287716655
-0.20626241 0.089262709 0.57900006 4287782964
-0.20525379 0.089262709 0.57900006 4288111161
-0.20424518 0.089262709 0.57900006 4287979575
-0.20358758 0.089416876 0.58000004 4288176956
-0.2025772 0.089416876 0.58000004 4288900679
-0.20156685 0.089416876 0.58000004 4288640067
-0.20055649 0.089416876 0.58000004 4288837702
-0.19954613 0.089416876 0.58000004 4288771657
-0.19853577 0.089416876 0.58000004 4287258418
-0.26246455 0.084346779 0.54100001 4284305465
-0.26152211 0.084346779 0.54100001 4282986046
-0.25961637 0.084034957 0.53900003 4284038477
-0.25867745 0.084034957 0.53900003 4285025611
-0.25726035 0.083879054 0.53800005 4285157453
-0.25632313 0.083879054 0.53800005 4285157453
-0.25491124 0.083723143 0.537 4284959818
-0.25350282 0.083567232 0.53600001 4284893759
-0.2516267 0.083255418 0.53400004 4284893759
-0.25069648 0.083255418 0.53400004 4285223228
-0.24883077 0.082943596 0.53200001 4285289021
-0.24743807 0.082787685 0.53100002 4285420609
-0.24651305 0.082787685 0.53100002 4285420609
-0.24558805 0.082787685 0.53100002 4285879875
-0.24466306 0.082787685 0.53100002 4286011461
-0.24373804 0.082787685 0.53100002 4286208858
-0.24281307 0.082787685 0.53100002 4286077016
-0.24188805 0.082787685 0.53100002 4286076484
-0.24096304 0.082787685 0.53100002 4285615933
-0.24003805 0.082787685 0.53100002 4285944135
-0.23911303 0.082787685 0.53100002 4285878341
-0.23818803 0.082787685 0.53100002 4285878593
-0.23726304 0.082787685 0.53100002 4285812544
-0.23633803 0.082787685 0.53100002 4285878330
-0.23585635 0.082943596 0.53200001 4285680695
-0.23492962 0.082943596 0.53200001 4286007600
-0.23400287 0.082943596 0.53200001 4286073393
-0.23307614 0.082943596 0.53200001 4286204992
-0.23214939 0.082943596 0.53200001 4286270785
-0.23122266 0.082943596 0.53200001 4285943621
-0.23072882 0.083099514 0.53300005 4285877828
-0.22980031 0.083099514 0.53300005 4286138695
-0.22887182 0.083099514 0.53300005 4286007109
-0.22794336 0.083099514 0.53300005 4286203711
-0.22701487 0.083099514 0.53300005 4286006332
-0.22608636 0.083099514 0.53300005 4286006834
-0.2251579 0.083099514 0.53300005 4285546283
-0.2246501 0.083255418 0.53400004 4285873713
-0.22371985 0.083255418 0.53400004 4285807919
-0.22278965 0.083255418 0.53400004 4285807919
-0.22227487 0.083411328 0.53500003 4285807919
-0.22175662 0.083567232 0.53600001 4285807919
-0.2208229 0.083567232 0.53600001 4285676590
-0.21988919 0.083567232 0.53600001 4285806893
-0.21936397 0.083723143 0.537 4285609258
-0.21883529 0.083879054 0.53800005 4285675557
-0.21789812 0.083879054 0.53800005 4285675557
-0.21736418 0.084034957 0.53900003 4285675557
-0.21642524 0.084034957 0.53900003 4285675557
-0.21588609 0.084190868 0.54000002 4285609771
-0.21494541 0.084190868 0.54000002 4285675820
-0.21440102 0.084346779 0.54100001 4285675568
-0.21385318 0.084502697 0.54200006 4285807154
-0.21330184 0.0846586 0.54300004 4286135865
-0.21235593 0.0846586 0.54300004 4286530623
-0.21179935 0.084814504 0.54400003 4286402607
-0.21123929 0.084970407 0.54500002 4286797365
-0.21067576 0.085126318 0.546 4286797363
-0.21010874 0.085282236 0.54700005 4286797363
-0.21030298 0.085749961 0.55000001 4286928942
-0.20934486 0.085749961 0.55000001 4287126065
-0.20914456 0.086061776 0.55200005 4287124798
-0.20856011 0.086217687 0.55300003 4286796089
-0.20834757 0.086529501 0.55500001 4286927164
-0.20738076 0.086529501 0.55500001 4287059006
-0.20641395 0.086529501 0.55500001 4287258155
-0.20655768 0.086997233 0.55800003 4287323948
-0.20595406 0.087153144 0.55900002 4287652399
-0.20571367 0.087464958 0.56100005 4287388971
-0.20473643 0.087464958 0.56100005 4287520309
-0.20448557 0.087776773 0.56300002 4287520309
-0.20422775 0.088088594 0.565 4287586354
-0.20324351 0.088088594 0.565 4287586354
-0.20626241 0.090271324 0.57900006 4287717941
-0.20525379 0.090271324 0.57900006 4287914804
-0.20459794 0.090427235 0.58000004 4287980597
-0.20358758 0.090427235 0.58000004 4288112197
-0.2025772 0.090427235 0.58000004 4288769870
-0.20156685 0.090427235 0.58000004 4288771644
-0.20055649 0.090427235 0.58000004 4288837693
-0.19954613 0.090427235 0.58000004 4288968007
-0.19853577 0.090427235 0.58000004 4288573249
-0.26340696 0.085289203 0.54100001 4291213251
-0.26246455 0.085289203 0.54100001 4285423210
-0.26152211 0.085289203 0.54100001 4284760910
-0.26057971 0.085289203 0.54100001 4284036930
-0.25867745 0.084973902 0.53900003 4284236358
-0.25726035 0.084816247 0.53800005 4285025874
-0.25632313 0.084816247 0.53800005 4284961101
-0.25491124 0.084658593 0.537 4284763722
-0.25350282 0.084500939 0.53600001 4284696884
-0.2516267 0.084185645 0.53400004 4284696884
-0.250227 0.084027998 0.53300005 4285025081
-0.24883077 0.083870336 0.53200001 4285353790
-0.24743807 0.08371269 0.53100002 4285420357
-0.24651305 0.08371269 0.53100002 4285420357
-0.24558805 0.08371269 0.53100002 4285551687
-0.24466306 0.08371269 0.53100002 4285815115
-0.24373804 0.08371269 0.53100002 4286011736
-0.24281307 0.08371269 0.53100002 4285814613
-0.24188805 0.08371269 0.53100002 4286076488
-0.24096304 0.08371269 0.53100002 4285681730
-0.24003805 0.08371269 0.53100002 4286074951
-0.23911303 0.08371269 0.53100002 4285812035
-0.23818803 0.08371269 0.53100002 4285746492
-0.23726304 0.08371269 0.53100002 4285746492
-0.23633803 0.08371269 0.53100002 4286073404
-0.23585635 0.083870336 0.53200001 4286007611
-0.23492962 0.083870336 0.53200001 4286007611
-0.23400287 0.083870336 0.53200001 4286007611
-0.23307614 0.083870336 0.53200001 4285812035
-0.23214939 0.083870336 0.53200001 4285812035
-0.23122266 0.083870336 0.53200001 4285877828
-0.23072882 0.084027998 0.53300005 4285680193
-0.22980031 0.084027998 0.53300005 4285679941
-0.22887182 0.084027998 0.53300005 4285614148
-0.22794336 0.084027998 0.53300005 4285743930
-0.22701487 0.084027998 0.53300005 4285546295
-0.22651054 0.084185645 0.53400004 4285807669
-0.22558032 0.084185645 0.53400004 4285676084
-0.2246501 0.084185645 0.53400004 4285610545
-0.22371985 0.084185645 0.53400004 4285610545
-0.22320685 0.084343299 0.53500003 4285610545
-0.22227487 0.084343299 0.53500003 4285610545
-0.22175662 0.084500939 0.53600001 4285610545
-0.2208229 0.084500939 0.53600001 4285478703
-0.21988919 0.084500939 0.53600001 4285675307
-0.21936397 0.084658593 0.537 4285609258
-0.21883529 0.084816247 0.53800005 4285609764
-0.21789812 0.084816247 0.53800005 4285477921
-0.21736418 0.084973902 0.53900003 4285347105
-0.21682675 0.085131548 0.54000002 4285412898
-0.21588609 0.085131548 0.54000002 4285609771
-0.21534345 0.085289203 0.54100001 4285609771
-0.21440102 0.085289203 0.54100001 4285609775
-0.21385318 0.085446857 0.54200006 4286070326
-0.21330184 0.085604504 0.54300004 4286071605
-0.21274699 0.085762151 0.54400003 4286729792
-0.21179935 0.085762151 0.54400003 4286535229
-0.21123929 0.085919805 0.54500002 4286535229
-0.21106163 0.086235113 0.54700005 4286469432
-0.21049285 0.086392753 0.54800004 4286469432
-0.20992061 0.086550407 0.54900002 4286797113
-0.2097255 0.086865708 0.551 4286665784
-0.20914456 0.08702337 0.55200005 4286862908
-0.20893724 0.087338664 0.55400002 4286665530
-0.20834757 0.08749631 0.55500001 4286730292
-0.20738076 0.08749631 0.55500001 4286993463
-0.20641395 0.08749631 0.55500001 4287389493
-0.20655768 0.087969273 0.55800003 4287520822
-0.20595406 0.088126913 0.55900002 4287455800
-0.20534697 0.088284567 0.56 4287258164
-0.20510136 0.088599876 0.56200004 4287454264
-0.20484877 0.088915169 0.56400001 4287520057
-0.20525379 0.091279946 0.57900006 4287914552
-0.20459794 0.091437593 0.58000004 4287980345
-0.20393857 0.09159524 0.58100003 4288242749
-0.20292649 0.09159524 0.58100003 4288900679
-0.20191437 0.09159524 0.58100003 4288901951
-0.20055649 0.091437593 0.58000004 4289099073
-0.19954613 0.091437593 0.58000004 4288968007
-0.19853577 0.091437593 0.58000004 4288902214
-0.26246455 0.086231619 0.54100001 4288581013
-0.26152211 0.086231619 0.54100001 4285424003
-0.26057971 0.086231619 0.54100001 4282463575
-0.25867745 0.085912839 0.53900003 4283644991
-0.25678211 0.085594051 0.537 4284105542
-0.25584671 0.085594051 0.537 4284303169
-0.25491124 0.085594051 0.537 4284303169
-0.25350282 0.08543466 0.53600001 4284630835
-0.2511555 0.084956482 0.53300005 4284696884
-0.250227 0.084956482 0.53300005 4284893239
-0.24883077 0.084797084 0.53200001 4284893239
-0.24743807 0.084637694 0.53100002 4285091126
-0.24651305 0.084637694 0.53100002 4285091126
-0.24558805 0.084637694 0.53100002 4285287486
-0.24466306 0.084637694 0.53100002 4285353279
-0.24373804 0.084637694 0.53100002 4285352779
-0.24281307 0.084637694 0.53100002 4285220937
-0.24188805 0.084637694 0.53100002 4285681215
-0.24096304 0.084637694 0.53100002 4285681215
-0.24003805 0.084637694 0.53100002 4285813050
-0.23911303 0.084637694 0.53100002 4285681465
-0.23818803 0.084637694 0.53100002 4285812537
-0.23726304 0.084637694 0.53100002 4285746488
-0.23633803 0.084637694 0.53100002 4285746488
-0.23585635 0.084797084 0.53200001 4285614902
-0.23492962 0.084797084 0.53200001 4285941302
-0.23400287 0.084797084 0.53200001 4285875509
-0.23307614 0.084797084 0.53200001 4285614398
-0.23214939 0.084797084 0.53200001 4285614398
-0.23122266 0.084797084 0.53200001 4285483068
-0.23072882 0.084956482 0.53300005 4285219896
-0.22980031 0.084956482 0.53300005 4285417023
-0.22887182 0.084956482 0.53300005 4285417023
-0.22794336 0.084956482 0.53300005 4285743930
-0.22701487 0.084956482 0.53300005 4285480501
-0.22651054 0.085115872 0.53400004 4285807669
-0.22558032 0.085115872 0.53400004 4285676084
-0.2246501 0.085115872 0.53400004 4285676338
-0.22371985 0.085115872 0.53400004 4285610545
-0.22320685 0.085275263 0.53500003 4285610545
-0.22269034 0.08543466 0.53600001 4285610545
-0.22175662 0.08543466 0.53600001 4285676088
-0.2208229 0.08543466 0.53600001 4285610295
-0.22029944 0.085594051 0.537 4285675820
-0.21977249 0.085753448 0.53800005 4285609771
-0.21883529 0.085753448 0.53800005 4285479198
-0.21830311 0.085912839 0.53900003 4285413148
-0.21776743 0.086072229 0.54000002 4285478696
-0.21682675 0.086072229 0.54000002 4285610025
-0.21588609 0.086072229 0.54000002 4285610541
-0.21534345 0.086231619 0.54100001 4285544748
-0.21479735 0.086391024 0.54200006 4285873463
-0.21424773 0.086550415 0.54300004 4286334014
-0.21330184 0.086550415 0.54300004 4286270254
-0.21274699 0.086709797 0.54400003 4286730805
-0.21179935 0.086709797 0.54400003 4286469938
-0.21123929 0.086869188 0.54500002 4286338096
-0.21106163 0.087187983 0.54700005 4286337586
-0.21087696 0.087506764 0.54900002 4286271537
-0.20992061 0.087506764 0.54900002 4286336049
-0.2097255 0.087825552 0.551 4285875498
-0.20914456 0.087984949 0.55200005 4286729771
-0.20893724 0.08830373 0.55400002 4286795564
-0.20834757 0.08846312 0.55500001 4286730544
-0.20738076 0.08846312 0.55500001 4286796337
-0.20678589 0.088622518 0.55600005 4287322914
-0.20655768 0.088941306 0.55800003 4287388708
-0.20632249 0.089260086 0.56 4287192110
-0.20534697 0.089260086 0.56 4286797352
-0.20510136 0.089578882 0.56200004 4287454001
-0.20521197 0.090057045 0.565 4287454001
-0.20525379 0.092288561 0.57900006 4288045368
-0.20459794 0.092447951 0.58000004 4288243003
-0.20393857 0.092607342 0.58100003 4288309571
-0.20292649 0.092607342 0.58100003 4288638793
-0.20191437 0.092607342 0.58100003 4288836671
-0.20090227 0.092607342 0.58100003 4288836671
-0.19989017 0.092607342 0.58100003 4288968007
-0.25678211 0.086529501 0.537 4283776843
-0.25584671 0.086529501 0.537 4284235329
-0.25443652 0.086368367 0.53600001 4284301122
-0.25350282 0.086368367 0.53600001 4284498222
-0.2511555 0.085884973 0.53300005 4284761393
-0.250227 0.085884973 0.53300005 4284696371
-0.24883077 0.085723825 0.53200001 4284762164
-0.24743807 0.085562691 0.53100002 4285024568
-0.24651305 0.085562691 0.53100002 4285024568
-0.24558805 0.085562691 0.53100002 4285352245
-0.24466306 0.085562691 0.53100002 4285352245
-0.24373804 0.085562691 0.53100002 4285351993
-0.24281307 0.085562691 0.53100002 4285418042
-0.24188805 0.085562691 0.53100002 4285680963
-0.24096304 0.085562691 0.53100002 4285680963
-0.24003805 0.085562691 0.53100002 4285681215
-0.23911303 0.085562691 0.53100002 4285615422
-0.23818803 0.085562691 0.53100002 4285615420
-0.23726304 0.085562691 0.53100002 4285615420
-0.23633803 0.085562691 0.53100002 4285746492
-0.23541304 0.085562691 0.53100002 4285614650
-0.23448803 0.085562691 0.53100002 4285482548
-0.23356302 0.085562691 0.53100002 4285416755
-0.23307614 0.085723825 0.53200001 4285482802
-0.23214939 0.085723825 0.53200001 4285285424
-0.23122266 0.085723825 0.53200001 4285285174
-0.23072882 0.085884973 0.53300005 4285087794
-0.22980031 0.085884973 0.53300005 4285480242
-0.22887182 0.085884973 0.53300005 4285808951
-0.22794336 0.085884973 0.53300005 4285483322
-0.22744076 0.0860461 0.53400004 4285022771
-0.22651054 0.0860461 0.53400004 4285480242
-0.22558032 0.0860461 0.53400004 4285414193
-0.22507077 0.086207233 0.53500003 4285545265
-0.22413881 0.086207233 0.53500003 4285479216
-0.22362405 0.086368367 0.53600001 4285347887
-0.22269034 0.086368367 0.53600001 4285347887
-0.22175662 0.086368367 0.53600001 4285546035
-0.2208229 0.086368367 0.53600001 4285348400
-0.22029944 0.086529501 0.537 4285478696
-0.21977249 0.086690642 0.53800005 4285478696
-0.21924205 0.086851776 0.53900003 4285478692
-0.21830311 0.086851776 0.53900003 4285347105
-0.21776743 0.087012909 0.54000002 4285282344
-0.21682675 0.087012909 0.54000002 4285611308
-0.21628587 0.087174043 0.54100001 4285546031
-0.21574152 0.087335184 0.54200006 4285677617
-0.21479735 0.087335184 0.54200006 4285940019
-0.21424773 0.087496318 0.54300004 4286203448
-0.21330184 0.087496318 0.54300004 4286139701
-0.21274699 0.087657452 0.54400003 4286534459
-0.21179935 0.087657452 0.54400003 4286207039
-0.21123929 0.087818585 0.54500002 4286141246
-0.21106163 0.08814086 0.54700005 4286468664
-0.21126106 0.088624254 0.55000001 4286271541
-0.21030298 0.088624254 0.55000001 4286203948
-0.21010613 0.088946536 0.55200005 4286138154
-0.20952342 0.08910767 0.55300003 4286728999
-0.20931438 0.08942993 0.55500001 4286860328
-0.20834757 0.08942993 0.55500001 4286861348
-0.20738076 0.08942993 0.55500001 4286861348
-0.20678589 0.089591071 0.55600005 4286861348
-0.20655768 0.089913338 0.55800003 4287058727
-0.20632249 0.090235606 0.56 4287321647
-0.20534697 0.090235606 0.56 4287255854
-0.2054663 0.090719014 0.56300002 4287388206
-0.20521197 0.091041282 0.565 4287388206
-0.20567361 0.091685817 0.56900001 4287584817
-0.20540185 0.092008099 0.57100004 4287782452
-0.20476516 0.092169233 0.57200003 4287652148
-0.20525379 0.093297184 0.57900006 4287914552
-0.20459794 0.093458317 0.58000004 4288177723
-0.20393857 0.093619451 0.58100003 4288572479
-0.20292649 0.093619451 0.58100003 4288835652
-0.20191437 0.093619451 0.58100003 4288836419
-0.20090227 0.093619451 0.58100003 4288968005
-0.25678211 0.087464951 0.537 4282923603
-0.25584671 0.087464951 0.537 4283840319
-0.25443652 0.087302081 0.53600001 4284169284
-0.25350282 0.087302081 0.53600001 4284235568
-0.2516267 0.086976334 0.53400004 4284498483
-0.250227 0.086813457 0.53300005 4284498222
-0.24929854 0.086813457 0.53300005 4284432429
-0.24790403 0.086650573 0.53200001 4284826673
-0.24697728 0.086650573 0.53200001 4285089589
-0.24558805 0.086487696 0.53100002 4285220916
-0.24466306 0.086487696 0.53100002 4285352245
-0.24373804 0.086487696 0.53100002 4285351995
-0.24281307 0.086487696 0.53100002 4285351995
-0.24188805 0.086487696 0.53100002 4285549627
-0.24096304 0.086487696 0.53100002 4285483834
-0.24003805 0.086487696 0.53100002 4285483832
-0.23911303 0.086487696 0.53100002 4285483832
-0.23818803 0.086487696 0.53100002 4285418290
-0.23726304 0.086487696 0.53100002 4285221168
-0.23633803 0.086487696 0.53100002 4285548597
-0.23541304 0.086487696 0.53100002 4285548597
-0.23448803 0.086487696 0.53100002 4285482548
-0.23356302 0.086487696 0.53100002 4285482548
-0.23307614 0.086650573 0.53200001 4285482802
-0.23214939 0.086650573 0.53200001 4285417009
-0.23122266 0.086650573 0.53200001 4285482802
-0.23072882 0.086813457 0.53300005 4285219631
-0.23023146 0.086976334 0.53400004 4285285424
-0.22930124 0.086976334 0.53400004 4285219631
-0.22837101 0.086976334 0.53400004 4285677617
-0.22786669 0.087139204 0.53500003 4285546031
-0.22693472 0.087139204 0.53500003 4285546031
-0.22600274 0.087139204 0.53500003 4285414445
-0.22507077 0.087139204 0.53500003 4285545265
-0.22455776 0.087302081 0.53600001 4285545265
-0.22362405 0.087302081 0.53600001 4285479216
-0.22269034 0.087302081 0.53600001 4285479216
-0.22175662 0.087302081 0.53600001 4285414445
-0.22123489 0.087464951 0.537 4285282859
-0.22029944 0.087464951 0.537 4285478696
-0.21977249 0.087627843 0.53800005 4285478696
-0.21924205 0.087790713 0.53900003 4285478696
-0.21870811 0.08795359 0.54000002 4285478696
-0.2181707 0.08811646 0.54100001 4285479722
-0.21722828 0.08811646 0.54100001 4285611308
-0.21628587 0.08811646 0.54100001 4285678889
-0.21574152 0.088279352 0.54200006 4285678889
-0.21519364 0.088442221 0.54300004 4285744682
-0.21424773 0.088442221 0.54300004 4285876011
-0.21369465 0.088605098 0.54400003 4286007336
-0.21274699 0.088605098 0.54400003 4286007336
-0.21218868 0.088767968 0.54500002 4285941806
-0.21162689 0.088930845 0.546 4285876013
-0.21106163 0.08909373 0.54700005 4286138416
-0.21164517 0.089745238 0.551 4286007086
-0.21068533 0.089745238 0.551 4286269993
-0.21010613 0.089908116 0.55200005 4286335786
-0.20952342 0.090070993 0.55300003 4286533151
-0.20931438 0.090396747 0.55500001 4286533151
-0.20834757 0.090396747 0.55500001 4286796068
-0.20738076 0.090396747 0.55500001 4286796068
-0.20715781 0.090722501 0.55700004 4286730544
-0.20655768 0.090885378 0.55800003 4286664750
-0.20632249 0.091211125 0.56 4286927416
-0.20571367 0.091374017 0.56100005 4287125051
-0.2054663 0.091699764 0.56300002 4287388206
-0.20521197 0.092025511 0.565 4287388206
-0.20567361 0.09267702 0.56900001 4287520309
-0.20540185 0.093002781 0.57100004 4287586102
-0.20476516 0.093165651 0.57200003 4287782964
-0.20376873 0.093165651 0.57200003 4287848757
-0.20489928 0.094142914 0.57800001 4287914815
-0.20424518 0.094305798 0.57900006 4288046401
-0.20393857 0.094631545 0.58100003 4288639797
-0.20292649 0.094631545 0.58100003 4288771126
-0.20191437 0.094631545 0.58100003 4288837191
-0.20090227 0.094631545 0.58100003 4288837191
-0.25584671 0.088400409 0.537 4283577133
-0.25443652 0.088235788 0.53600001 4284103477
-0.25350282 0.088235788 0.53600001 4284169786
-0.25209793 0.088071175 0.53500003 4284038201
-0.250227 0.087741941 0.53300005 4284301092
-0.24929854 0.087741941 0.53300005 4284301092
-0.24837005 0.087741941 0.53300005 4284694318
-0.24697728 0.087577321 0.53200001 4284957489
-0.24605055 0.087577321 0.53200001 4285089841
-0.24512382 0.087577321 0.53200001 4285155634
-0.24419707 0.087577321 0.53200001 4285155384
-0.24281307 0.087412693 0.53100002 4285155384
-0.24188805 0.087412693 0.53100002 4285351993
-0.24096304 0.087412693 0.53100002 4285220664
-0.24003805 0.087412693 0.53100002 4285220914
-0.23911303 0.087412693 0.53100002 4285220914
-0.23818803 0.087412693 0.53100002 4285482802
-0.23726304 0.087412693 0.53100002 4285285424
-0.23633803 0.087412693 0.53100002 4285285424
-0.23541304 0.087412693 0.53100002 4285417009
-0.23492962 0.087577321 0.53200001 4285482802
-0.23400287 0.087577321 0.53200001 4285482802
-0.23307614 0.087577321 0.53200001 4285285424
-0.23214939 0.087577321 0.53200001 4285285424
-0.23165731 0.087741941 0.53300005 4285482802
-0.23072882 0.087741941 0.53300005 4285219631
-0.23023146 0.087906562 0.53400004 4285087279
-0.22930124 0.087906562 0.53400004 4285087279
-0.22837101 0.087906562 0.53400004 4285153324
-0.22786669 0.088071175 0.53500003 4285153324
-0.22693472 0.088071175 0.53500003 4285545265
-0.22600274 0.088071175 0.53500003 4285347887
-0.22549146 0.088235788 0.53600001 4285282094
-0.22455776 0.088235788 0.53600001 4285347887
-0.22362405 0.088235788 0.53600001 4285347887
-0.22269034 0.088235788 0.53600001 4285347887
-0.22175662 0.088235788 0.53600001 4285347887
-0.22123489 0.088400409 0.537 4285282094
-0.22029944 0.088400409 0.537 4285478696
-0.21977249 0.088565037 0.53800005 4285478696
-0.21924205 0.088729657 0.53900003 4285478692
-0.21870811 0.08889427 0.54000002 4285741863
-0.2181707 0.089058883 0.54100001 4285414695
-0.21722828 0.089058883 0.54100001 4285480488
-0.21668568 0.089223512 0.54200006 4285678119
-0.21613955 0.089388125 0.54300004 4285678119
-0.21519364 0.089388125 0.54300004 4285875759
-0.21464229 0.089552745 0.54400003 4285612844
-0.21369465 0.089552745 0.54400003 4285677092
-0.21274699 0.089552745 0.54400003 4285940008
-0.21257801 0.089881979 0.546 4286072107
-0.2120145 0.090046607 0.54700005 4285940521
-0.21144748 0.09021122 0.54800004 4286006566
-0.21087696 0.090375841 0.54900002 4286204201
-0.21068533 0.090705074 0.551 4286269993
-0.21048675 0.091034316 0.55300003 4286335786
-0.2099023 0.091198936 0.55400002 4286466854
-0.20931438 0.091363557 0.55500001 4286598696
-0.20834757 0.091363557 0.55500001 4286598442
-0.20775443 0.091528177 0.55600005 4286729771
-0.20715781 0.091692798 0.55700004 4286992176
-0.20655768 0.091857411 0.55800003 4286992176
-0.20632249 0.092186652 0.56 4286927668
-0.20571367 0.092351273 0.56100005 4287125047
-0.20583126 0.09284512 0.56400001 4287322163
-0.2055752 0.093174368 0.56600004 4287651127
-0.20603508 0.093832843 0.57000005 4287520057
-0.20576158 0.094162077 0.57200003 4287520057
-0.20476516 0.094162077 0.57200003 4287716918
-0.20412497 0.094326697 0.57300001 4287782712
-0.20489928 0.095149793 0.57800001 4288045368
-0.20389239 0.095149793 0.57800001 4288243003
-0.20393857 0.095643647 0.58100003 4288836419
-0.20292649 0.095643647 0.58100003 4288968005
-0.20226189 0.095808268 0.58200002 4288771657
-0.25443652 0.089169502 0.53600001 4283710005
-0.25350282 0.089169502 0.53600001 4283972669
-0.25209793 0.089003146 0.53500003 4283643960
-0.250227 0.088670425 0.53300005 4283973145
-0.24929854 0.088670425 0.53300005 4284170524
-0.24837005 0.088670425 0.53300005 4284564015
-0.24697728 0.088504054 0.53200001 4284761393
-0.24605055 0.088504054 0.53200001 4284762160
-0.24512382 0.088504054 0.53200001 4284696367
-0.24419707 0.088504054 0.53200001 4285155634
-0.24281307 0.088337705 0.53100002 4285155634
-0.24188805 0.088337705 0.53100002 4285155384
-0.24096304 0.088337705 0.53100002 4285155384
-0.24003805 0.088337705 0.53100002 4285220916
-0.23911303 0.088337705 0.53100002 4285089330
-0.23818803 0.088337705 0.53100002 4285155121
-0.23726304 0.088337705 0.53100002 4285089328
-0.23633803 0.088337705 0.53100002 4285089328
-0.23541304 0.088337705 0.53100002 4285089328
-0.23492962 0.088504054 0.53200001 4285219631
-0.23400287 0.088504054 0.53200001 4285219631
-0.23307614 0.088504054 0.53200001 4285023535
-0.23214939 0.088504054 0.53200001 4284891948
-0.23165731 0.088670425 0.53300005 4285153324
-0.23116168 0.088836789 0.53400004 4285153324
-0.23023146 0.088836789 0.53400004 4285153324
-0.22930124 0.088836789 0.53400004 4285021738
-0.22837101 0.088836789 0.53400004 4285021486
-0.22786669 0.089003146 0.53500003 4285087279
-0.22693472 0.089003146 0.53500003 4285087531
-0.22600274 0.089003146 0.53500003 4284889896
-0.22549146 0.089169502 0.53600001 4285282094
-0.22455776 0.089169502 0.53600001 4285282094
-0.22362405 0.089169502 0.53600001 4285282344
-0.22269034 0.089169502 0.53600001 4285282344
-0.22217034 0.089335866 0.537 4285347887
-0.22123489 0.089335866 0.537 4285347887
-0.2207097 0.08950223 0.53800005 4285348137
-0.21977249 0.08950223 0.53800005 4285282344
-0.21964879 0.089834951 0.54000002 4285479718
-0.21911313 0.090001307 0.54100001 4285545511
-0.218574 0.090167679 0.54200006 4285546533
-0.21762984 0.090167679 0.54200006 4285678119
-0.21708545 0.090334035 0.54300004 4285547039
-0.21653759 0.090500399 0.54400003 4285349404
-0.21558996 0.090500399 0.54400003 4285479718
-0.21464229 0.090500399 0.54400003 4285348389
-0.21408747 0.090666749 0.54500002 4285610273
-0.21352915 0.090833113 0.546 4285807908
-0.21296737 0.090999484 0.54700005 4285677092
-0.2120145 0.090999484 0.54700005 4285874215
-0.21183333 0.091332197 0.54900002 4286006566
-0.21087696 0.091332197 0.54900002 4286138152
-0.21068533 0.091664918 0.551 4286269993
-0.21048675 0.091997646 0.55300003 4286269993
-0.21028119 0.092330366 0.55500001 4286466854
-0.20931438 0.092330366 0.55500001 4286466854
-0.20872298 0.09249673 0.55600005 4286466854
-0.20812809 0.092663087 0.55700004 4286598696
-0.20715781 0.092663087 0.55700004 4286796068
-0.20655768 0.092829444 0.55800003 4286796068
-0.20632249 0.093162164 0.56 4286796087
-0.20571367 0.093328536 0.56100005 4287059258
-0.2061962 0.093993969 0.565 4287191356
-0.2055752 0.094160341 0.56600004 4287388991
-0.20567361 0.094659418 0.56900001 4287519555
-0.20576158 0.095158502 0.57200003 4287453762
-0.20476516 0.095158502 0.57200003 4287782462
-0.20412497 0.095324859 0.57300001 4287848255
-0.20489928 0.096156664 0.57800001 4287914815
-0.20389239 0.096156664 0.57800001 4287980608
-0.20428959 0.096822113 0.58200002 4288639295
-0.20327574 0.096822113 0.58200002 4288902210
-0.25443652 0.090103216 0.53600001 4284565562
-0.25350282 0.090103216 0.53600001 4283842116
-0.25256911 0.090103216 0.53600001 4283776323
-0.25116596 0.089935116 0.53500003 4284039722
-0.24976626 0.089767009 0.53400004 4284302637
-0.24883604 0.089767009 0.53400004 4284432427
-0.24744155 0.089598916 0.53300005 4284498220
-0.24605055 0.089430802 0.53200001 4284498222
-0.24512382 0.089430802 0.53200001 4284629808
-0.24419707 0.089430802 0.53200001 4284762164
-0.24281307 0.089262702 0.53100002 4284762164
-0.24188805 0.089262702 0.53100002 4284892467
-0.24096304 0.089262702 0.53100002 4284892467
-0.24003805 0.089262702 0.53100002 4285023285
-0.23911303 0.089262702 0.53100002 4285023285
-0.23818803 0.089262702 0.53100002 4285154351
-0.23726304 0.089262702 0.53100002 4284957228
-0.23633803 0.089262702 0.53100002 4284891435
-0.23541304 0.089262702 0.53100002 4284957228
-0.23537123 0.089598916 0.53300005 4285021738
-0.23444277 0.089598916 0.53300005 4285021738
-0.23351426 0.089598916 0.53300005 4285087531
-0.23258577 0.089598916 0.53300005 4285021738
-0.23165731 0.089598916 0.53300005 4284955945
-0.23116168 0.089767009 0.53400004 4285021738
-0.23023146 0.089767009 0.53400004 4285021486
-0.22930124 0.089767009 0.53400004 4284955693
-0.22837101 0.089767009 0.53400004 4284955180
-0.22786669 0.089935116 0.53500003 4285086509
-0.22735889 0.090103216 0.53600001 4284955693
-0.22642517 0.090103216 0.53600001 4284889900
-0.22549146 0.090103216 0.53600001 4285150757
-0.22455776 0.090103216 0.53600001 4285150757
-0.22362405 0.090103216 0.53600001 4285216550
-0.22269034 0.090103216 0.53600001 4285348137
-0.22217034 0.090271316 0.537 4285347887
-0.22164689 0.090439424 0.53800005 4285347887
-0.22111993 0.090607531 0.53900003 4285348389
-0.22058949 0.090775624 0.54000002 4285282596
-0.22005555 0.090943731 0.54100001 4285348137
-0.21951817 0.091111839 0.54200006 4285611308
-0.21897727 0.091279946 0.54300004 4285677867
-0.21803136 0.091279946 0.54300004 4285546537
-0.21708545 0.091279946 0.54300004 4285348639
-0.21653759 0.091448039 0.54400003 4285151259
-0.21598624 0.091616146 0.54500002 4285281049
-0.21503685 0.091616146 0.54500002 4285281049
-0.21448028 0.091784239 0.546 4285479447
-0.21392025 0.091952354 0.54700005 4285413654
-0.2133567 0.092120454 0.54800004 4285610523
-0.21240209 0.092120454 0.54800004 4285808158
-0.21183333 0.092288561 0.54900002 4286006816
-0.21087696 0.092288561 0.54900002 4286204451
-0.21068533 0.092624761 0.551 4286138917
-0.21048675 0.092960969 0.55300003 4286204711
-0.21028119 0.093297169 0.55500001 4286269993
-0.20969154 0.093465284 0.55600005 4286269993
-0.20909838 0.093633384 0.55700004 4286532379
-0.20812809 0.093633384 0.55700004 4286730014
-0.20752971 0.093801484 0.55800003 4286729771
-0.20729801 0.094137691 0.56 4286598442
-0.20705937 0.094473898 0.56200004 4287057719
-0.20644705 0.094641998 0.56300002 4287386941
-0.2061962 0.094978198 0.565 4287191860
-0.20521197 0.094978198 0.565 4287389239
-0.20567361 0.095650613 0.56900001 4287585850
-0.20576158 0.096154928 0.57200003 4287651644
-0.20476516 0.096154928 0.57200003 4287914300
-0.20412497 0.096323028 0.57300001 4287848507
-0.20489928 0.097163543 0.57800001 4288178242
-0.20389239 0.097163543 0.57800001 4288112449
-0.25397578 0.091206767 0.537 4284763216
-0.25256911 0.091036931 0.53600001 4284302665
-0.25163543 0.091036931 0.53600001 4284500282
-0.25023398 0.090867087 0.53500003 4284566075
-0.249302 0.090867087 0.53500003 4284696367
-0.24790579 0.090697236 0.53400004 4284235816
-0.24651308 0.0905274 0.53300005 4284301092
-0.24558459 0.0905274 0.53300005 4284301092
-0.24511512 0.090697236 0.53400004 4284564528
-0.24372759 0.0905274 0.53300005 4284564528
-0.24234356 0.090357542 0.53200001 4284630321
-0.24096304 0.090187706 0.53100002 4284630321
-0.24003805 0.090187706 0.53100002 4284892217
-0.23911303 0.090187706 0.53100002 4284826424
-0.23818803 0.090187706 0.53100002 4284956978
-0.23770986 0.090357542 0.53200001 4284956978
-0.2367831 0.090357542 0.53200001 4284957478
-0.23585635 0.090357542 0.53200001 4284891685
-0.23537123 0.0905274 0.53300005 4284891435
-0.23444277 0.0905274 0.53300005 4284825386
-0.23351426 0.0905274 0.53300005 4284891435
-0.23258577 0.0905274 0.53300005 4284825386
-0.23209193 0.090697236 0.53400004 4284825390
-0.23159458 0.090867087 0.53500003 4284759341
-0.2306626 0.090867087 0.53500003 4284955693
-0.22973062 0.090867087 0.53500003 4284824106
-0.22879867 0.090867087 0.53500003 4284889386
-0.2282926 0.091036931 0.53600001 4284955180
-0.22735889 0.091036931 0.53600001 4284955693
-0.22642517 0.091036931 0.53600001 4284955693
-0.22549146 0.091036931 0.53600001 4284955432
-0.22455776 0.091036931 0.53600001 4284955432
-0.22404124 0.091206767 0.537 4284955945
-0.22310579 0.091206767 0.537 4285087531
-0.22258408 0.091376625 0.53800005 4285545530
-0.22205886 0.091546461 0.53900003 4285545530
-0.22153017 0.091716312 0.54000002 4285479718
-0.22099797 0.091886155 0.54100001 4285282596
-0.22046234 0.092056006 0.54200006 4285216550
-0.21951817 0.092056006 0.54200006 4285282344
-0.21897727 0.09222585 0.54300004 4285282596
-0.21803136 0.09222585 0.54300004 4285282596
-0.21748525 0.092395693 0.54400003 4285217052
-0.21733367 0.09273538 0.546 4285151259
-0.21638255 0.09273538 0.546 4285347605
-0.21543141 0.09273538 0.546 4285281812
-0.21487312 0.092905231 0.54700005 4285479198
-0.21392025 0.092905231 0.54700005 4285610527
-0.2133567 0.093075074 0.54800004 4285677342
-0.21240209 0.093075074 0.54800004 4285808671
-0.21183333 0.093244918 0.54900002 4286006566
-0.21126106 0.093414754 0.55000001 4286138152
-0.21106772 0.093754455 0.55200005 4286204963
-0.21086738 0.094094142 0.55400002 4286270756
-0.21028119 0.094263978 0.55500001 4286269993
-0.21006867 0.094603673 0.55700004 4286269993
-0.20909838 0.094603673 0.55700004 4286401561
-0.20850176 0.094773524 0.55800003 4286599196
-0.20790163 0.094943367 0.55900002 4286598955
-0.2076682 0.095283061 0.56100005 4286664748
-0.20705937 0.095452897 0.56200004 4286796087
-0.20644705 0.095622741 0.56300002 4287125051
-0.2061962 0.095962435 0.565 4287387956
-0.20521197 0.095962435 0.565 4287651127
-0.20603508 0.096811667 0.57000005 4287849020
-0.20576158 0.097151354 0.57200003 4287849020
-0.20512313 0.09732119 0.57300001 4287980345
-0.20412497 0.09732119 0.57300001 4287914552
-0.20489928 0.098170415 0.57800001 4288112698
-0.20389239 0.098170415 0.57800001 4288178492
-0.20436014 0.1003784 0.59100002 4289165902
-0.20367464 0.10054825 0.59200001 4288969041
-0.20298572 0.1007181 0.59300005 4288903248
-0.25444877 0.092313819 0.53800005 4284829515
-0.25304031 0.092142224 0.537 4284434757
-0.25163543 0.091970637 0.53600001 4284630855
-0.2507017 0.091970637 0.53600001 4284630855
-0.24976799 0.091970637 0.53600001 4284959538
-0.24883428 0.091970637 0.53600001 4284301609
-0.24790055 0.091970637 0.53600001 4284366634
-0.24696684 0.091970637 0.53600001 4284366634
-0.24557412 0.091799058 0.53500003 4284366634
-0.24418487 0.091627471 0.53400004 4284366634
-0.24234356 0.09128429 0.53200001 4284497970
-0.24096304 0.091112703 0.53100002 4284497970
-0.24003805 0.091112703 0.53100002 4284694318
-0.23911303 0.091112703 0.53100002 4284694318
-0.23818803 0.091112703 0.53100002 4284694318
-0.23770986 0.09128429 0.53200001 4284628525
-0.2367831 0.09128429 0.53200001 4284759330
-0.23585635 0.09128429 0.53200001 4284693536
-0.23625444 0.091799058 0.53500003 4284693034
-0.23532246 0.091799058 0.53500003 4284693034
-0.23439048 0.091799058 0.53500003 4284693034
-0.2334585 0.091799058 0.53500003 4284627241
-0.23252656 0.091799058 0.53500003 4284693034
-0.23202744 0.091970637 0.53600001 4284693034
-0.23109373 0.091970637 0.53600001 4284627241
-0.22973062 0.091799058 0.53500003 4284561448
-0.22879867 0.091799058 0.53500003 4284823843
-0.2282926 0.091970637 0.53600001 4284823843
-0.22735889 0.091970637 0.53600001 4284955430
-0.22642517 0.091970637 0.53600001 4284955430
-0.22549146 0.091970637 0.53600001 4284956195
-0.22455776 0.091970637 0.53600001 4284890402
-0.22404124 0.092142224 0.537 4284955432
-0.22352129 0.092313819 0.53800005 4285152554
-0.22299781 0.092485406 0.53900003 4285678137
-0.22247085 0.092656992 0.54000002 4285480501
-0.2219404 0.092828579 0.54100001 4285414695
-0.22140649 0.093000166 0.54200006 4285085986
-0.22046234 0.093000166 0.54200006 4284953115
-0.21992318 0.093171753 0.54300004 4284953115
-0.21897727 0.093171753 0.54300004 4285150494
-0.21803136 0.093171753 0.54300004 4285150494
-0.2182848 0.093686514 0.546 4285084953
-0.21733367 0.093686514 0.546 4285084953
-0.21638255 0.093686514 0.546 4285347355
-0.21543141 0.093686514 0.546 4285281562
-0.21487312 0.0938581 0.54700005 4285217043
-0.21431132 0.094029687 0.54800004 4285414165
-0.21374604 0.094201274 0.54900002 4285611043
-0.21278967 0.094201274 0.54900002 4285808421
-0.21221918 0.094372861 0.55000001 4285874464
-0.21126106 0.094372861 0.55000001 4286137893
-0.21106772 0.094716042 0.55200005 4286204713
-0.211248 0.095230788 0.55500001 4286204713
-0.21066009 0.09540239 0.55600005 4286270254
-0.21044582 0.095745556 0.55800003 4286270254
-0.20984918 0.095917143 0.55900002 4286270243
-0.2088754 0.095917143 0.55900002 4286336036
-0.20864548 0.096260317 0.56100005 4286533162
-0.20803837 0.096431904 0.56200004 4286664748
-0.2074278 0.09660349 0.56300002 4286796087
-0.20681374 0.096775077 0.56400001 4286927416
-0.2061962 0.096946664 0.565 4287387956
-0.20630158 0.097461425 0.56800002 4287651127
-0.20639654 0.097976193 0.57100004 4287651898
-0.20648101 0.098490946 0.574 4287717691
-0.20548111 0.098490946 0.574 4287848507
-0.2044812 0.098490946 0.574 4287782714
-0.20560828 0.099520475 0.58000004 4288176956
-0.20495068 0.099692062 0.58100003 4288571714
-0.20504214 0.10123634 0.59000003 4288969037
-0.20436014 0.10140792 0.59100002 4289100622
-0.20401871 0.10175111 0.59300005 4289165650
-0.20298572 0.10175111 0.59300005 4288968271
-0.20229326 0.10192269 0.59400004 4288837201
-0.25351155 0.09325102 0.53800005 4283713065
-0.25257435 0.09325102 0.53800005 4284369227
-0.25116941 0.093077675 0.537 4284435020
-0.24976799 0.092904352 0.53600001 4284697130
-0.24883428 0.092904352 0.53600001 4284368421
-0.24790055 0.092904352 0.53600001 4284302124
-0.24696684 0.092904352 0.53600001 4284302124
-0.24603315 0.092904352 0.53600001 4284302124
-0.24464214 0.092731021 0.53500003 4284170538
-0.24279913 0.092384368 0.53300005 4284432177
-0.24141683 0.092211038 0.53200001 4284432177
-0.24049008 0.092211038 0.53200001 4284564015
-0.23956335 0.092211038 0.53200001 4284498222
-0.2386366 0.092211038 0.53200001 4284498222
-0.23815669 0.092384368 0.53300005 4284366636
-0.23722821 0.092384368 0.53300005 4284627993
-0.23629972 0.092384368 0.53300005 4284759836
-0.23669602 0.092904352 0.53600001 4284759091
-0.23576228 0.092904352 0.53600001 4284693298
-0.23482859 0.092904352 0.53600001 4284758828
-0.23389488 0.092904352 0.53600001 4284758828
-0.23296118 0.092904352 0.53600001 4284824873
-0.23202744 0.092904352 0.53600001 4284956458
-0.23109373 0.092904352 0.53600001 4284824873
-0.23016004 0.092904352 0.53600001 4284364322
-0.22922631 0.092904352 0.53600001 4284889888
-0.2282926 0.092904352 0.53600001 4285087011
-0.22735889 0.092904352 0.53600001 4284956447
-0.22642517 0.092904352 0.53600001 4284956447
-0.22549146 0.092904352 0.53600001 4284760349
