# .PCD v0.7 - Point Cloud Data file format
VERSION 0.7
FIELDS x y z rgba
SIZE 4 4 4 4
TYPE F F F U
COUNT 1 1 1 1
WIDTH 1053
HEIGHT 1
VIEWPOINT 0 0 0 1 0 0 0
POINTS 1053
DATA ascii
-0.014170301 0.093328536 0.56100005 4286270245
-0.013193039 0.093328536 0.56100005 4286269220
-0.012215777 0.093328536 0.56100005 4286137891
-0.011218481 0.093162164 0.56 4286138141
-0.01024296 0.093162164 0.56 4286138141
-0.009267441 0.093162164 0.56 4286072861
-0.0082919206 0.093162164 0.56 4286138654
-0.0073164003 0.093162164 0.56 4286139169
-0.0063408804 0.093162164 0.56 4286139169
-0.0053653601 0.093162164 0.56 4286270243
-0.0043898402 0.093162164 0.56 4286270243
-0.0034143203 0.093162164 0.56 4286270243
-0.0024431555 0.093328536 0.56100005 4286270243
-0.0014658931 0.093328536 0.56100005 4286269993
-0.00048863108 0.093328536 0.56100005 4286335786
0.00048863108 0.093328536 0.56100005 4286400809
0.0014658931 0.093328536 0.56100005 4286598444
0.0024518652 0.093661256 0.56300002 4286729790
0.0034387081 0.093827613 0.56400001 4286663997
0.0044211964 0.093827613 0.56400001 4286730275
0.0054132654 0.093993969 0.565 4286796068
0.006397495 0.093993969 0.565 4286861600
0.0073817256 0.093993969 0.565 4286861600
0.0083807632 0.094160341 0.56600004 4286861348
0.0093998332 0.094493061 0.56800002 4286861348
0.010425872 0.094825782 0.57000005 4286598944
0.011438845 0.094992138 0.57100004 4287059495
0.012455301 0.095158502 0.57200003 4287190574
0.013475242 0.095324859 0.57300001 4287256367
0.014498667 0.095491223 0.574 4287454001
0.015552578 0.095823951 0.57600003 4288309310
-0.029497288 0.096491128 0.574 4287718193
-0.028447732 0.096323028 0.57300001 4287586606
-0.027401663 0.096154928 0.57200003 4287125803
-0.026359078 0.095986828 0.57100004 4286796839
-0.025364395 0.095986828 0.57100004 4286928170
-0.024327034 0.095818728 0.57000005 4286796841
-0.023293154 0.095650613 0.56900001 4286664748
-0.022223568 0.095314413 0.56700003 4286664748
-0.021198401 0.095146313 0.56600004 4286664748
-0.020176716 0.094978198 0.565 4286664748
-0.019192487 0.094978198 0.565 4286402607
-0.018208256 0.094978198 0.565 4286402607
-0.017193541 0.094810106 0.56400001 4286336551
-0.016211053 0.094810106 0.56400001 4286270758
-0.015228566 0.094810106 0.56400001 4286204713
-0.014246077 0.094810106 0.56400001 4286204713
-0.013240072 0.094641998 0.56300002 4286269220
-0.012259327 0.094641998 0.56300002 4286137891
-0.011258547 0.094473898 0.56200004 4286072861
-0.010279544 0.094473898 0.56200004 4286138654
-0.0093005393 0.094473898 0.56200004 4286138654
-0.0083215348 0.094473898 0.56200004 4286138654
-0.0073425309 0.094473898 0.56200004 4286138917
-0.0063635269 0.094473898 0.56200004 4286138917
-0.0053845225 0.094473898 0.56200004 4286270243
-0.004405519 0.094473898 0.56200004 4286336036
-0.0034265143 0.094473898 0.56200004 4286270243
-0.0024475104 0.094473898 0.56200004 4286336036
-0.0014685062 0.094473898 0.56200004 4286335767
-0.00048950204 0.094473898 0.56200004 4286533403
0.00048950204 0.094473898 0.56200004 4286466854
0.0014711192 0.094641998 0.56300002 4286532647
0.0024562203 0.094810106 0.56400001 4286598190
0.003444805 0.094978198 0.565 4286729775
0.0044290354 0.094978198 0.565 4286598944
0.0054132654 0.094978198 0.565 4286796066
0.006397495 0.094978198 0.565 4286598944
0.0074078557 0.095314413 0.56700003 4286598944
0.0084103765 0.095482513 0.56800002 4286730275
0.0094329314 0.095818728 0.57000005 4286533153
0.010444162 0.095986828 0.57100004 4286599196
0.011438845 0.095986828 0.57100004 4287191076
0.012455301 0.096154928 0.57200003 4287125803
0.013475242 0.096323028 0.57300001 4287125803
0.014498667 0.096491128 0.574 4287454253
0.015552578 0.096827343 0.57600003 4288375355
-0.027497472 0.097491033 0.574 4287191860
-0.026405239 0.097151354 0.57200003 4286797102
-0.025364395 0.096981511 0.57100004 4286928170
-0.024327034 0.096811667 0.57000005 4286731048
-0.023334093 0.096811667 0.57000005 4286598703
-0.022262763 0.096471965 0.56800002 4286598703
-0.021235853 0.096302122 0.56700003 4286533162
-0.020248139 0.096302122 0.56700003 4286598955
-0.019226456 0.096132286 0.56600004 4286598703
-0.018240483 0.096132286 0.56600004 4286532910
-0.017224025 0.095962435 0.565 4286533160
-0.016239796 0.095962435 0.565 4286336038
-0.015255566 0.095962435 0.565 4286204713
-0.014271336 0.095962435 0.565 4286138919
-0.01326359 0.095792592 0.56400001 4286007336
-0.012281101 0.095792592 0.56400001 4285941543
-0.011298613 0.095792592 0.56400001 4286007068
-0.010297835 0.095622741 0.56300002 4286138654
-0.0093170879 0.095622741 0.56300002 4286138404
-0.0083363419 0.095622741 0.56300002 4286138404
-0.0073555959 0.095622741 0.56300002 4286138917
-0.0063748495 0.095622741 0.56300002 4286138917
-0.0053941035 0.095622741 0.56300002 4286204449
-0.0044211964 0.095792592 0.56400001 4286270243
-0.0034387081 0.095792592 0.56400001 4286270243
-0.0024562203 0.095792592 0.56400001 4286072863
-0.0014737322 0.095792592 0.56400001 4286203905
-0.00049124402 0.095792592 0.56400001 4286598662
0.00049124402 0.095792592 0.56400001 4286533151
0.001476345 0.095962435 0.565 4286533151
0.0024605752 0.095962435 0.565 4286598442
0.003444805 0.095962435 0.565 4286598442
0.0044290354 0.095962435 0.565 4286533151
0.0054228464 0.096132286 0.56600004 4286598944
0.006408819 0.096132286 0.56600004 4286533151
0.0074078557 0.096302122 0.56700003 4286467358
0.0084103765 0.096471965 0.56800002 4286598172
0.0094329314 0.096811667 0.57000005 4286401049
0.010444162 0.096981511 0.57100004 4286533123
0.011438845 0.096981511 0.57100004 4287388176
0.012477077 0.09732119 0.57300001 4287125803
0.013498759 0.097491033 0.574 4287652148
0.014523927 0.097660884 0.57500005 4287586354
0.015552578 0.097830735 0.57600003 4288309821
-0.029754236 0.099348888 0.57900006 4287849272
-0.02864632 0.099005714 0.57700002 4287652150
-0.027545378 0.09866254 0.57500005 4287323698
-0.026543729 0.09866254 0.57500005 4286928940
-0.025497656 0.098490946 0.574 4286928170
-0.02445507 0.098319359 0.57300001 4286993963
-0.023375031 0.097976193 0.57100004 4286599218
-0.022341153 0.097804606 0.57000005 4286336047
-0.02131076 0.097633012 0.56900001 4286598696
-0.02028385 0.097461425 0.56800002 4286532647
-0.019260425 0.097289838 0.56700003 4286598696
-0.018272711 0.097289838 0.56700003 4286598696
-0.017284997 0.097289838 0.56700003 4286533160
-0.01626854 0.097118251 0.56600004 4286336038
-0.015282569 0.097118251 0.56600004 4286270756
-0.014271336 0.096946664 0.565 4286204963
-0.013287106 0.096946664 0.565 4286138404
-0.012302876 0.096946664 0.565 4286006818
-0.011298613 0.096775077 0.56400001 4286072348
-0.010316124 0.096775077 0.56400001 4286138141
-0.0093336366 0.096775077 0.56400001 4286072609
-0.008351149 0.096775077 0.56400001 4286072609
-0.0073686605 0.096775077 0.56400001 4286138404
-0.006397495 0.096946664 0.565 4286138404
-0.0054132654 0.096946664 0.565 4286269472
-0.0044290354 0.096946664 0.565 4286401059
-0.003444805 0.096946664 0.565 4286532131
-0.0024605752 0.096946664 0.565 4286400545
-0.001476345 0.096946664 0.565 4286269954
-0.00049211504 0.096946664 0.565 4286730505
0.00049211504 0.096946664 0.565 4286598442
0.001476345 0.096946664 0.565 4286598442
0.0024649303 0.097118251 0.56600004 4286598442
0.0034509026 0.097118251 0.56600004 4286598442
0.0044447132 0.097289838 0.56700003 4286467871
0.0054324279 0.097289838 0.56700003 4286467871
0.0064314646 0.097461425 0.56800002 4286467871
0.0074470514 0.097804606 0.57000005 4286336542
0.0084399907 0.097804606 0.57000005 4286532882
0.0094660288 0.098147772 0.57200003 4286664469
0.010462454 0.098147772 0.57200003 4286664971
0.011478909 0.098319359 0.57300001 4287323157
0.012542401 0.098834127 0.57600003 4287126053
0.01356931 0.099005714 0.57700002 4287652397
0.014574444 0.099005714 0.57700002 4287521324
0.01914284 0.10192269 0.59400004 4287782952
0.020143621 0.10175111 0.59300005 4287782952
0.021176625 0.10175111 0.59300005 4287848759
-0.029805623 0.10053083 0.58000004 4287850044
-0.028745616 0.1003575 0.57900006 4287586616
-0.027689092 0.10018417 0.57800001 4287520046
-0.026636053 0.10001084 0.57700002 4287322667
-0.025630921 0.10001084 0.57700002 4286928170
-0.02454043 0.099664189 0.57500005 4286796841
-0.023415966 0.099144198 0.57200003 4286598442
-0.022419542 0.099144198 0.57200003 4286466856
-0.021385666 0.098970868 0.57100004 4286335786
-0.020319561 0.098624207 0.56900001 4286204199
-0.019328361 0.098624207 0.56900001 4286401553
-0.018304938 0.098450884 0.56800002 4286730262
-0.017315483 0.098450884 0.56800002 4286467869
-0.016326027 0.098450884 0.56800002 4286336540
-0.015309569 0.098277554 0.56700003 4286270758
-0.014296596 0.098104231 0.56600004 4286139171
-0.013310624 0.098104231 0.56600004 4286072611
-0.012302876 0.097930886 0.565 4286006818
-0.011318645 0.097930886 0.565 4285941273
-0.010334415 0.097930886 0.565 4286007066
-0.0093501853 0.097930886 0.565 4286006816
-0.0083659552 0.097930886 0.565 4286072609
-0.0073817256 0.097930886 0.565 4286138404
-0.006397495 0.097930886 0.565 4286072611
-0.0054132654 0.097930886 0.565 4286138141
-0.0044290354 0.097930886 0.565 4286269470
-0.003444805 0.097930886 0.565 4286532131
-0.0024605752 0.097930886 0.565 4286532131
-0.0014789583 0.098104231 0.56600004 4286664217
-0.00049385708 0.098277554 0.56700003 4286861852
0.00049385708 0.098277554 0.56700003 4286730544
0.0014815711 0.098277554 0.56700003 4286533164
0.0024692852 0.098277554 0.56700003 4286336551
0.0034630962 0.098450884 0.56800002 4286402344
0.0044525522 0.098450884 0.56800002 4286270758
0.0054515894 0.098624207 0.56900001 4286204965
0.0064541111 0.098797545 0.57000005 4286270756
0.0074470514 0.098797545 0.57000005 4286336549
0.008484412 0.099317521 0.57300001 4286730525
0.009499127 0.099490851 0.574 4286928161
0.010499035 0.099490851 0.574 4286993952
0.011518977 0.099664189 0.57500005 4287322916
0.012542401 0.099837519 0.57600003 4287192110
0.013592827 0.10018417 0.57800001 4287521074
0.016987115 0.10243744 0.59100002 4288178964
0.018016638 0.10243744 0.59100002 4287323655
0.019046159 0.10243744 0.59100002 4287453749
0.02017759 0.10295744 0.59400004 4287782714
0.021212338 0.10295744 0.59400004 4287651896
-0.029908402 0.10189133 0.58200002 4288047167
-0.02884491 0.10171627 0.58100003 4287784251
-0.027736999 0.10136613 0.57900006 4287388208
-0.02672838 0.10136613 0.57900006 4287256621
-0.02567534 0.10119104 0.57800001 4287125049
-0.024668464 0.10119104 0.57800001 4286993463
-0.023538778 0.10066584 0.57500005 4286599218
-0.022497931 0.10049076 0.574 4286336047
-0.02146057 0.10031569 0.57300001 4286202401
-0.020390984 0.099965557 0.57100004 4286465572
-0.019396301 0.099965557 0.57100004 4286531877
-0.018369393 0.099790484 0.57000005 4286597670
-0.017345967 0.09961541 0.56900001 4286336038
-0.016354768 0.09961541 0.56900001 4286336038
-0.015336568 0.099440344 0.56800002 4286270506
-0.014347113 0.099440344 0.56800002 4286204713
-0.013357657 0.099440344 0.56800002 4286138668
-0.012346427 0.099265262 0.56700003 4285941545
-0.011358712 0.099265262 0.56700003 4285941023
-0.010370998 0.099265262 0.56700003 4286006816
-0.0093832845 0.099265262 0.56700003 4286006303
-0.0083807632 0.099090196 0.56600004 4286138145
-0.0073947911 0.099090196 0.56600004 4286137891
-0.0064201416 0.099265262 0.56700003 4286137891
-0.0054324279 0.099265262 0.56700003 4286269472
-0.0044447132 0.099265262 0.56700003 4286401059
-0.0034569995 0.099265262 0.56700003 4286270243
-0.0024692852 0.099265262 0.56700003 4286467621
-0.0014815711 0.099265262 0.56700003 4286598944
-0.00049472804 0.099440344 0.56800002 4286862116
0.00049472804 0.099440344 0.56800002 4286730275
0.0014841841 0.099440344 0.56800002 4286533153
0.0024736403 0.099440344 0.56800002 4286336551
0.0034630962 0.099440344 0.56800002 4286336551
0.004468231 0.099790484 0.57000005 4286336551
0.0054611708 0.099790484 0.57000005 4286270758
0.0064654336 0.099965557 0.57100004 4286270506
0.0074993102 0.10049076 0.574 4286402092
0.0084992191 0.10049076 0.574 4286665252
0.0095156766 0.10066584 0.57500005 4286928168
0.010517326 0.10066584 0.57500005 4286929192
0.011539009 0.10084091 0.57600003 4287192108
0.012542401 0.10084091 0.57600003 4287257905
0.013545793 0.10084091 0.57600003 4287652663
0.016987115 0.10346697 0.59100002 4287586604
0.018016638 0.10346697 0.59100002 4286665502
0.019046159 0.10346697 0.59100002 4286992678
0.02017759 0.10399219 0.59400004 4287716657
0.021248046 0.10416726 0.59500003 4287520309
0.022284538 0.10416726 0.59500003 4287191345
-0.028894555 0.10290518 0.58200002 4288244809
-0.027784903 0.10255155 0.58000004 4287718969
-0.02672838 0.10237474 0.57900006 4286929453
-0.025719764 0.10237474 0.57900006 4286862404
-0.024711145 0.10237474 0.57900006 4286862404
-0.023661587 0.10219792 0.57800001 4286598967
-0.022615517 0.10202111 0.57700002 4286598967
-0.021535479 0.10166749 0.57500005 4286335284
-0.020462405 0.10131386 0.57300001 4286269491
-0.019464238 0.10131386 0.57300001 4286269993
-0.018401619 0.10096024 0.57100004 4286269993
-0.017406937 0.10096024 0.57100004 4286269993
-0.016383512 0.10078343 0.57000005 4286269993
-0.015390573 0.10078343 0.57000005 4286270243
-0.014372371 0.10060661 0.56900001 4286270243
-0.013357657 0.10042979 0.56800002 4286204461
-0.012346427 0.10025298 0.56700003 4286007338
-0.011358712 0.10025298 0.56700003 4286072609
-0.010370998 0.10025298 0.56700003 4286072609
-0.0093998332 0.10042979 0.56800002 4286072096
-0.0083955703 0.10025298 0.56700003 4286138145
-0.0074078557 0.10025298 0.56700003 4286137891
-0.0064314646 0.10042979 0.56800002 4286137891
-0.0054420084 0.10042979 0.56800002 4286269220
-0.0044525522 0.10042979 0.56800002 4286335013
-0.0034630962 0.10042979 0.56800002 4286401047
-0.0024736403 0.10042979 0.56800002 4286401047
-0.0014841841 0.10042979 0.56800002 4286598172
-0.00049559906 0.10060661 0.56900001 4286598172
0.00049559906 0.10060661 0.56900001 4286401563
0.0014867971 0.10060661 0.56900001 4286401563
0.0024779951 0.10060661 0.56900001 4286270756
0.0034691934 0.10060661 0.56900001 4286336549
0.0044760695 0.10096024 0.57100004 4286402848
0.0054803328 0.10113705 0.57200003 4286468641
0.0064994022 0.10149067 0.574 4286468151
0.0075123762 0.10166749 0.57500005 4286402357
0.0085288333 0.1018443 0.57600003 4286402344
0.0095322244 0.1018443 0.57600003 4286468137
0.010535617 0.1018443 0.57600003 4286534196
0.011539009 0.1018443 0.57600003 4287060540
0.012564176 0.10202111 0.57700002 4287653411
0.01356931 0.10202111 0.57700002 4287916839
0.014877553 0.10414287 0.58900005 4287454794
0.01590359 0.10414287 0.58900005 4286928450
0.016987115 0.10449649 0.59100002 4286796087
0.018077606 0.10485013 0.59300005 4286796087
0.019110614 0.10485013 0.59300005 4286993461
0.020211559 0.10520375 0.59500003 4287519805
0.021283759 0.10538056 0.59600002 4287520309
-0.028894555 0.10391902 0.58200002 4288245834
-0.027880713 0.10391902 0.58200002 4288048965
-0.026820706 0.10374046 0.58100003 4287259450
-0.025808604 0.10374046 0.58100003 4286993461
-0.024753824 0.10356192 0.58000004 4286927668
-0.023702526 0.10338336 0.57900006 4286730544
-0.022693908 0.10338336 0.57900006 4286664750
-0.021610383 0.10302624 0.57700002 4286729771
-0.020569539 0.1028477 0.57600003 4286598442
-0.019532178 0.10266913 0.57500005 4286204199
-0.018466072 0.10231203 0.57300001 4286269993
-0.017437421 0.10213347 0.57200003 4286204449
-0.016440999 0.10213347 0.57200003 4286138656
-0.015417574 0.10195491 0.57100004 4286204449
-0.014422892 0.10195491 0.57100004 4286336036
-0.013404692 0.10177637 0.57000005 4286204199
-0.012389977 0.10159781 0.56900001 4286138406
-0.011398777 0.10159781 0.56900001 4286138654
-0.01040758 0.10159781 0.56900001 4286072861
-0.0094163818 0.10159781 0.56900001 4286138141
-0.0084251836 0.10159781 0.56900001 4286269470
-0.0074339854 0.10159781 0.56900001 4286137891
-0.0064541111 0.10177637 0.57000005 4286269220
-0.0054611708 0.10177637 0.57000005 4286203948
-0.004468231 0.10177637 0.57000005 4286203948
-0.0034752905 0.10177637 0.57000005 4286334752
-0.0024823505 0.10177637 0.57000005 4286334752
-0.0014894102 0.10177637 0.57000005 4286269472
-0.00049647008 0.10177637 0.57000005 4286269472
0.00049647008 0.10177637 0.57000005 4286138654
0.0014894102 0.10177637 0.57000005 4286138654
0.0024867053 0.10195491 0.57100004 4286204951
0.0034813874 0.10195491 0.57100004 4286599709
0.0044995863 0.10249057 0.574 4286402344
0.0054994943 0.10249057 0.574 4286402344
0.0065107257 0.10266913 0.57500005 4286468402
0.0075254408 0.1028477 0.57600003 4286336560
0.0085288333 0.1028477 0.57600003 4285941515
0.0095322244 0.1028477 0.57600003 4286467860
0.010535617 0.1028477 0.57600003 4286337568
0.011539009 0.1028477 0.57600003 4287390256
0.012542401 0.1028477 0.57600003 4287654455
0.013875032 0.10534746 0.59000003 4287391540
0.014877553 0.10516891 0.58900005 4287126083
0.01590359 0.10516891 0.58900005 4286402103
0.016987115 0.10552602 0.59100002 4286597157
0.018077606 0.10588313 0.59300005 4286597157
0.019175068 0.10624024 0.59500003 4287255352
0.020245526 0.10641879 0.59600002 4287781696
0.021283759 0.10641879 0.59600002 4287520309
-0.028894555 0.10493287 0.58200002 4288245059
-0.027880713 0.10493287 0.58200002 4288114745
-0.026866868 0.10493287 0.58200002 4288180538
-0.025853025 0.10493287 0.58200002 4287719739
-0.024796503 0.10475257 0.58100003 4286995760
-0.023743464 0.10457227 0.58000004 4287127089
-0.022733103 0.10457227 0.58000004 4286797867
-0.021647835 0.10421167 0.57800001 4286928672
-0.020605249 0.10403138 0.57700002 4286994465
-0.019566147 0.10385109 0.57600003 4286598696
-0.018530527 0.10367079 0.57500005 4286466854
-0.017498391 0.10349049 0.574 4286336540
-0.016469741 0.10331019 0.57300001 4286204953
-0.015471575 0.10331019 0.57300001 4286335767
-0.01444815 0.10312989 0.57200003 4286335767
-0.013451725 0.10312989 0.57200003 4286335508
-0.012433526 0.1029496 0.57100004 4286269459
-0.011418812 0.10276931 0.57000005 4286138141
-0.010425872 0.10276931 0.57000005 4286138141
-0.0094494801 0.1029496 0.57100004 4286072861
-0.0084399907 0.10276931 0.57000005 4286138654
-0.0074470514 0.10276931 0.57000005 4286335265
-0.0064654336 0.1029496 0.57100004 4286401059
-0.0054707518 0.1029496 0.57100004 4286532149
-0.0044760695 0.1029496 0.57100004 4286532149
-0.0034813874 0.1029496 0.57100004 4286531877
-0.0024867053 0.1029496 0.57100004 4286268961
-0.0014946362 0.10312989 0.57200003 4285808923
-0.00049821206 0.10312989 0.57200003 4285479959
0.00049821206 0.10312989 0.57200003 4285480740
0.0014946362 0.10312989 0.57200003 4285875498
0.0024997701 0.10349049 0.574 4286006816
0.0035057757 0.10367079 0.57500005 4286467367
0.0045074252 0.10367079 0.57500005 4286139942
0.0055186567 0.10385109 0.57600003 4285942306
0.0065220487 0.10385109 0.57600003 4286139188
0.0075385063 0.10403138 0.57700002 4286665532
0.0085436394 0.10403138 0.57700002 4286863901
0.009548774 0.10403138 0.57700002 4287126816
0.010553909 0.10403138 0.57700002 4287258668
0.011559042 0.10403138 0.57700002 4287587890
0.012847251 0.10637524 0.59000003 4287259938
0.013875032 0.10637524 0.59000003 4286733594
0.014902811 0.10637524 0.59000003 4286796850
0.015930591 0.10637524 0.59000003 4286402092
0.017044602 0.10691614 0.59300005 4286335534
0.018108092 0.10709643 0.59400004 4286138154
0.019175068 0.10727673 0.59500003 4286993209
0.020245526 0.10745702 0.59600002 4288111947
0.021319468 0.10763732 0.597 4287914300
-0.026866868 0.1059467 0.58200002 4288114493
-0.025853025 0.1059467 0.58200002 4288115006
-0.024839181 0.1059467 0.58200002 4287654455
-0.023784399 0.10576467 0.58100003 4287390284
-0.022772297 0.10576467 0.58100003 4286732354
-0.021760195 0.10576467 0.58100003 4287060271
-0.020676672 0.10540059 0.57900006 4287060271
-0.019600114 0.10503651 0.57700002 4286664748
-0.01859498 0.10503651 0.57700002 4286598955
-0.017559363 0.10485448 0.57600003 4286795564
-0.016527228 0.10467244 0.57500005 4286532649
-0.015525577 0.10467244 0.57500005 4286532628
-0.014498667 0.10449039 0.574 4286532628
-0.013475242 0.10430836 0.57300001 4286532379
-0.012455301 0.10412632 0.57200003 4286532379
-0.011458877 0.10412632 0.57200003 4286138141
-0.010462454 0.10412632 0.57200003 4286269470
-0.0094660288 0.10412632 0.57200003 4286138656
-0.0084547978 0.10394428 0.57100004 4286270243
-0.0074601159 0.10394428 0.57100004 4286270756
-0.0064654336 0.10394428 0.57100004 4286204963
-0.0054803328 0.10412632 0.57200003 4286532145
-0.0044839084 0.10412632 0.57200003 4286598194
-0.0034874843 0.10412632 0.57200003 4286466854
-0.0024910602 0.10412632 0.57200003 4285611545
-0.0014998621 0.10449039 0.574 4285611277
-0.00049995404 0.10449039 0.574 4285677070
0.00049995404 0.10449039 0.574 4285481744
0.0014998621 0.10449039 0.574 4285481744
0.0025128354 0.10503651 0.57700002 4285875720
0.0035179693 0.10503651 0.57700002 4286402064
0.0045231036 0.10503651 0.57700002 4286008840
0.0055282377 0.10503651 0.57700002 4285745667
0.0065446943 0.10521855 0.57800001 4285745163
0.0075515704 0.10521855 0.57800001 4287192610
0.0085732546 0.10540059 0.57900006 4287258418
0.0095818732 0.10540059 0.57900006 4287587640
0.012803701 0.10703894 0.588 4286864429
0.013875032 0.10740302 0.59000003 4286469414
0.01492807 0.10758506 0.59100002 4286204713
0.015957592 0.10758506 0.59100002 4286138919
0.017044602 0.10794915 0.59300005 4286138404
0.018138576 0.10831322 0.59500003 4286072611
0.019207293 0.10849525 0.59600002 4286796839
0.020245526 0.10849525 0.59600002 4288112698
-0.02705152 0.10769568 0.58600003 4288048437
-0.026030708 0.10769568 0.58600003 4288180270
-0.024924541 0.10732812 0.58400005 4287851561
-0.023866273 0.10714433 0.583 4287588153
-0.022811491 0.10696055 0.58200002 4286864431
-0.021797648 0.10696055 0.58200002 4286797867
-0.020676672 0.10640921 0.57900006 4286074145
-0.019668054 0.10640921 0.57900006 4285679641
-0.018627208 0.10622542 0.57800001 4285087503
-0.017620331 0.10622542 0.57800001 4285349395
-0.016555971 0.10585787 0.57600003 4285349395
-0.015552578 0.10585787 0.57600003 4285743872
-0.014549186 0.10585787 0.57600003 4285809920
-0.013545793 0.10585787 0.57600003 4286073867
-0.012520626 0.1056741 0.57500005 4286073867
-0.011518977 0.1056741 0.57500005 4286139156
-0.010499035 0.1054903 0.574 4286204949
-0.0094825774 0.10530652 0.57300001 4286205467
-0.0084696049 0.10512275 0.57200003 4286337053
-0.0074731805 0.10512275 0.57200003 4286336540
-0.0064767567 0.10512275 0.57200003 4286467869
-0.0054803328 0.10512275 0.57200003 4286336038
-0.0044917474 0.10530652 0.57300001 4286336038
-0.0034996783 0.1054903 0.574 4286336540
-0.0024997701 0.1054903 0.574 4285349645
-0.0015024752 0.1056741 0.57500005 4285479945
-0.00050169608 0.10585787 0.57600003 4285677324
0.00050169608 0.10585787 0.57600003 4285546519
0.0015077011 0.10604165 0.57700002 4285480470
0.0025171903 0.10622542 0.57800001 4286468360
0.0035240662 0.10622542 0.57800001 4287257875
0.0045309425 0.10622542 0.57800001 4286798346
0.0055378187 0.10622542 0.57800001 4286732297
0.0065560183 0.10640921 0.57900006 4286667040
0.0075646359 0.10640921 0.57900006 4287456299
0.0085880607 0.106593 0.58000004 4287521352
0.0095984209 0.106593 0.58000004 4287718987
0.012803701 0.10806324 0.588 4286402859
0.013898549 0.10861458 0.59100002 4286008101
0.01492807 0.10861458 0.59100002 4286269220
0.015957592 0.10861458 0.59100002 4286137891
0.017073344 0.10916593 0.59400004 4286269713
0.018138576 0.10934971 0.59500003 4287585573
0.019239521 0.10971726 0.597 4287650862
0.020279495 0.10971726 0.597 4288703806
-0.028168142 0.10908753 0.588 4287982898
-0.027097683 0.10890201 0.58700001 4288180020
-0.026075128 0.10890201 0.58700001 4288180801
-0.025009897 0.1087165 0.58600003 4287259700
-0.023907211 0.10834545 0.58400005 4287061044
-0.022889884 0.10834545 0.58400005 4286929201
-0.0218351 0.10815991 0.583 4285746731
-0.020783804 0.1079744 0.58200002 4285680937
-0.019702023 0.10760336 0.58000004 4284498472
-0.018691663 0.10760336 0.58000004 4283643163
-0.017650817 0.10741784 0.57900006 4283705108
-0.0166422 0.10741784 0.57900006 4283968536
-0.01560658 0.1072323 0.57800001 4284231439
-0.014599704 0.1072323 0.57800001 4284428817
-0.013592827 0.1072323 0.57800001 4284560401
-0.012585951 0.1072323 0.57800001 4284692244
-0.011579075 0.1072323 0.57800001 4285217052
-0.010572199 0.1072323 0.57800001 4285546017
-0.0095322244 0.10686126 0.57600003 4285808671
-0.0085140262 0.10667574 0.57500005 4285808671
-0.0074993102 0.10649021 0.574 4285611799
-0.0064994022 0.10649021 0.574 4286072350
-0.0054994943 0.10649021 0.574 4286204713
-0.0045074252 0.10667574 0.57500005 4286336299
-0.0035057757 0.10667574 0.57500005 4286402607
-0.0025084803 0.10686126 0.57600003 4284758039
-0.0015050883 0.10686126 0.57600003 4284032512
-0.00050256704 0.10704678 0.57700002 4285348361
0.00050256704 0.10704678 0.57700002 4285022738
0.0015103141 0.1072323 0.57800001 4285154580
0.0025215454 0.10741784 0.57900006 4286665766
0.0035301636 0.10741784 0.57900006 4287389489
0.0045387815 0.10741784 0.57900006 4287126568
0.0055473996 0.10741784 0.57900006 4287060519
0.0065673408 0.10760336 0.58000004 4286864429
0.0075907656 0.10778888 0.58100003 4287127600
0.0086028678 0.10778888 0.58100003 4287323961
0.011779405 0.10908753 0.588 4286534957
0.012847251 0.10945858 0.59000003 4286072861
0.013922065 0.10982963 0.59200001 4286072861
0.014953328 0.10982963 0.59200001 4285939996
0.016011596 0.11001515 0.59300005 4286071326
0.017102087 0.1103862 0.59500003 4286728465
0.018199546 0.11075724 0.597 4288175911
-0.028263953 0.11048637 0.59000003 4287982648
-0.027143845 0.11011183 0.588 4288179770
-0.026119551 0.11011183 0.588 4287325497
-0.025095254 0.11011183 0.588 4285022742
-0.023989085 0.1097373 0.58600003 4284560642
-0.022929078 0.10955004 0.58500004 4283968512
-0.021872554 0.10936278 0.58400005 4283571208
-0.020819515 0.1091755 0.583 4283571208
-0.019803928 0.1091755 0.583 4283242779
-0.018756116 0.10898824 0.58200002 4282847764
-0.017742272 0.10898824 0.58200002 4282847512
-0.016670942 0.10861371 0.58000004 4282189838
-0.015660582 0.10861371 0.58000004 4282648600
-0.014624964 0.10842645 0.57900006 4282648600
-0.013616345 0.10842645 0.57900006 4282581760
-0.012607727 0.10842645 0.57900006 4282384384
-0.011599109 0.10842645 0.57900006 4282384640
-0.010590491 0.10842645 0.57900006 4282516224
-0.0095653227 0.10823918 0.57800001 4282648064
-0.0085584465 0.10823918 0.57800001 4282648064
-0.0075385063 0.10805192 0.57700002 4283043584
-0.0065220487 0.10786465 0.57600003 4283504128
-0.0055186567 0.10786465 0.57600003 4283374080
-0.0045152646 0.10786465 0.57600003 4284294915
-0.0035118724 0.10786465 0.57600003 4284164866
-0.0025128354 0.10805192 0.57700002 4283901696
-0.0015103141 0.10823918 0.57800001 4283901708
-0.00050343806 0.10823918 0.57800001 4285085982
0.00050430908 0.10842645 0.57900006 4284891142
0.0015181531 0.10880098 0.58100003 4284825349
0.0025302554 0.10880098 0.58100003 4285876480
0.0035423576 0.10880098 0.58100003 4285942272
0.0045544594 0.10880098 0.58100003 4285678868
0.0055761426 0.10898824 0.58200002 4285547539
0.0066013094 0.1091755 0.583 4285679641
0.0076299617 0.10936278 0.58400005 4285613848
0.0086472891 0.10936278 0.58400005 4285678848
0.010736818 0.10992456 0.58700001 4285940521
0.011799439 0.1102991 0.58900005 4285545763
0.012869027 0.11067362 0.59100002 4285676309
0.013945583 0.11104816 0.59300005 4286136860
0.01497859 0.11104816 0.59300005 4286269741
0.016092597 0.11160994 0.59600002 4286730292
0.017188316 0.11198448 0.59800005 4287123768
-0.028263953 0.11151415 0.59000003 4288179257
-0.027236173 0.11151415 0.59000003 4288376636
-0.026208393 0.11151415 0.59000003 4286864946
-0.025137935 0.11132514 0.58900005 4284825106
-0.024070958 0.11113612 0.588 4284298496
-0.023007467 0.11094712 0.58700001 4282785280
-0.02194746 0.11075811 0.58600003 4283635712
-0.020890936 0.11056911 0.58500004 4283043584
-0.019837899 0.11038011 0.58400005 4283240212
-0.018788343 0.11019109 0.583 4283306005
-0.017772757 0.11019109 0.583 4282846999
-0.016728427 0.11000209 0.58200002 4282386448
-0.015687583 0.10981308 0.58100003 4282321936
-0.01467548 0.10981308 0.58100003 4282321936
-0.013663379 0.10981308 0.58100003 4282059264
-0.012629502 0.10962407 0.58000004 4281993472
-0.011619141 0.10962407 0.58000004 4281861120
-0.010608782 0.10962407 0.58000004 4281992960
-0.0095984209 0.10962407 0.58000004 4281926912
-0.0085880607 0.10962407 0.58000004 4281795584
-0.0075646359 0.10943507 0.57900006 4281796352
-0.0065560183 0.10943507 0.57900006 4281993472
-0.0055473996 0.10943507 0.57900006 4282321664
-0.0045387815 0.10943507 0.57900006 4282321664
-0.0035301636 0.10943507 0.57900006 4283111680
-0.0025215454 0.10943507 0.57900006 4283440384
-0.0015155402 0.10962407 0.58000004 4283441409
-0.0005051801 0.10962407 0.58000004 4284296462
0.00050605106 0.10981308 0.58100003 4284430099
0.0015181531 0.10981308 0.58100003 4284232976
0.0025302554 0.10981308 0.58100003 4284296704
0.0035545512 0.11019109 0.583 4284428289
0.0045701377 0.11019109 0.583 4284560392
0.005595305 0.11038011 0.58400005 4284494599
0.0066239559 0.11056911 0.58500004 4284560905
0.0076560904 0.11075811 0.58600003 4284231941
0.0086769033 0.11075811 0.58600003 4284689920
0.010755109 0.11113612 0.588 4285610523
0.011799439 0.11132514 0.58900005 4285808158
0.012869027 0.11170315 0.59100002 4285938688
0.013945583 0.11208117 0.59300005 4286465029
0.015029107 0.11245918 0.59500003 4286730525
0.016119597 0.11283718 0.597 4286993954
0.017217061 0.1132152 0.59900004 4287519526
-0.031878605 0.11444941 0.60000002 4288574794
-0.030884791 0.11464016 0.60100001 4288639304
-0.029738557 0.11425867 0.59900004 4288178753
-0.027236173 0.11254192 0.59000003 4288770374
-0.026208393 0.11254192 0.59000003 4287457092
-0.025180614 0.11254192 0.59000003 4285154337
-0.024111897 0.11235118 0.58900005 4284562191
-0.023046661 0.11216042 0.588 4282917120
-0.021984912 0.11196968 0.58700001 4283374878
-0.020926649 0.11177892 0.58600003 4283243292
-0.019871868 0.11158818 0.58500004 4283177483
-0.018820571 0.11139743 0.58400005 4283177483
-0.017803242 0.11139743 0.58400005 4282848532
-0.01675717 0.11120667 0.583 4282782739
-0.015741585 0.11120667 0.583 4282913555
-0.014700739 0.11101592 0.58200002 4282913555
-0.013686895 0.11101592 0.58200002 4282848016
-0.012651276 0.11082518 0.58100003 4282913809
-0.011639174 0.11082518 0.58100003 4282586882
-0.010627072 0.11082518 0.58100003 4282586882
-0.0096149696 0.11082518 0.58100003 4282651673
-0.0086028678 0.11082518 0.58100003 4282651673
-0.0075907656 0.11082518 0.58100003 4282847502
-0.0065786638 0.11082518 0.58100003 4282781453
-0.0055665616 0.11082518 0.58100003 4282847502
-0.0045544594 0.11082518 0.58100003 4282979089
-0.0035423576 0.11082518 0.58100003 4283045632
-0.0025302554 0.11082518 0.58100003 4283440384
-0.0015181531 0.11082518 0.58100003 4283308803
-0.00050692202 0.11101592 0.58200002 4283440390
0.00050692202 0.11101592 0.58200002 4283968264
0.0015207662 0.11101592 0.58200002 4284231693
0.0025389651 0.11120667 0.583 4284165646
0.0035606485 0.11139743 0.58400005 4284297488
0.0045779767 0.11139743 0.58400005 4284428050
0.0056048855 0.11158818 0.58500004 4284493843
0.0066352789 0.11177892 0.58600003 4284427802
0.007669156 0.11196968 0.58700001 4284559388
0.0087213237 0.11235118 0.58900005 4284823839
0.0097639114 0.11254192 0.59000003 4285416233
0.010809982 0.11273266 0.59100002 4286138656
0.011879571 0.11311417 0.59300005 4286270243
0.012956127 0.11349567 0.59500003 4286336038
0.014016134 0.11368641 0.59600002 4287059504
0.015054366 0.11368641 0.59600002 4287718424
0.016119597 0.11387715 0.597 4287981853
0.017217061 0.11425867 0.59900004 4287917104
-0.029837849 0.11568709 0.60100001 4288048198
-0.027282337 0.11376219 0.59100002 4288770374
-0.026252814 0.11376219 0.59100002 4287522635
-0.025223292 0.11376219 0.59100002 4285548845
-0.024152832 0.11356971 0.59000003 4284889866
-0.023085859 0.11337721 0.58900005 4283113728
-0.022022367 0.11318471 0.588 4283243533
-0.020962359 0.11299223 0.58700001 4283374862
-0.019905835 0.11279974 0.58600003 4283113228
-0.018852796 0.11260725 0.58500004 4282981385
-0.017833728 0.11260725 0.58500004 4283045910
-0.016814657 0.11260725 0.58500004 4282716946
-0.015768588 0.11241476 0.58400005 4282848532
-0.014725997 0.11222226 0.583 4282848532
-0.013710412 0.11222226 0.583 4282914307
-0.012694825 0.11222226 0.583 4282914307
-0.011679241 0.11222226 0.583 4282848514
-0.010645363 0.11202978 0.58200002 4282914307
-0.0096315192 0.11202978 0.58200002 4282913555
-0.0086176749 0.11202978 0.58200002 4282913555
-0.0076038311 0.11202978 0.58200002 4282848514
-0.0065899864 0.11202978 0.58200002 4282717184
-0.0055761426 0.11202978 0.58200002 4283044612
-0.0045622983 0.11202978 0.58200002 4283242247
-0.0035484545 0.11202978 0.58200002 4283112960
-0.0025346102 0.11202978 0.58200002 4283178752
-0.0015207662 0.11202978 0.58200002 4283375110
-0.00050692202 0.11202978 0.58200002 4283572745
0.00050779304 0.11222226 0.583 4283901958
0.0015233791 0.11222226 0.583 4284165386
0.0025389651 0.11222226 0.583 4284165646
0.0035789395 0.11299223 0.58700001 4284165646
0.0046014935 0.11299223 0.58700001 4284427802
0.0056336285 0.11318471 0.588 4284427802
0.006669248 0.11337721 0.58900005 4284362257
0.0076952865 0.11337721 0.58900005 4284625685
0.0087509379 0.11376219 0.59100002 4285084953
0.0097970087 0.11395468 0.59200001 4286466606
0.010846565 0.11414718 0.59300005 4285812772
0.011879571 0.11414718 0.59300005 4286010150
0.012977901 0.11472464 0.59600002 4286665784
0.01403965 0.11491713 0.597 4287849801
0.015104883 0.11510963 0.59800005 4288113464
0.0161466 0.11510963 0.59800005 4287916085
-0.029837849 0.11673404 0.60100001 4288310856
-0.028695099 0.11634558 0.59900004 4288507969
-0.025265969 0.11498595 0.59200001 4286273836
-0.024234707 0.11498595 0.59200001 4285288478
-0.023164248 0.11479171 0.59100002 4282525184
-0.022097273 0.11459748 0.59000003 4283047435
-0.021033783 0.11440326 0.58900005 4283310350
-0.020007744 0.11440326 0.58900005 4283112987
-0.01891725 0.11401478 0.58700001 4283047194
-0.017894696 0.11401478 0.58700001 4282980887
-0.016843401 0.11382055 0.58600003 4282980887
-0.015795588 0.11362632 0.58500004 4282848532
-0.014751257 0.11343209 0.58400005 4282848532
-0.01373393 0.11343209 0.58400005 4282847502
-0.012716602 0.11343209 0.58400005 4282979089
-0.011699273 0.11343209 0.58400005 4282914307
-0.010663654 0.11323785 0.583 4282980356
-0.0096480669 0.11323785 0.583 4282913809
-0.008632482 0.11323785 0.583 4282848016
-0.0076168953 0.11323785 0.583 4282848514
-0.0066013094 0.11323785 0.583 4282848514
-0.0055857236 0.11323785 0.583 4283044612
-0.0045701377 0.11323785 0.583 4283110405
-0.0035545512 0.11323785 0.583 4283110405
-0.0025433204 0.11343209 0.58400005 4283308040
-0.0015259922 0.11343209 0.58400005 4283440903
-0.00050866406 0.11343209 0.58400005 4283704331
0.00050866406 0.11343209 0.58400005 4284033794
0.0015286052 0.11362632 0.58500004 4284033794
0.0025476753 0.11362632 0.58500004 4283901708
0.0035850364 0.114209 0.588 4284033294
0.0046171718 0.11440326 0.58900005 4284163608
0.0056527904 0.11459748 0.59000003 4284427037
0.006680571 0.11459748 0.59000003 4284165155
0.0077214162 0.11479171 0.59100002 4284494377
0.008780553 0.11518019 0.59300005 4284560935
0.0098135583 0.11518019 0.59300005 4286468932
0.010864856 0.11537442 0.59400004 4287127570
0.011899604 0.11537442 0.59400004 4288246052
0.012999676 0.1159571 0.597 4288246093
0.014063168 0.11615135 0.59800005 4288246093
0.015104883 0.11615135 0.59800005 4287324463
0.0161466 0.11615135 0.59800005 4286798119
-0.029837849 0.11778099 0.60100001 4288376136
-0.028743003 0.11758501 0.60000002 4288376640
-0.02765164 0.11738904 0.59900004 4288705349
-0.02320344 0.11601721 0.59200001 4282721541
-0.022134725 0.11582123 0.59100002 4283505412
-0.021105204 0.11582123 0.59100002 4283703048
-0.020041713 0.11562525 0.59000003 4283506963
-0.018981704 0.11542929 0.58900005 4283375378
-0.01792518 0.11523331 0.588 4283244303
-0.016872142 0.11503733 0.58700001 4283112974
-0.015822588 0.11484136 0.58600003 4283113228
-0.014801776 0.11484136 0.58600003 4282981385
-0.013757447 0.1146454 0.58500004 4283045910
-0.012738377 0.1146454 0.58500004 4283045910
-0.011719307 0.1146454 0.58500004 4282915079
-0.010681946 0.11444941 0.58400005 4282915079
-0.0096646175 0.11444941 0.58400005 4283046408
-0.0086472891 0.11444941 0.58400005 4283046408
-0.0076299617 0.11444941 0.58400005 4282849284
-0.0066126329 0.11444941 0.58400005 4282849284
-0.005595305 0.11444941 0.58400005 4282849284
-0.0045779767 0.11444941 0.58400005 4282783491
-0.0035667454 0.1146454 0.58500004 4283110400
-0.0025476753 0.1146454 0.58500004 4283439360
-0.0015286052 0.1146454 0.58500004 4283506698
-0.00051040604 0.11484136 0.58600003 4283704333
0.00050953508 0.1146454 0.58500004 4283835411
0.0015286052 0.1146454 0.58500004 4283704081
0.0025520301 0.11484136 0.58600003 4283835401
0.0046328497 0.11582123 0.59100002 4284164112
0.0056719524 0.11601721 0.59200001 4284295698
0.0067032166 0.11601721 0.59200001 4284428804
0.0077475458 0.1162132 0.59300005 4284626439
0.0087953592 0.11640917 0.59400004 4285155604
0.0098301079 0.11640917 0.59400004 4286537257
0.010919727 0.11699708 0.597 4287456565
0.011959702 0.11699708 0.597 4288509253
0.013021451 0.11719307 0.59800005 4288576082
0.014063168 0.11719307 0.59800005 4287852102
0.015130142 0.11738904 0.59900004 4286471985
-0.029887499 0.11902565 0.60200006 4288640591
-0.028743003 0.11863022 0.60000002 4288706112
-0.027697803 0.11863022 0.60000002 4288245561
-0.026608182 0.1184325 0.59900004 4287917884
-0.025564725 0.1184325 0.59900004 4287786298
-0.022172179 0.11704847 0.59200001 4282982434
-0.021140913 0.11704847 0.59200001 4283311143
-0.02010965 0.11704847 0.59200001 4283638799
-0.019013932 0.11665305 0.59000003 4283507213
-0.017955668 0.11645532 0.58900005 4283245329
-0.016900884 0.1162576 0.588 4283179280
-0.015876589 0.1162576 0.588 4283244303
-0.014852293 0.1162576 0.588 4283244303
-0.013827997 0.1162576 0.588 4283244303
-0.012803701 0.1162576 0.588 4283244303
-0.011759372 0.11605989 0.58700001 4283113228
-0.010736818 0.11605989 0.58700001 4283113228
-0.0096977158 0.11586217 0.58600003 4283047435
-0.0086769033 0.11586217 0.58600003 4283047435
-0.0076430258 0.11566447 0.58500004 4283047435
-0.0066239559 0.11566447 0.58500004 4282849799
-0.0056048855 0.11566447 0.58500004 4283176967
-0.0045858156 0.11566447 0.58500004 4283242760
-0.0035667454 0.11566447 0.58500004 4283177483
-0.0025520301 0.11586217 0.58600003 4283243533
-0.0015338311 0.11605989 0.58700001 4283571208
0.0036216187 0.11744392 0.59400004 4284888353
0.0046563665 0.11744392 0.59400004 4284363555
0.0056911148 0.11744392 0.59400004 4285087279
0.0067258631 0.11744392 0.59400004 4285549838
0.0077736755 0.11764163 0.59500003 4286865698
0.0088101663 0.11764163 0.59500003 4287128343
0.0098466557 0.11764163 0.59500003 4287259672
0.010883146 0.11764163 0.59500003 4287259440
0.011999768 0.1184325 0.59900004 4288048700
0.013043227 0.1184325 0.59900004 4287259422
0.014086684 0.1184325 0.59900004 4285943562
-0.029887499 0.12007434 0.60200006 4288641103
-0.028838815 0.12007434 0.60200006 4288706634
-0.027743965 0.11987486 0.60100001 4288246083
-0.026652602 0.11967541 0.60000002 4288245565
-0.025607403 0.11967541 0.60000002 4288706116
-0.02448033 0.1192765 0.59800005 4287065428
-0.021212338 0.11847867 0.59400004 4282918656
-0.02017759 0.11847867 0.59400004 4283834659
-0.019110614 0.1182792 0.59300005 4283834659
-0.018047122 0.11807974 0.59200001 4283506963
-0.017015856 0.11807974 0.59200001 4283572756
-0.015930591 0.11768082 0.59000003 4283245329
-0.014902811 0.11768082 0.59000003 4283245329
-0.013875032 0.11768082 0.59000003 4283375904
-0.012825477 0.11748137 0.58900005 4283244575
-0.011799439 0.11748137 0.58900005 4283244303
-0.010755109 0.11728189 0.588 4283244303
-0.0097308122 0.11728189 0.588 4283179280
-0.0086917095 0.11708245 0.58700001 4283179280
-0.007669156 0.11708245 0.58700001 4283112987
-0.0066579245 0.11728189 0.588 4283047194
-0.0056336285 0.11728189 0.588 4283243780
-0.004609332 0.11728189 0.588 4283177987
-0.0035850364 0.11728189 0.588 4283440903
-0.00051563204 0.11807974 0.59200001 4283505920
0.00051563204 0.11807974 0.59200001 4283439360
0.0025912253 0.11867812 0.59500003 4284032261
0.0036277152 0.11867812 0.59500003 4284624398
0.0046642059 0.11867812 0.59500003 4283970048
0.0057006953 0.11867812 0.59500003 4285285900
0.0067485087 0.11887758 0.59600002 4286402859
0.007786741 0.11887758 0.59600002 4288310856
0.0088397795 0.11907703 0.597 4288049213
0.0098797539 0.11907703 0.597 4286338852
0.010919727 0.11907703 0.597 4286468641
-0.028886717 0.12132423 0.60300004 4288641091
-0.027790131 0.12112302 0.60200006 4288509505
-0.026741447 0.12112302 0.60200006 4288246599
-0.025692763 0.12112302 0.60200006 4288641100
-0.024644079 0.12112302 0.60200006 4287855434
-0.023517003 0.12072061 0.60000002 4285552679
-0.02243435 0.12051941 0.59900004 4283841536
-0.02135518 0.12031822 0.59800005 4282130944
-0.020245526 0.11991581 0.59600002 4283244073
-0.019207293 0.11991581 0.59600002 4283375403
-0.018108092 0.11951341 0.59400004 4283375882
-0.017073344 0.11951341 0.59400004 4283375882
-0.015984595 0.119111 0.59200001 4283375882
-0.014953328 0.119111 0.59200001 4283573004
-0.013922065 0.119111 0.59200001 4283441446
-0.012869027 0.11890981 0.59100002 4283244323
-0.011839504 0.11890981 0.59100002 4283310600
-0.010791691 0.1187086 0.59000003 4283310600
-0.0097639114 0.1187086 0.59000003 4283179280
-0.0087213237 0.1185074 0.58900005 4283179280
-0.0076952865 0.1185074 0.58900005 4283375904
-0.0066918936 0.11890981 0.59100002 4283112989
-0.0056623719 0.11890981 0.59100002 4283243780
-0.0046328497 0.11890981 0.59100002 4283112194
-0.0036033273 0.11890981 0.59100002 4283375632
-0.0025781603 0.119111 0.59200001 4284164892
-0.0015495092 0.11931221 0.59300005 4283903491
-0.00051737408 0.11951341 0.59400004 4284232456
0.00051737408 0.11951341 0.59400004 4284165646
0.0015573482 0.11991581 0.59600002 4284231439
0.0025955802 0.11991581 0.59600002 4284363292
0.0036338121 0.11991581 0.59600002 4286073654
0.0046720444 0.11991581 0.59600002 4286931456
0.0057198573 0.120117 0.597 4288247310
0.0067598317 0.120117 0.597 4287785807
0.0077998056 0.120117 0.597 4287983186
0.0088545866 0.12031822 0.59800005 4287062048
0.0098963035 0.12031822 0.59800005 4284627456
0.011011183 0.12112302 0.60200006 4284824638
-0.026785867 0.12237465 0.60300004 4288312392
-0.025735442 0.12237465 0.60300004 4288641100
-0.024644079 0.1221717 0.60200006 4288051280
-0.023595393 0.1221717 0.60200006 4286801470
-0.022471802 0.12176581 0.60000002 4285092408
-0.021390893 0.12156287 0.59900004 4282197516
-0.020347433 0.12156287 0.59900004 4282913809
-0.019271748 0.12135994 0.59800005 4283374360
-0.018169062 0.12095403 0.59600002 4283375378
-0.017102087 0.1207511 0.59500003 4283375378
-0.016038597 0.12054816 0.59400004 4283440903
-0.015003849 0.12054816 0.59400004 4283506952
-0.013969101 0.12054816 0.59400004 4283375632
-0.012934352 0.12054816 0.59400004 4283375632
-0.011879571 0.12034521 0.59300005 4283440655
-0.010846565 0.12034521 0.59300005 4283506448
-0.0097970087 0.12014227 0.59200001 4283244303
-0.008765745 0.12014227 0.59200001 4283112974
-0.0077344808 0.12014227 0.59200001 4283374862
-0.0067145401 0.12034521 0.59300005 4283243533
-0.0056719524 0.12014227 0.59200001 4283439872
-0.0046406882 0.12014227 0.59200001 4283637505
-0.0036155216 0.12034521 0.59300005 4283507202
-0.0025825154 0.12034521 0.59300005 4284165132
-0.0015547351 0.1207511 0.59500003 4283969300
-0.00051824504 0.1207511 0.59500003 4284100886
0.00051911606 0.12095403 0.59600002 4283903241
0.0015599611 0.12115698 0.597 4284297999
0.0025999353 0.12115698 0.597 4284693284
0.0036399092 0.12115698 0.597 4286930246
0.0046798834 0.12115698 0.597 4287194677
0.0057294387 0.12135994 0.59800005 4287457848
0.0067711552 0.12135994 0.59800005 4287588179
0.0078259362 0.12156287 0.59900004 4287325006
0.0088842008 0.12176581 0.60000002 4285485351
0.0099294009 0.12176581 0.60000002 4284235284
0.011011183 0.1221717 0.60200006 4284760617
-0.026874708 0.12383444 0.60500002 4288180038
-0.025778119 0.12362975 0.60400003 4288245832
-0.024725951 0.12362975 0.60400003 4288181051
-0.023634588 0.12342507 0.60300004 4288049465
-0.022546709 0.12322039 0.60200006 4286472023
-0.021426601 0.122811 0.60000002 4284629820
-0.020381402 0.122811 0.60000002 4283510295
-0.019303976 0.12260634 0.59900004 4282391815
-0.018199546 0.12219695 0.597 4283112737
-0.017130829 0.12199227 0.59600002 4283112737
-0.016065598 0.12178759 0.59500003 4283375110
-0.015029107 0.12178759 0.59500003 4283375110
-0.013992616 0.12178759 0.59500003 4283440903
-0.012956127 0.12178759 0.59500003 4283375110
-0.011899604 0.12158291 0.59400004 4283179280
-0.010864856 0.12158291 0.59400004 4283113487
-0.0098301079 0.12158291 0.59400004 4283113228
-0.008780553 0.12137822 0.59300005 4283113228
-0.0077475458 0.12137822 0.59300005 4283374862
-0.0067258631 0.12158291 0.59400004 4282848518
-0.0056815338 0.12137822 0.59300005 4283177472
-0.0046485276 0.12137822 0.59300005 4284032512
-0.0036216187 0.12158291 0.59400004 4283705860
-0.0025868705 0.12158291 0.59400004 4283903239
-0.0015547351 0.12178759 0.59500003 4283771946
-0.00051911606 0.12199227 0.59600002 4284561719
0.00051911606 0.12199227 0.59600002 4285417759
0.0015625742 0.12240165 0.59800005 4286602289
0.0026042904 0.12240165 0.59800005 4286930248
0.0036460066 0.12240165 0.59800005 4287127628
0.0046877228 0.12240165 0.59800005 4285812772
0.0057294387 0.12240165 0.59800005 4285023255
0.0067824782 0.12260634 0.59900004 4284561698
0.0078390008 0.122811 0.60000002 4283443474
0.008913816 0.12322039 0.60200006 4284101386
0.0099624991 0.12322039 0.60200006 4284825108
0.011029474 0.12342507 0.60300004 4284564778
-0.025820797 0.12488835 0.60500002 4287982909
-0.024766888 0.12488835 0.60500002 4288180290
-0.023673784 0.12468193 0.60400003 4288508999
-0.022584163 0.1244755 0.60300004 4287195481
-0.021498026 0.12426907 0.60200006 4285419326
-0.020415371 0.12406264 0.60100001 4284760617
-0.019368427 0.12406264 0.60100001 4282786827
-0.018260518 0.12364979 0.59900004 4283043600
-0.017188316 0.12344337 0.59800005 4283438102
-0.016119597 0.12323692 0.597 4283438858
-0.015079624 0.12323692 0.597 4283570445
-0.014016134 0.1230305 0.59600002 4283440903
-0.012977901 0.1230305 0.59600002 4283440903
-0.011939669 0.1230305 0.59600002 4283245329
-0.010901437 0.1230305 0.59600002 4283245329
-0.0098632053 0.1230305 0.59600002 4283245329
-0.0088249724 0.1230305 0.59600002 4283047694
-0.007786741 0.1230305 0.59600002 4283243780
-0.0067371861 0.12282407 0.59500003 4283375110
-0.0057006953 0.12282407 0.59500003 4283244544
-0.0046642059 0.12282407 0.59500003 4284099843
-0.0036338121 0.1230305 0.59600002 4283838741
-0.0025955802 0.1230305 0.59600002 4283378190
-0.0015573482 0.1230305 0.59600002 4283443474
-0.00051998702 0.12323692 0.597 4285022249
0.00051998702 0.12323692 0.597 4285678889
0.0015651872 0.12364979 0.59900004 4287257664
0.0026086452 0.12364979 0.59900004 4287390286
0.0036521035 0.12364979 0.59900004 4286995528
0.0046955617 0.12364979 0.59900004 4285025824
0.0057486007 0.12385622 0.60000002 4284301844
0.0068051238 0.12406264 0.60100001 4283511829
0.0078651309 0.12426907 0.60200006 4283511829
0.0089286221 0.1244755 0.60300004 4284037391
0.0099955974 0.12468193 0.60400003 4284366356
0.011047766 0.12468193 0.60400003 4284497188
-0.033047486 0.12948114 0.62200004 4289430344
-0.031912573 0.12927297 0.62100005 4288837964
-0.030731495 0.12885663 0.61900002 4288508999
-0.024807824 0.12615041 0.60600001 4287720003
-0.023712976 0.12594226 0.60500002 4288048711
-0.022621615 0.12573409 0.60400003 4287588685
-0.021533735 0.12552592 0.60300004 4286733376
-0.020449342 0.12531777 0.60200006 4285813800
-0.019400656 0.12531777 0.60200006 4283708681
-0.018291 0.12490141 0.60000002 4283374108
-0.017217061 0.12469324 0.59900004 4282979350
-0.0161466 0.12448508 0.59800005 4282980382
-0.015104883 0.12448508 0.59800005 4283112224
-0.014063168 0.12448508 0.59800005 4283047435
-0.013021451 0.12448508 0.59800005 4283244557
-0.011979736 0.12448508 0.59800005 4283244573
-0.010938019 0.12448508 0.59800005 4283178780
-0.0098963035 0.12448508 0.59800005 4283113228
