# .PCD v0.7 - Point Cloud Data file format
VERSION 0.7
FIELDS x y z rgba
SIZE 4 4 4 4
TYPE F F F U
COUNT 1 1 1 1
WIDTH 1030
HEIGHT 1
VIEWPOINT 0 0 0 1 0 0 0
POINTS 1030
DATA ascii
-0.013260976 -0.15117513 0.60900003 4284416032
-0.012200098 -0.15117513 0.60900003 4283891737
-0.011139221 -0.15117513 0.60900003 4286193468
-0.010078342 -0.15117513 0.60900003 4282718981
-0.0090174638 -0.15117513 0.60900003 4279566336
-0.038594887 -0.14962128 0.60700005 4278190080
-0.037537493 -0.14962128 0.60700005 4280811529
-0.036480099 -0.14962128 0.60700005 4284165437
-0.035364345 -0.14937477 0.60600001 4283704593
-0.034308691 -0.14937477 0.60600001 4281204736
-0.03325304 -0.14937477 0.60600001 4282646528
-0.03214426 -0.14912829 0.60500002 4283891982
-0.031038959 -0.14888179 0.60400003 4285533709
-0.029986791 -0.14888179 0.60400003 4286191639
-0.028934622 -0.14888179 0.60400003 4287043616
-0.027882455 -0.14888179 0.60400003 4287636009
-0.026874708 -0.14912829 0.60500002 4287835447
-0.025820797 -0.14912829 0.60500002 4287703860
-0.024766888 -0.14912829 0.60500002 4288424758
-0.023712976 -0.14912829 0.60500002 4288951102
-0.022659067 -0.14912829 0.60500002 4288887869
-0.021640869 -0.14937477 0.60600001 4288558904
-0.020551248 -0.14912829 0.60500002 4288296765
-0.019497337 -0.14912829 0.60500002 4287902007
-0.018473912 -0.14937477 0.60600001 4287572540
-0.017447004 -0.14962128 0.60700005 4287638334
-0.016389608 -0.14962128 0.60700005 4286197033
-0.015332215 -0.14962128 0.60700005 4284815380
-0.014274822 -0.14962128 0.60700005 4281729024
-0.013260976 -0.15011425 0.60900003 4281925632
-0.012200098 -0.15011425 0.60900003 4282910208
-0.011139221 -0.15011425 0.60900003 4285278750
-0.01009489 -0.15036075 0.61000001 4282523930
-0.0090322709 -0.15036075 0.61000001 4279500800
-0.038785636 -0.14929812 0.61000001 4278190080
-0.037537493 -0.14856388 0.60700005 4280745984
-0.036480099 -0.14856388 0.60700005 4284165940
-0.035422705 -0.14856388 0.60700005 4283638528
-0.034308691 -0.14831911 0.60600001 4281665024
-0.03325304 -0.14831911 0.60600001 4282187793
-0.03214426 -0.14807437 0.60500002 4281729034
-0.031038959 -0.14782962 0.60400003 4282777600
-0.029986791 -0.14782962 0.60400003 4282712064
-0.028934622 -0.14782962 0.60400003 4282318848
-0.027882455 -0.14782962 0.60400003 4282318848
-0.026874708 -0.14807437 0.60500002 4282712064
-0.025778119 -0.14782962 0.60400003 4282777600
-0.024725951 -0.14782962 0.60400003 4283105280
-0.023634588 -0.14758487 0.60300004 4283170816
-0.022584163 -0.14758487 0.60300004 4283432960
-0.021533735 -0.14758487 0.60300004 4283367424
-0.020551248 -0.14807437 0.60500002 4282777600
-0.019497337 -0.14807437 0.60500002 4282712064
-0.018473912 -0.14831911 0.60600001 4282515456
-0.017447004 -0.14856388 0.60700005 4282646528
-0.016389608 -0.14856388 0.60700005 4282777600
-0.015332215 -0.14856388 0.60700005 4282908672
-0.014274822 -0.14856388 0.60700005 4282318860
-0.013260976 -0.14905338 0.60900003 4282843668
-0.012200098 -0.14905338 0.60900003 4283173649
-0.011157511 -0.14929812 0.61000001 4285147696
-0.01009489 -0.14929812 0.61000001 4282982402
-0.0090322709 -0.14929812 0.61000001 4280221696
-0.0080088461 -0.15003237 0.61300004 4279238667
-0.038785636 -0.1482355 0.61000001 4278190080
-0.037661172 -0.14799251 0.60900003 4280221706
-0.036480099 -0.14750648 0.60700005 4283771712
-0.035422705 -0.14750648 0.60700005 4283442701
-0.034308691 -0.14726347 0.60600001 4281666304
-0.03325304 -0.14726347 0.60600001 4281794578
-0.03214426 -0.14702046 0.60500002 4281073672
-0.031090347 -0.14702046 0.60500002 4280811520
-0.029986791 -0.14677745 0.60400003 4280025088
-0.028934622 -0.14677745 0.60400003 4278321152
-0.027882455 -0.14677745 0.60400003 4278321152
-0.026874708 -0.14702046 0.60500002 4278190080
-0.025778119 -0.14677745 0.60400003 4278190080
-0.024725951 -0.14677745 0.60400003 4278321152
-0.023634588 -0.14653444 0.60300004 4278321152
-0.022584163 -0.14653444 0.60300004 4278321152
-0.021533735 -0.14653444 0.60300004 4278321152
-0.020551248 -0.14702046 0.60500002 4278321152
-0.019497337 -0.14702046 0.60500002 4278452224
-0.018473912 -0.14726347 0.60600001 4279173120
-0.01741826 -0.14726347 0.60600001 4279435264
-0.016389608 -0.14750648 0.60700005 4280877056
-0.015332215 -0.14750648 0.60700005 4281270272
-0.014274822 -0.14750648 0.60700005 4282515466
-0.013260976 -0.14799251 0.60900003 4283041298
-0.012200098 -0.14799251 0.60900003 4282910997
-0.011157511 -0.1482355 0.61000001 4285147703
-0.01009489 -0.1482355 0.61000001 4282523930
-0.009047078 -0.14847851 0.611 4279828480
-0.0080088461 -0.14896454 0.61300004 4279238675
-0.037723012 -0.14717288 0.61000001 4280549390
-0.036600295 -0.14693162 0.60900003 4283836224
-0.035539415 -0.14693162 0.60900003 4283507968
-0.034365308 -0.14644909 0.60700005 4281534464
-0.03325304 -0.14620781 0.60600001 4281794578
-0.03214426 -0.14596654 0.60500002 4281466894
-0.031090347 -0.14596654 0.60500002 4280942592
-0.029986791 -0.14572529 0.60400003 4280156160
-0.028934622 -0.14572529 0.60400003 4279042048
-0.027882455 -0.14572529 0.60400003 4279042048
-0.026874708 -0.14596654 0.60500002 4278910976
-0.025778119 -0.14572529 0.60400003 4278910976
-0.024725951 -0.14572529 0.60400003 4278845440
-0.023634588 -0.14548402 0.60300004 4278845440
-0.022584163 -0.14548402 0.60300004 4278845440
-0.021533735 -0.14548402 0.60300004 4278845440
-0.020551248 -0.14596654 0.60500002 4279304192
-0.019497337 -0.14596654 0.60500002 4279435264
-0.018443428 -0.14596654 0.60500002 4279894016
-0.01741826 -0.14620781 0.60600001 4280025088
-0.016389608 -0.14644909 0.60700005 4280811520
-0.015332215 -0.14644909 0.60700005 4281597956
-0.014321854 -0.14693162 0.60900003 4282122247
-0.013260976 -0.14693162 0.60900003 4282451211
-0.012220131 -0.14717288 0.61000001 4282977303
-0.011175802 -0.14741415 0.611 4285016887
-0.01011144 -0.14741415 0.611 4282786573
-0.009061886 -0.14765543 0.61200005 4279894016
-0.036660392 -0.14611027 0.61000001 4283640389
-0.035597775 -0.14611027 0.61000001 4283377431
-0.034478541 -0.14587075 0.60900003 4281535232
-0.033307917 -0.1453917 0.60700005 4281794578
-0.032197386 -0.14515217 0.60600001 4281401356
-0.031141737 -0.14515217 0.60600001 4280156160
-0.030036438 -0.14491263 0.60500002 4279697408
-0.028982528 -0.14491263 0.60500002 4279042048
-0.027928619 -0.14491263 0.60500002 4279042048
-0.026919128 -0.14515217 0.60600001 4278910976
-0.025820797 -0.14491263 0.60500002 4278910976
-0.024766888 -0.14491263 0.60500002 4278910976
-0.023634588 -0.14443359 0.60300004 4278910976
-0.022584163 -0.14443359 0.60300004 4278910976
-0.021533735 -0.14443359 0.60300004 4278910976
-0.020551248 -0.14491263 0.60500002 4279435264
-0.019497337 -0.14491263 0.60500002 4279566336
-0.018443428 -0.14491263 0.60500002 4280025088
-0.01741826 -0.14515217 0.60600001 4280156160
-0.016389608 -0.1453917 0.60700005 4280549376
-0.015332215 -0.1453917 0.60700005 4281729285
-0.014321854 -0.14587075 0.60900003 4282253833
-0.013282751 -0.14611027 0.61000001 4282517004
-0.012240164 -0.14634977 0.611 4282910997
-0.011175802 -0.14634977 0.611 4285081910
-0.01012799 -0.14658932 0.61200005 4282918182
-0.0090766922 -0.14682885 0.61300004 4279500800
-0.036720492 -0.14528541 0.611 4283836222
-0.035597775 -0.14504763 0.61000001 4283835649
-0.034535155 -0.14504763 0.61000001 4281861888
-0.033417661 -0.14480986 0.60900003 4281794578
-0.032250524 -0.1443343 0.60700005 4281466894
-0.031193128 -0.1443343 0.60700005 4280549376
-0.030135734 -0.1443343 0.60700005 4279828480
-0.029030433 -0.14409651 0.60600001 4279435264
-0.027974781 -0.14409651 0.60600001 4279304192
-0.026919128 -0.14409651 0.60600001 4278910976
-0.025863476 -0.14409651 0.60600001 4278845440
-0.024807824 -0.14409651 0.60600001 4278910976
-0.023752172 -0.14409651 0.60600001 4278910976
-0.022659067 -0.14385873 0.60500002 4278910976
-0.021605156 -0.14385873 0.60500002 4278910976
-0.020551248 -0.14385873 0.60500002 4279435264
-0.019529564 -0.14409651 0.60600001 4279304192
-0.018473912 -0.14409651 0.60600001 4280025088
-0.017447004 -0.1443343 0.60700005 4280352768
-0.016389608 -0.1443343 0.60700005 4280549382
-0.015382733 -0.14480986 0.60900003 4281861146
-0.014345372 -0.14504763 0.61000001 4282188290
-0.013304525 -0.14528541 0.611 4282385668
-0.012240164 -0.14528541 0.611 4282977303
-0.011194094 -0.14552322 0.61200005 4284556336
-0.01012799 -0.14552322 0.61200005 4283836944
-0.036960889 -0.14516523 0.61500001 4284165435
-0.035714488 -0.14445712 0.61200005 4283772466
-0.034591768 -0.14422105 0.611 4281601040
-0.033472531 -0.14398502 0.61000001 4281794586
-0.032250524 -0.1432769 0.60700005 4281466902
-0.031193128 -0.1432769 0.60700005 4280811521
-0.030135734 -0.1432769 0.60700005 4279959552
-0.029030433 -0.14304085 0.60600001 4279042048
-0.027974781 -0.14304085 0.60600001 4278910976
-0.026963551 -0.1432769 0.60700005 4278910976
-0.025863476 -0.14304085 0.60600001 4278910976
-0.024807824 -0.14304085 0.60600001 4278910976
-0.023752172 -0.14304085 0.60600001 4278910976
-0.022696519 -0.14304085 0.60600001 4278910976
-0.021640869 -0.14304085 0.60600001 4279042048
-0.020585217 -0.14304085 0.60600001 4279435264
-0.019529564 -0.14304085 0.60600001 4279566336
-0.018504398 -0.1432769 0.60700005 4280025088
-0.017447004 -0.1432769 0.60700005 4280352768
-0.016443612 -0.14374898 0.60900003 4281073664
-0.015382733 -0.14374898 0.60900003 4281925899
-0.014345372 -0.14398502 0.61000001 4282188040
-0.013304525 -0.14422105 0.611 4282648591
-0.012260198 -0.14445712 0.61200005 4282977303
-0.011194094 -0.14445712 0.61200005 4284556336
-0.010144538 -0.14469315 0.61300004 4284296495
-0.038279582 -0.14503109 0.61900002 4280549376
-0.037141185 -0.14479679 0.61800003 4284559152
-0.035772845 -0.1436253 0.61300004 4284165686
-0.034648385 -0.143391 0.61200005 4281797138
-0.033527404 -0.14315669 0.611 4281991202
-0.03240991 -0.1429224 0.61000001 4281466906
-0.031295903 -0.14268811 0.60900003 4280483840
-0.030235026 -0.14268811 0.60900003 4279894016
-0.029078338 -0.14221951 0.60700005 4279042048
-0.028020944 -0.14221951 0.60700005 4278910976
-0.026963551 -0.14221951 0.60700005 4278910976
-0.025906157 -0.14221951 0.60700005 4278910976
-0.024848763 -0.14221951 0.60700005 4278910976
-0.023791369 -0.14221951 0.60700005 4278910976
-0.022733973 -0.14221951 0.60700005 4279238656
-0.021676581 -0.14221951 0.60700005 4279173120
-0.020619186 -0.14221951 0.60700005 4279435264
-0.019561792 -0.14221951 0.60700005 4279566336
-0.018565366 -0.14268811 0.60900003 4279828480
-0.017504489 -0.14268811 0.60900003 4280090624
-0.016443612 -0.14268811 0.60900003 4280942592
-0.015407992 -0.1429224 0.61000001 4281401344
-0.014368888 -0.14315669 0.611 4281991178
-0.013304525 -0.14315669 0.611 4282714134
-0.012260198 -0.143391 0.61200005 4282914581
-0.011212384 -0.1436253 0.61300004 4285151287
-0.010144538 -0.1436253 0.61300004 4285283095
-0.039485049 -0.14441791 0.62100005 4278386688
-0.038403265 -0.14441791 0.62100005 4280549376
-0.037141185 -0.14372024 0.61800003 4284229935
-0.035831202 -0.14279 0.61400002 4283577133
-0.034704998 -0.14255746 0.61300004 4282458653
-0.033582281 -0.14232489 0.61200005 4281795103
-0.032463044 -0.14209233 0.611 4281532444
-0.031347293 -0.14185978 0.61000001 4280287232
-0.030235026 -0.14162724 0.60900003 4279959552
-0.029174149 -0.14162724 0.60900003 4279369728
-0.028113268 -0.14162724 0.60900003 4278910976
-0.027052393 -0.14162724 0.60900003 4278910976
-0.025991514 -0.14162724 0.60900003 4279042048
-0.024930635 -0.14162724 0.60900003 4279042048
-0.023869757 -0.14162724 0.60900003 4279042048
-0.022733973 -0.14116213 0.60700005 4278910976
-0.021676581 -0.14116213 0.60700005 4279107584
-0.020687124 -0.14162724 0.60900003 4279500800
-0.019626245 -0.14162724 0.60900003 4279566336
-0.018595852 -0.14185978 0.61000001 4279894016
-0.017533232 -0.14185978 0.61000001 4280287232
-0.016470611 -0.14185978 0.61000001 4281270276
-0.01543325 -0.14209233 0.611 4281532423
-0.014392407 -0.14232489 0.61200005 4281466880
-0.013326302 -0.14232489 0.61200005 4282780161
-0.01228023 -0.14255746 0.61300004 4282849577
-0.011230675 -0.14279 0.61400002 4285020745
-0.010177636 -0.14302257 0.61500001 4285546035
-0.039485049 -0.14333613 0.62100005 4278452224
-0.038403265 -0.14333613 0.62100005 4280614912
-0.037201285 -0.14287449 0.61900002 4282255895
-0.035947915 -0.14218207 0.61600006 4283508224
-0.034704998 -0.14148961 0.61300004 4284100352
-0.033582281 -0.14125879 0.61200005 4282851596
-0.032463044 -0.14102797 0.611 4281601792
-0.03139868 -0.14102797 0.611 4281073693
-0.030284673 -0.14079717 0.61000001 4280483860
-0.029222051 -0.14079717 0.61000001 4279500807
-0.028159434 -0.14079717 0.61000001 4279238658
-0.027096812 -0.14079717 0.61000001 4278910976
-0.026034193 -0.14079717 0.61000001 4278845440
-0.024971571 -0.14079717 0.61000001 4278845440
-0.023908952 -0.14079717 0.61000001 4278845440
-0.022846332 -0.14079717 0.61000001 4279173120
-0.021783711 -0.14079717 0.61000001 4279173120
-0.02075506 -0.14102797 0.611 4279697408
-0.019690698 -0.14102797 0.611 4279828480
-0.018626336 -0.14102797 0.611 4280221697
-0.017561974 -0.14102797 0.611 4280680456
-0.016497612 -0.14102797 0.611 4281008146
-0.01545851 -0.14125879 0.61200005 4281204757
-0.014392407 -0.14125879 0.61200005 4282712064
-0.013348076 -0.14148961 0.61300004 4286330407
-0.012300263 -0.14172043 0.61400002 4286135367
-0.011248966 -0.14195123 0.61500001 4286201160
-0.010210734 -0.14241287 0.61700004 4285674260
-0.0091655338 -0.14287449 0.61900002 4281991168
-0.039548632 -0.14248343 0.62200004 4278779904
-0.038403265 -0.14225435 0.62100005 4280942592
-0.037201285 -0.14179619 0.61900002 4282912542
-0.036122985 -0.14179619 0.61900002 4282846208
-0.034818228 -0.1408799 0.61500001 4283767306
-0.033637155 -0.14042176 0.61300004 4283246883
-0.032516178 -0.14019269 0.61200005 4282325781
-0.03145007 -0.14019269 0.61200005 4282322471
-0.030383969 -0.14019269 0.61200005 4280745999
-0.029269956 -0.13996361 0.611 4280680448
-0.028205594 -0.13996361 0.611 4280614912
-0.027141232 -0.13996361 0.611 4279959552
-0.02607687 -0.13996361 0.611 4279697408
-0.02501251 -0.13996361 0.611 4278910976
-0.023948148 -0.13996361 0.611 4278910976
-0.022883786 -0.13996361 0.611 4278910976
-0.021819422 -0.13996361 0.611 4279107584
-0.020789031 -0.14019269 0.61200005 4280090624
-0.019722925 -0.14019269 0.61200005 4280287232
-0.018656824 -0.14019269 0.61200005 4280811520
-0.017590718 -0.14019269 0.61200005 4280942592
-0.016524615 -0.14019269 0.61200005 4280811520
-0.015483769 -0.14042176 0.61300004 4282123780
-0.014415923 -0.14042176 0.61300004 4284620861
-0.013348076 -0.14042176 0.61300004 4287647339
-0.012320296 -0.1408799 0.61500001 4287844966
-0.011285548 -0.14133807 0.61700004 4286068555
-0.010243832 -0.14179619 0.61900002 4285273624
-0.0091951489 -0.14225435 0.62100005 4282843136
-0.0081133656 -0.14225435 0.62100005 4281139200
-0.039612211 -0.14162724 0.62300003 4279173120
-0.038465105 -0.14139991 0.62200004 4281401348
-0.037321486 -0.14117257 0.62100005 4284228400
-0.036122985 -0.14071791 0.61900002 4283373313
-0.034874845 -0.14003591 0.61600006 4282057472
-0.033692028 -0.13958125 0.61400002 4282584331
-0.032569308 -0.13935392 0.61300004 4283439640
-0.03145007 -0.13912658 0.61200005 4282784815
-0.030383969 -0.13912658 0.61200005 4282390313
-0.029317865 -0.13912658 0.61200005 4282456832
-0.028251758 -0.13912658 0.61200005 4282785792
-0.027185656 -0.13912658 0.61200005 4282522131
-0.026119553 -0.13912658 0.61200005 4281864201
-0.025053447 -0.13912658 0.61200005 4281798144
-0.023987344 -0.13912658 0.61200005 4281864192
-0.022958692 -0.13935392 0.61300004 4282256896
-0.021890845 -0.13935392 0.61300004 4282585856
-0.020823 -0.13935392 0.61300004 4282653184
-0.019755153 -0.13935392 0.61300004 4282784512
-0.018687308 -0.13935392 0.61300004 4283110912
-0.017619463 -0.13935392 0.61300004 4283110912
-0.016551614 -0.13935392 0.61300004 4284294144
-0.015509027 -0.13958125 0.61400002 4287649569
-0.014439439 -0.13958125 0.61400002 4287387495
-0.013413402 -0.14003591 0.61600006 4287716459
-0.012400428 -0.14071791 0.61900002 4286924618
-0.01132213 -0.14071791 0.61900002 4282977038
-0.01027693 -0.14117257 0.62100005 4283894810
-0.0091951489 -0.14117257 0.62100005 4284815912
-0.0081133656 -0.14117257 0.62100005 4281205020
-0.040762801 -0.14076754 0.62400001 4279435264
-0.039612211 -0.14054197 0.62300003 4278845440
-0.038465105 -0.14031637 0.62200004 4281204738
-0.037321486 -0.14009079 0.62100005 4284098095
-0.036239702 -0.14009079 0.62100005 4283307050
-0.035044689 -0.1396396 0.61900002 4282451741
-0.033801772 -0.13896285 0.61600006 4282843655
-0.032675568 -0.13873725 0.61500001 4283501328
-0.031552851 -0.13851166 0.61400002 4282782771
-0.030433614 -0.13828608 0.61300004 4282585135
-0.029317865 -0.13806048 0.61200005 4282785303
-0.028251758 -0.13806048 0.61200005 4282785303
-0.027230076 -0.13828608 0.61300004 4282785303
-0.026162231 -0.13828608 0.61300004 4282127373
-0.025094382 -0.13828608 0.61300004 4282455040
-0.024065733 -0.13851166 0.61400002 4282586368
-0.022996144 -0.13851166 0.61400002 4282715904
-0.021926558 -0.13851166 0.61400002 4283242245
-0.020856969 -0.13851166 0.61400002 4282981921
-0.01978738 -0.13851166 0.61400002 4282718492
-0.018717792 -0.13851166 0.61400002 4282981385
-0.017648203 -0.13851166 0.61400002 4283047435
-0.016578615 -0.13851166 0.61400002 4285277467
-0.015559547 -0.13896285 0.61600006 4288172359
-0.014486475 -0.13896285 0.61600006 4287386463
-0.013456952 -0.13941403 0.61800003 4286794583
-0.012400428 -0.1396396 0.61900002 4283702057
-0.01132213 -0.1396396 0.61900002 4282517784
-0.01027693 -0.14009079 0.62100005 4283112987
-0.0091951489 -0.14009079 0.62100005 4283902503
-0.0081133656 -0.14009079 0.62100005 4281537053
-0.0070542293 -0.14054197 0.62300003 4279435264
-0.040697478 -0.13945669 0.62300003 4279566336
-0.039612211 -0.13945669 0.62300003 4279107584
-0.038465105 -0.13923284 0.62200004 4281335808
-0.037321486 -0.13900901 0.62100005 4285676350
-0.036239702 -0.13900901 0.62100005 4284560142
-0.035044689 -0.13856131 0.61900002 4282059776
-0.033911519 -0.13833746 0.61800003 4282581251
-0.032728702 -0.13788977 0.61600006 4281466880
-0.031604238 -0.13766593 0.61500001 4280745994
-0.030483261 -0.13744207 0.61400002 4280418310
-0.029413672 -0.13744207 0.61400002 4280549376
-0.028344084 -0.13744207 0.61400002 4280745984
-0.027363339 -0.13788977 0.61600006 4280942592
-0.026290268 -0.13788977 0.61600006 4281664003
-0.025217196 -0.13788977 0.61600006 4281730304
-0.024104927 -0.13766593 0.61500001 4281993472
-0.023033597 -0.13766593 0.61500001 4282254848
-0.021962266 -0.13766593 0.61500001 4282846720
-0.020890936 -0.13766593 0.61500001 4282584353
-0.019819608 -0.13766593 0.61500001 4281532434
-0.018748276 -0.13766593 0.61500001 4281794560
-0.017676946 -0.13766593 0.61500001 4281597952
-0.016605616 -0.13766593 0.61500001 4282187776
-0.015584805 -0.13811362 0.61700004 4282253312
-0.01450999 -0.13811362 0.61700004 4282777600
-0.013456952 -0.13833746 0.61800003 4282908672
-0.012440494 -0.13900901 0.62100005 4282777600
-0.011358713 -0.13900901 0.62100005 4285011742
-0.010293479 -0.13923284 0.62200004 4283574299
-0.0092099551 -0.13923284 0.62200004 4283837728
-0.0081264311 -0.13923284 0.62200004 4281996821
-0.0070542293 -0.13945669 0.62300003 4279566336
-0.040697478 -0.13837142 0.62300003 4279435264
-0.039612211 -0.13837142 0.62300003 4278779904
-0.038465105 -0.13814934 0.62200004 4281073664
-0.037381582 -0.13814934 0.62200004 4285546047
-0.036239702 -0.13792722 0.62100005 4284495935
-0.035157919 -0.13792722 0.62100005 4281864215
-0.034076139 -0.13792722 0.62100005 4282581003
-0.032888092 -0.137483 0.61900002 4281597952
-0.031809792 -0.137483 0.61900002 4280811520
-0.030632203 -0.1370388 0.61700004 4280614912
-0.029509487 -0.13681671 0.61600006 4280418304
-0.028436411 -0.13681671 0.61600006 4280418304
-0.027363339 -0.13681671 0.61600006 4280418304
-0.026290268 -0.13681671 0.61600006 4280549376
-0.025217196 -0.13681671 0.61600006 4281073664
-0.024144124 -0.13681671 0.61600006 4281139200
-0.023071053 -0.13681671 0.61600006 4281401344
-0.021962266 -0.13659458 0.61500001 4282187776
-0.020890936 -0.13659458 0.61500001 4282187806
-0.019819608 -0.13659458 0.61500001 4281860120
-0.018748276 -0.13659458 0.61500001 4281401348
-0.017676946 -0.13659458 0.61500001 4280942592
-0.016605616 -0.13659458 0.61500001 4280549376
-0.015610063 -0.13726091 0.61800003 4280549376
-0.014533508 -0.13726091 0.61800003 4280745984
-0.013478726 -0.137483 0.61900002 4281008128
-0.012440494 -0.13792722 0.62100005 4282318848
-0.011377004 -0.13814934 0.62200004 4284685857
-0.010293479 -0.13814934 0.62200004 4283772448
-0.0092099551 -0.13814934 0.62200004 4283838241
-0.0081264311 -0.13814934 0.62200004 4282259738
-0.0070655528 -0.13859354 0.62400001 4279631872
-0.041849811 -0.13750653 0.62400001 4278779904
-0.040762801 -0.13750653 0.62400001 4278583296
-0.039675795 -0.13750653 0.62400001 4278190080
-0.038526949 -0.13728616 0.62300003 4280811520
-0.037441682 -0.13728616 0.62300003 4285414710
-0.036298059 -0.13706581 0.62200004 4284627241
-0.035214536 -0.13706581 0.62200004 4282785037
-0.034076139 -0.13684544 0.62100005 4282714143
-0.032994356 -0.13684544 0.62100005 4282253592
-0.031809792 -0.13640471 0.61900002 4281401354
-0.030681849 -0.13618435 0.61800003 4280680448
-0.029557388 -0.13596399 0.61700004 4280418304
-0.028482577 -0.13596399 0.61700004 4280156160
-0.027407762 -0.13596399 0.61700004 4279566336
-0.026332946 -0.13596399 0.61700004 4279566336
-0.025258133 -0.13596399 0.61700004 4279566336
-0.024144124 -0.13574362 0.61600006 4279500800
-0.023071053 -0.13574362 0.61600006 4279238656
-0.021997979 -0.13574362 0.61600006 4279369728
-0.020924907 -0.13574362 0.61600006 4279828480
-0.019851835 -0.13574362 0.61600006 4279762944
-0.018778762 -0.13574362 0.61600006 4280025088
-0.01770569 -0.13574362 0.61600006 4280025088
-0.016632618 -0.13574362 0.61600006 4280418304
-0.015610063 -0.13618435 0.61800003 4281204744
-0.014557025 -0.13640471 0.61900002 4282187783
-0.013522278 -0.13684544 0.62100005 4282843153
-0.012460527 -0.13706581 0.62200004 4282714143
-0.011377004 -0.13706581 0.62200004 4284424761
-0.010310029 -0.13728616 0.62300003 4283772448
-0.0092247622 -0.13728616 0.62300003 4283772448
-0.0081394957 -0.13728616 0.62300003 4282128407
-0.0070655528 -0.13750653 0.62400001 4279566336
-0.041849811 -0.13641952 0.62400001 4278714368
-0.040762801 -0.13641952 0.62400001 4278714368
-0.039675795 -0.13641952 0.62400001 4278190080
-0.038588788 -0.13641952 0.62400001 4280352768
-0.037441682 -0.13620089 0.62300003 4284954937
-0.036356416 -0.13620089 0.62300003 4284495421
-0.035271149 -0.13620089 0.62300003 4282653218
-0.034131009 -0.13598228 0.62200004 4282978848
-0.032994356 -0.13576366 0.62100005 4282123539
-0.031912573 -0.13576366 0.62100005 4282057746
-0.030731495 -0.13532642 0.61900002 4281335816
-0.029653199 -0.13532642 0.61900002 4279828480
-0.028528737 -0.1351078 0.61800003 4279828480
-0.02745218 -0.1351078 0.61800003 4279435264
-0.026375625 -0.1351078 0.61800003 4279304192
-0.025258133 -0.13488917 0.61700004 4279238656
-0.024183318 -0.13488917 0.61700004 4279238656
-0.023108505 -0.13488917 0.61700004 4278910976
-0.02203369 -0.13488917 0.61700004 4278779904
-0.020958876 -0.13488917 0.61700004 4279173120
-0.019884063 -0.13488917 0.61700004 4279369728
-0.018809248 -0.13488917 0.61700004 4280090624
-0.017734434 -0.13488917 0.61700004 4280221696
-0.01668662 -0.1351078 0.61800003 4280614912
-0.015685841 -0.13576366 0.62100005 4281860355
-0.01460406 -0.13576366 0.62100005 4282056708
-0.013544052 -0.13598228 0.62200004 4282647820
-0.01248056 -0.13620089 0.62300003 4282910747
-0.011395294 -0.13620089 0.62300003 4284489522
-0.010310029 -0.13620089 0.62300003 4283837237
-0.0092395684 -0.13641952 0.62400001 4283903030
-0.0081525613 -0.13641952 0.62400001 4282128407
-0.0070881988 -0.13685676 0.62600005 4279435264
-0.0060264496 -0.13751261 0.62900001 4278648840
-0.041849811 -0.13533251 0.62400001 4278910976
-0.040762801 -0.13533251 0.62400001 4278910976
-0.039675795 -0.13533251 0.62400001 4278321152
-0.038588788 -0.13533251 0.62400001 4280549376
-0.037501778 -0.13533251 0.62400001 4285216830
-0.036414772 -0.13533251 0.62400001 4284561198
-0.035327762 -0.13533251 0.62400001 4282390030
-0.034185883 -0.13511562 0.62300003 4283042847
-0.033047486 -0.13489875 0.62200004 4282648089
-0.031963963 -0.13489875 0.62200004 4282058250
-0.030830791 -0.13468188 0.62100005 4282058250
-0.029653199 -0.13424812 0.61900002 4281073664
-0.028574899 -0.13424812 0.61900002 4280352768
-0.02745218 -0.13403124 0.61800003 4280221696
-0.026375625 -0.13403124 0.61800003 4280025088
-0.025299069 -0.13403124 0.61800003 4279894016
-0.024183318 -0.13381436 0.61700004 4279697408
-0.023108505 -0.13381436 0.61700004 4279500800
-0.02203369 -0.13381436 0.61700004 4279500800
-0.020958876 -0.13381436 0.61700004 4279566336
-0.019916289 -0.13403124 0.61800003 4279762944
-0.018839732 -0.13403124 0.61800003 4280549376
-0.017763175 -0.13403124 0.61800003 4280614912
-0.016767623 -0.13468188 0.62100005 4280745988
-0.015685841 -0.13468188 0.62100005 4282123289
-0.014627576 -0.13489875 0.62200004 4282648320
-0.013565826 -0.13511562 0.62300003 4283043072
-0.012500593 -0.13533251 0.62400001 4282977053
-0.011413584 -0.13533251 0.62400001 4284292657
-0.010326576 -0.13533251 0.62400001 4283903293
-0.0092543755 -0.13554938 0.625 4283640378
-0.0081656259 -0.13554938 0.625 4282458135
-0.0070881988 -0.13576627 0.62600005 4279435264
-0.0059977071 -0.13576627 0.62600005 4279238667
-0.041849811 -0.1342455 0.62400001 4279566339
-0.040762801 -0.1342455 0.62400001 4279173120
-0.039675795 -0.1342455 0.62400001 4278321152
-0.038588788 -0.1342455 0.62400001 4280156160
-0.037501778 -0.1342455 0.62400001 4284955200
-0.036414772 -0.1342455 0.62400001 4284560713
-0.035327762 -0.1342455 0.62400001 4282521129
-0.034185883 -0.13403037 0.62300003 4282910747
-0.033100616 -0.13403037 0.62300003 4282515989
-0.031963963 -0.13381523 0.62200004 4281992457
-0.030880438 -0.13381523 0.62200004 4282058250
-0.029653199 -0.13316981 0.61900002 4281598983
-0.028574899 -0.13316981 0.61900002 4280418304
-0.027496601 -0.13316981 0.61900002 4280287232
-0.026418304 -0.13316981 0.61900002 4280156160
-0.025299069 -0.13295469 0.61800003 4279500800
-0.024222512 -0.13295469 0.61800003 4279500800
-0.023145957 -0.13295469 0.61800003 4279500800
-0.0220694 -0.13295469 0.61800003 4279500800
-0.020992843 -0.13295469 0.61800003 4279959552
-0.019948514 -0.13316981 0.61900002 4280025088
-0.018931188 -0.13360009 0.62100005 4280418304
-0.017849406 -0.13360009 0.62100005 4280680448
-0.016794624 -0.13381523 0.62200004 4281008128
-0.015711101 -0.13381523 0.62200004 4282254607
-0.014651093 -0.13403037 0.62300003 4282846208
-0.013565826 -0.13403037 0.62300003 4282912000
-0.012500593 -0.1342455 0.62400001 4282910754
-0.011431876 -0.13446063 0.625 4284292407
-0.010343126 -0.13446063 0.625 4283771194
-0.0092543755 -0.13446063 0.625 4283968573
-0.0081656259 -0.13446063 0.625 4282919208
-0.0070881988 -0.13467579 0.62600005 4279173120
-0.0059977071 -0.13467579 0.62600005 4279107586
-0.0049385708 -0.13553633 0.63000005 4279698956
-0.041916877 -0.13337189 0.625 4279304198
-0.040828127 -0.13337189 0.625 4279173123
-0.039675795 -0.13315849 0.62400001 4278386688
-0.038588788 -0.13315849 0.62400001 4280614912
-0.037561879 -0.13337189 0.625 4285743176
-0.036473129 -0.13337189 0.625 4284758087
-0.035327762 -0.13315849 0.62400001 4282323746
-0.034240756 -0.13315849 0.62400001 4282844448
-0.033100616 -0.13294511 0.62300003 4282778655
-0.03201535 -0.13294511 0.62300003 4282058250
-0.030880438 -0.13273171 0.62200004 4281663492
-0.02974901 -0.13251832 0.62100005 4281335808
-0.028667226 -0.13251832 0.62100005 4280614912
-0.027496601 -0.13209151 0.61900002 4280287232
-0.026418304 -0.13209151 0.61900002 4280156160
-0.02542188 -0.13251832 0.62100005 4279500800
-0.024340099 -0.13251832 0.62100005 4279500800
-0.023258317 -0.13251832 0.62100005 4279500800
-0.022176534 -0.13251832 0.62100005 4279500800
-0.021094752 -0.13251832 0.62100005 4279500800
-0.020012969 -0.13251832 0.62100005 4279762944
-0.018931188 -0.13251832 0.62100005 4280418304
-0.017878149 -0.13273171 0.62200004 4280680448
-0.016821625 -0.13294511 0.62300003 4281073664
-0.015736358 -0.13294511 0.62300003 4282320656
-0.014651093 -0.13294511 0.62300003 4282648320
-0.013587601 -0.13315849 0.62400001 4282714112
-0.012520626 -0.13337189 0.625 4282977053
-0.011431876 -0.13337189 0.625 4284490293
-0.010343126 -0.13337189 0.625 4283902251
-0.0092543755 -0.13337189 0.625 4283968044
-0.0081656259 -0.13337189 0.625 4282787370
-0.0070881988 -0.13358529 0.62600005 4279304192
-0.0060264496 -0.13422546 0.62900001 4278779904
-0.0049385708 -0.13443886 0.63000005 4279370245
-0.039802961 -0.13249479 0.62600005 4278321152
-0.038650628 -0.13228314 0.625 4280483840
-0.037561879 -0.13228314 0.625 4285152836
-0.036473129 -0.13228314 0.625 4284693066
-0.035384376 -0.13228314 0.625 4282390311
-0.034240756 -0.13207148 0.62400001 4282844698
-0.033153746 -0.13207148 0.62400001 4282515989
-0.03201535 -0.13185984 0.62300003 4282187781
-0.030930085 -0.13185984 0.62300003 4281991171
-0.02974901 -0.13143654 0.62100005 4281401344
-0.028667226 -0.13143654 0.62100005 4280680448
-0.027629865 -0.13164818 0.62200004 4280287232
-0.026546342 -0.13164818 0.62200004 4280156160
-0.025462817 -0.13164818 0.62200004 4279959552
-0.024379293 -0.13164818 0.62200004 4279894016
-0.023295769 -0.13164818 0.62200004 4279566336
-0.022212245 -0.13164818 0.62200004 4279566336
-0.02112872 -0.13164818 0.62200004 4280025088
-0.020045197 -0.13164818 0.62200004 4280025088
-0.018961672 -0.13164818 0.62200004 4280614912
-0.017906889 -0.13185984 0.62300003 4280811520
-0.016848626 -0.13207148 0.62400001 4280942592
-0.015761618 -0.13207148 0.62400001 4282320654
-0.014674609 -0.13207148 0.62400001 4282779904
-0.013609376 -0.13228314 0.625 4282911232
-0.012520626 -0.13228314 0.625 4282977053
-0.011431876 -0.13228314 0.625 4284490293
-0.010359676 -0.13249479 0.62600005 4283837739
-0.0092543755 -0.13228314 0.625 4283969325
-0.0081656259 -0.13228314 0.625 4282720807
-0.0070881988 -0.13249479 0.62600005 4279435264
-0.0060360311 -0.1333414 0.63000005 4278452224
-0.039866548 -0.13161421 0.62700003 4278190080
-0.038650628 -0.13119438 0.625 4280614912
-0.037561879 -0.13119438 0.625 4285216832
-0.036531486 -0.13140431 0.62600005 4284889137
-0.035440993 -0.13140431 0.62600005 4282586382
-0.034295626 -0.13119438 0.625 4283040800
-0.033153746 -0.13098447 0.62400001 4282908958
-0.03206674 -0.13098447 0.62400001 4282188040
-0.03097973 -0.13098447 0.62400001 4281925635
-0.029796915 -0.13056466 0.62200004 4281401344
-0.02871339 -0.13056466 0.62200004 4280614912
-0.027629865 -0.13056466 0.62200004 4280287232
-0.026546342 -0.13056466 0.62200004 4280156160
-0.025462817 -0.13056466 0.62200004 4279566336
-0.024379293 -0.13056466 0.62200004 4279566336
-0.023295769 -0.13056466 0.62200004 4279566336
-0.022212245 -0.13056466 0.62200004 4279500800
-0.02112872 -0.13056466 0.62200004 4279959552
-0.020077422 -0.13077457 0.62300003 4280025088
-0.018992156 -0.13077457 0.62300003 4280418304
-0.017906889 -0.13077457 0.62300003 4281008128
-0.016848626 -0.13098447 0.62400001 4281466880
-0.015761618 -0.13098447 0.62400001 4282450446
-0.014698126 -0.13119438 0.625 4282647557
-0.013631152 -0.13140431 0.62600005 4282976522
-0.01254066 -0.13140431 0.62600005 4283109153
-0.011450168 -0.13140431 0.62600005 4284227634
-0.010359676 -0.13140431 0.62600005 4283705628
-0.0092839897 -0.13161421 0.62700003 4283836957
-0.008191756 -0.13161421 0.62700003 4282457635
-0.0071334909 -0.13224395 0.63000005 4279369728
-0.0060456116 -0.13245386 0.63100004 4278648840
-0.039993711 -0.13093832 0.62900001 4278648832
-0.038897991 -0.13093832 0.62900001 4280549376
-0.037802275 -0.13093832 0.62900001 4285414204
-0.036706556 -0.13093832 0.62900001 4284955720
-0.03549761 -0.13052198 0.62700003 4282389793
-0.034405377 -0.13052198 0.62700003 4283173149
-0.033206876 -0.13010563 0.625 4282975770
-0.032118127 -0.13010563 0.625 4282253585
-0.03097973 -0.12989746 0.62400001 4281991180
-0.029892722 -0.12989746 0.62400001 4281401344
-0.028759552 -0.12968929 0.62300003 4280877056
-0.027674286 -0.12968929 0.62300003 4280287232
-0.026589019 -0.12968929 0.62300003 4280156160
-0.025503755 -0.12968929 0.62300003 4279697408
-0.024418488 -0.12968929 0.62300003 4279566336
-0.023333222 -0.12968929 0.62300003 4279500800
-0.022247955 -0.12968929 0.62300003 4279500800
-0.021162689 -0.12968929 0.62300003 4279959552
-0.020077422 -0.12968929 0.62300003 4280025088
-0.019022642 -0.12989746 0.62400001 4280614912
-0.017935634 -0.12989746 0.62400001 4280877056
-0.016875627 -0.13010563 0.625 4281860096
-0.015812136 -0.13031381 0.62600005 4282516739
-0.014721643 -0.13031381 0.62600005 4282647044
-0.013631152 -0.13031381 0.62600005 4283370766
-0.012560693 -0.13052198 0.62700003 4283109153
-0.011468458 -0.13052198 0.62700003 4284227634
-0.010376224 -0.13052198 0.62700003 4283902251
-0.0092839897 -0.13052198 0.62700003 4284231472
-0.008191756 -0.13052198 0.62700003 4282063910
-0.0071334909 -0.13114649 0.63000005 4279042048
-0.037862375 -0.13004903 0.63000005 4285547580
-0.036764916 -0.13004903 0.63000005 4285153336
-0.03561084 -0.12984259 0.62900001 4282718994
-0.034515116 -0.12984259 0.62900001 4283173149
-0.03331314 -0.12942974 0.62700003 4282975770
-0.032169517 -0.12922332 0.62600005 4282253585
-0.031029377 -0.12901688 0.625 4281991180
-0.029940628 -0.12901688 0.625 4281597952
-0.028805716 -0.12881045 0.62400001 4280811520
-0.027718706 -0.12881045 0.62400001 4280287232
-0.026631698 -0.12881045 0.62400001 4280090624
-0.02554469 -0.12881045 0.62400001 4279697408
-0.024418488 -0.12860402 0.62300003 4279500800
-0.023333222 -0.12860402 0.62300003 4279500800
-0.022247955 -0.12860402 0.62300003 4279566336
-0.021162689 -0.12860402 0.62300003 4279959552
-0.02010965 -0.12881045 0.62400001 4280025088
-0.019053126 -0.12901688 0.625 4280418304
-0.017964376 -0.12901688 0.625 4280811520
-0.016902629 -0.12922332 0.62600005 4282122240
-0.015812136 -0.12922332 0.62600005 4282384384
-0.014721643 -0.12922332 0.62600005 4282777611
-0.013631152 -0.12922332 0.62600005 4283698201
-0.012560693 -0.12942974 0.62700003 4283109153
-0.011468458 -0.12942974 0.62700003 4284425013
-0.010376224 -0.12942974 0.62700003 4284034852
-0.0092839897 -0.12942974 0.62700003 4284561196
-0.008191756 -0.12942974 0.62700003 4283579432
-0.0071448144 -0.13025546 0.63100004 4278714368
-0.037862375 -0.12895158 0.63000005 4285744702
-0.036764916 -0.12895158 0.63000005 4285219676
-0.035667457 -0.12895158 0.63000005 4282324527
-0.034515116 -0.12874688 0.62900001 4283172107
-0.0334194 -0.12874688 0.62900001 4283172107
-0.032220908 -0.1283375 0.62700003 4282450707
-0.031079026 -0.12813284 0.62600005 4282187792
-0.029988535 -0.12813284 0.62600005 4281663491
-0.028851876 -0.12792814 0.625 4280877056
-0.027763126 -0.12792814 0.625 4280156160
-0.026674377 -0.12792814 0.625 4279959552
-0.025585627 -0.12792814 0.625 4279697408
-0.024457682 -0.12772344 0.62400001 4279435264
-0.023370674 -0.12772344 0.62400001 4279500800
-0.022319376 -0.12792814 0.625 4279566336
-0.021230627 -0.12792814 0.625 4280025088
-0.020141875 -0.12792814 0.625 4280156160
-0.019083614 -0.12813284 0.62600005 4280418304
-0.01799312 -0.12813284 0.62600005 4281073664
-0.016902629 -0.12813284 0.62600005 4282122240
-0.015837394 -0.1283375 0.62700003 4282712065
-0.014745161 -0.1283375 0.62700003 4282712074
-0.013652927 -0.1283375 0.62700003 4283632408
-0.012560693 -0.1283375 0.62700003 4283042847
-0.011468458 -0.1283375 0.62700003 4284424500
-0.010376224 -0.1283375 0.62700003 4284034350
-0.0093136039 -0.12874688 0.62900001 4285547589
-0.0082309516 -0.12895158 0.63000005 4284435298
-0.037922472 -0.12805705 0.63100004 4287323978
-0.036823273 -0.12805705 0.63100004 4286471496
-0.035667457 -0.12785411 0.63000005 4282458123
-0.034569994 -0.12785411 0.63000005 4282385668
-0.0334194 -0.12765115 0.62900001 4282188290
-0.032323685 -0.12765115 0.62900001 4282450707
-0.031128673 -0.12724528 0.62700003 4282122255
-0.030036438 -0.12724528 0.62700003 4281663488
-0.028898042 -0.12704234 0.62600005 4280680448
-0.027807551 -0.12704234 0.62600005 4280156160
-0.026717057 -0.12704234 0.62600005 4280025088
-0.025626566 -0.12704234 0.62600005 4279762944
-0.024496876 -0.12683938 0.625 4279762944
-0.023408126 -0.12683938 0.625 4279697408
-0.022355089 -0.12704234 0.62600005 4279566336
-0.021264596 -0.12704234 0.62600005 4279959552
-0.020174105 -0.12704234 0.62600005 4280156160
-0.019083614 -0.12704234 0.62600005 4280549376
-0.01799312 -0.12704234 0.62600005 4281204736
-0.016929628 -0.12724528 0.62700003 4282122240
-0.015837394 -0.12724528 0.62700003 4282449920
-0.014792194 -0.12765115 0.62900001 4282777619
-0.013696476 -0.12765115 0.62900001 4283500317
-0.012600758 -0.12765115 0.62900001 4282975507
-0.01150504 -0.12765115 0.62900001 4284685868
-0.010425872 -0.12785411 0.63000005 4285022520
-0.0093284119 -0.12785411 0.63000005 4288246376
-0.0082440153 -0.12805705 0.63100004 4286474322
-0.037982572 -0.12715904 0.63200003 4287588685
-0.036823273 -0.12695785 0.63100004 4286669952
-0.03572407 -0.12695785 0.63100004 4283380302
-0.034569994 -0.12675665 0.63000005 4282848293
-0.033472534 -0.12675665 0.63000005 4282387742
-0.032323685 -0.12655543 0.62900001 4281991178
-0.031227965 -0.12655543 0.62900001 4282253583
-0.030132247 -0.12655543 0.62900001 4281860101
-0.028944205 -0.12615304 0.62700003 4280811520
-0.027851969 -0.12615304 0.62700003 4280221696
-0.026759736 -0.12615304 0.62700003 4280025088
-0.025667502 -0.12615304 0.62700003 4279762944
-0.024536073 -0.12595186 0.62600005 4279762944
-0.02344558 -0.12595186 0.62600005 4279762944
-0.0223908 -0.12615304 0.62700003 4279762944
-0.021298565 -0.12615304 0.62700003 4280025088
-0.020206332 -0.12615304 0.62700003 4280156160
-0.019114098 -0.12615304 0.62700003 4280418304
-0.018021863 -0.12615304 0.62700003 4281139200
-0.01698363 -0.12655543 0.62900001 4281729024
-0.015887912 -0.12655543 0.62900001 4282516489
-0.014815712 -0.12675665 0.63000005 4282975003
-0.013718252 -0.12675665 0.63000005 4283303967
-0.012640825 -0.12695785 0.63100004 4282844416
-0.011541623 -0.12695785 0.63100004 4285607715
-0.01044242 -0.12695785 0.63100004 4285483613
-0.009343219 -0.12695785 0.63100004 4288115333
-0.038102768 -0.12645702 0.634 4288245834
-0.036881629 -0.1260581 0.63200003 4287459452
-0.03572407 -0.12585865 0.63100004 4285551455
-0.034624867 -0.12585865 0.63100004 4284103507
-0.033472534 -0.1256592 0.63000005 4281734959
-0.032375075 -0.1256592 0.63000005 4281204744
-0.031227965 -0.12545972 0.62900001 4281532429
-0.030132247 -0.12545972 0.62900001 4281925641
-0.029036531 -0.12545972 0.62900001 4281008128
-0.02794081 -0.12545972 0.62900001 4280221696
-0.026845094 -0.12545972 0.62900001 4280156160
-0.025749374 -0.12545972 0.62900001 4279762944
-0.024653656 -0.12545972 0.62900001 4279762944
-0.023557939 -0.12545972 0.62900001 4279762944
-0.022462221 -0.12545972 0.62900001 4279762944
-0.021366503 -0.12545972 0.62900001 4279959552
-0.020270785 -0.12545972 0.62900001 4280156160
-0.019175066 -0.12545972 0.62900001 4280614912
-0.018079348 -0.12545972 0.62900001 4281139200
-0.017010633 -0.1256592 0.63000005 4281925632
-0.015913174 -0.1256592 0.63000005 4282385153
-0.014815712 -0.1256592 0.63000005 4282777627
-0.013718252 -0.1256592 0.63000005 4283170849
-0.012640825 -0.12585865 0.63100004 4282909200
-0.011559913 -0.1260581 0.63200003 4287909212
-0.010492067 -0.12645702 0.634 4287328368
-0.0093876384 -0.12645702 0.634 4287920505
-0.038102768 -0.12535259 0.634 4287524684
-0.036939982 -0.12515488 0.63300002 4287327625
-0.035837296 -0.12515488 0.63300002 4285617008
-0.034624867 -0.12475945 0.63100004 4285288026
-0.033525664 -0.12475945 0.63100004 4283511872
-0.032375075 -0.12456173 0.63000005 4281731373
-0.031277616 -0.12456173 0.63000005 4280877088
-0.030132247 -0.124364 0.62900001 4282253314
-0.029036531 -0.124364 0.62900001 4281729024
-0.02794081 -0.124364 0.62900001 4280156160
-0.026887774 -0.12456173 0.63000005 4280156160
-0.025790313 -0.12456173 0.63000005 4280025088
-0.024692854 -0.12456173 0.63000005 4279959552
-0.023595393 -0.12456173 0.63000005 4280025088
-0.022462221 -0.124364 0.62900001 4280025088
-0.021366503 -0.124364 0.62900001 4280025088
-0.020270785 -0.124364 0.62900001 4280221696
-0.019175066 -0.124364 0.62900001 4280614912
-0.018108092 -0.12456173 0.63000005 4281466881
-0.017010633 -0.12456173 0.63000005 4282056717
-0.015938431 -0.12475945 0.63100004 4281991180
-0.014839228 -0.12475945 0.63100004 4281925649
-0.013761802 -0.12495716 0.63200003 4283766317
-0.01268089 -0.12515488 0.63300002 4284426798
-0.011633078 -0.12574802 0.63600004 4288242792
-0.010525165 -0.12574802 0.63600004 4287460227
-0.0094468668 -0.12614346 0.63800001 4287592069
-0.036998343 -0.12424815 0.634 4287392124
-0.035837296 -0.12405218 0.63300002 4285220955
-0.034734614 -0.12405218 0.63300002 4284893257
-0.033578794 -0.12385622 0.63200003 4285222222
-0.032426465 -0.12366024 0.63100004 4283444841
-0.031327263 -0.12366024 0.63100004 4281997395
-0.030180153 -0.12346427 0.63000005 4282322944
-0.029082695 -0.12346427 0.63000005 4282388736
-0.027985232 -0.12346427 0.63000005 4281401352
-0.026930453 -0.12366024 0.63100004 4280156160
-0.025790313 -0.12346427 0.63000005 4279697408
-0.024692854 -0.12346427 0.63000005 4279762944
-0.023632845 -0.12366024 0.63100004 4280025088
-0.022497933 -0.12346427 0.63000005 4280025088
-0.021400472 -0.12346427 0.63000005 4280025088
-0.020303013 -0.12346427 0.63000005 4280156160
-0.019205552 -0.12346427 0.63000005 4281008128
-0.018108092 -0.12346427 0.63000005 4282056709
-0.017037632 -0.12366024 0.63100004 4282056717
-0.015938431 -0.12366024 0.63100004 4281466884
-0.014839228 -0.12366024 0.63100004 4282977053
-0.013761802 -0.12385622 0.63200003 4288043114
-0.012761023 -0.12483609 0.63700002 4287591020
-0.011669659 -0.12503207 0.63800001 4287591020
-0.010558262 -0.12503207 0.63800001 4287525770
-0.0094616739 -0.12522805 0.63900006 4287920528
-0.037115056 -0.1235322 0.63600004 4287854208
-0.036007147 -0.1235322 0.63600004 4285354074
-0.034789484 -0.12314373 0.634 4284434507
-0.033631928 -0.1229495 0.63300002 4284566093
-0.032529239 -0.1229495 0.63300002 4284040544
-0.031426553 -0.1229495 0.63300002 4282658891
-0.030323869 -0.1229495 0.63300002 4283379781
-0.029175019 -0.12275527 0.63200003 4283248452
-0.028074076 -0.12275527 0.63200003 4281206818
-0.026973132 -0.12275527 0.63200003 4279435271
-0.025872186 -0.12275527 0.63200003 4279894016
-0.024771241 -0.12275527 0.63200003 4279959552
-0.023632845 -0.12256104 0.63100004 4280221696
-0.022533644 -0.12256104 0.63100004 4280221696
-0.021434441 -0.12256104 0.63100004 4280221696
-0.02033524 -0.12256104 0.63100004 4280221696
-0.019236038 -0.12256104 0.63100004 4280680448
-0.018136837 -0.12256104 0.63100004 4281532421
-0.017037632 -0.12256104 0.63100004 4281729024
-0.01596369 -0.12275527 0.63200003 4281532416
-0.014862746 -0.12275527 0.63200003 4283900452
-0.013805351 -0.12314373 0.634 4287914082
-0.012761023 -0.12372644 0.63700002 4287526274
-0.011687951 -0.1241149 0.63900006 4287131516
-0.010574812 -0.1241149 0.63900006 4287789196
-0.0094616739 -0.1241149 0.63900006 4287789196
-0.0083616013 -0.12430914 0.64000005 4284570452
-0.037231769 -0.12280927 0.63800001 4286799973
-0.036120374 -0.12280927 0.63800001 4286602594
-0.035008978 -0.12280927 0.63800001 4284829526
-0.033844452 -0.12261678 0.63700002 4284500561
-0.032683406 -0.1224243 0.63600004 4284041044
-0.0314762 -0.1220393 0.634 4283185735
-0.03037177 -0.1220393 0.634 4283709796
-0.029221181 -0.12184682 0.63300002 4283183452
-0.028118495 -0.12184682 0.63300002 4282389278
-0.027015809 -0.12184682 0.63300002 4279631872
-0.025913123 -0.12184682 0.63300002 4279697408
-0.024771241 -0.12165433 0.63200003 4279828480
-0.023670297 -0.12165433 0.63200003 4279828480
-0.022569355 -0.12165433 0.63200003 4279828480
-0.02146841 -0.12165433 0.63200003 4280221696
-0.020367466 -0.12165433 0.63200003 4280221696
-0.019236038 -0.12146183 0.63100004 4280942592
-0.018136837 -0.12146183 0.63100004 4281663495
-0.017064635 -0.12165433 0.63200003 4281794560
-0.016014207 -0.1220393 0.634 4283372048
-0.014909779 -0.1220393 0.634 4283901749
-0.013870676 -0.12261678 0.63700002 4287454827
-0.012761023 -0.12261678 0.63700002 4287392889
-0.011687951 -0.12300176 0.63900006 4287129717
-0.010574812 -0.12300176 0.63900006 4287064958
-0.0094764819 -0.12319425 0.64000005 4286012269
-0.0083616013 -0.12319425 0.64000005 4284764935
-0.037348486 -0.12207937 0.64000005 4286405478
-0.036176991 -0.12188863 0.63900006 4286010721
-0.035063852 -0.12188863 0.63900006 4285421663
-0.033897579 -0.12169787 0.63800001 4284500561
-0.032786187 -0.12169787 0.63800001 4283911504
-0.031575497 -0.12131638 0.63600004 4283714382
-0.030467585 -0.12131638 0.63600004 4284108386
-0.029267345 -0.12093488 0.634 4283055698
-0.028162915 -0.12093488 0.634 4282326826
-0.027058488 -0.12093488 0.634 4279369728
-0.025913123 -0.12074412 0.63300002 4279697408
-0.024810437 -0.12074412 0.63300002 4279828480
-0.023707751 -0.12074412 0.63300002 4279828480
-0.022569355 -0.12055338 0.63200003 4279762944
-0.02146841 -0.12055338 0.63200003 4280025088
-0.020367466 -0.12055338 0.63200003 4280221696
-0.019266522 -0.12055338 0.63200003 4280680448
-0.018165577 -0.12055338 0.63200003 4281663495
-0.017091636 -0.12074412 0.63300002 4281925634
-0.016064726 -0.12131638 0.63600004 4282253319
-0.015003847 -0.12169787 0.63800001 4284759334
-0.013892451 -0.12169787 0.63800001 4287325004
-0.012781055 -0.12169787 0.63800001 4286997870
-0.011687951 -0.12188863 0.63900006 4286932077
-0.010574812 -0.12188863 0.63900006 4286735475
-0.0094764819 -0.12207937 0.64000005 4285419615
-0.037406843 -0.1211535 0.64100003 4286075732
-0.036233604 -0.12096449 0.64000005 4285023044
-0.035063852 -0.12077549 0.63900006 4284565071
-0.033950716 -0.12077549 0.63900006 4284565071
-0.032786187 -0.12058647 0.63800001 4284238148
-0.031625144 -0.12039747 0.63700002 4283777597
-0.030515486 -0.12039747 0.63700002 4284303923
-0.02935967 -0.12020846 0.63600004 4283448614
-0.028251758 -0.12020846 0.63600004 4283117351
-0.027143847 -0.12020846 0.63600004 4281209353
-0.02595406 -0.11983044 0.634 4280877068
-0.024849633 -0.11983044 0.634 4280287235
-0.023707751 -0.11964145 0.63300002 4280025088
-0.022605065 -0.11964145 0.63300002 4280025088
-0.021502379 -0.11964145 0.63300002 4280418304
-0.020399693 -0.11964145 0.63300002 4280549376
-0.019297007 -0.11964145 0.63300002 4280877056
-0.01819432 -0.11964145 0.63300002 4281925643
-0.017118635 -0.11983044 0.634 4282187781
-0.016064726 -0.12020846 0.63600004 4282056708
-0.015003847 -0.12058647 0.63800001 4283966464
-0.013892451 -0.12058647 0.63800001 4287256108
-0.012801089 -0.12077549 0.63900006 4286270535
-0.011706241 -0.12096449 0.64000005 4285678398
-0.010591362 -0.12096449 0.64000005 4284827468
-0.0094764819 -0.12096449 0.64000005 4284432710
-0.038643658 -0.1204114 0.64300001 4286470953
-0.037523553 -0.1204114 0.64300001 4285878399
-0.036290217 -0.12003688 0.64100003 4284233573
-0.035118725 -0.11984961 0.64000005 4284365882
-0.033950716 -0.11966235 0.63900006 4283971124
-0.032837577 -0.11966235 0.63900006 4283839815
-0.031674787 -0.11947507 0.63800001 4284037451
-0.030515486 -0.11928781 0.63700002 4284041798
-0.029405834 -0.11928781 0.63700002 4283054903
-0.028296178 -0.11928781 0.63700002 4283118395
-0.027143847 -0.11910056 0.63600004 4280749847
-0.026035935 -0.11910056 0.63600004 4281532939
-0.024928022 -0.11910056 0.63600004 4280287232
-0.023745205 -0.11872602 0.634 4280287232
-0.022640776 -0.11872602 0.634 4280287232
-0.021536347 -0.11872602 0.634 4280549376
-0.020431919 -0.11872602 0.634 4280549376
-0.019327492 -0.11872602 0.634 4280877056
-0.018223064 -0.11872602 0.634 4282056717
-0.017172638 -0.11910056 0.63600004 4282385668
-0.016089985 -0.11928781 0.63700002 4281663488
-0.015003847 -0.11947507 0.63800001 4282974208
-0.013914227 -0.11966235 0.63900006 4287250226
-0.012801089 -0.11966235 0.63900006 4285483332
-0.011706241 -0.11984961 0.64000005 4284496437
