# .PCD v0.7 - Point Cloud Data file format
VERSION 0.7
FIELDS x y z rgba
SIZE 4 4 4 4
TYPE F F F U
COUNT 1 1 1 1
WIDTH 1044
HEIGHT 1
VIEWPOINT 0 0 0 1 0 0 0
POINTS 1044
DATA ascii
0.20314161 -0.011786374 0.79600006 4289561410
0.20452826 -0.011786374 0.79600006 4289759045
0.2053975 -0.011756759 0.79400003 4289759043
0.20659077 -0.011667917 0.78800005 4289430090
0.20769955 -0.01165311 0.78700006 4289561675
0.20907052 -0.01165311 0.78700006 4289496411
0.21044147 -0.01165311 0.78700006 4288904531
0.21073587 -0.011593882 0.78300005 4289035595
0.21209985 -0.011593882 0.78300005 4288969802
0.21400908 -0.011623496 0.78500003 4289166906
0.21537654 -0.011623496 0.78500003 4289232699
0.21674401 -0.011623496 0.78500003 4289035849
0.21811149 -0.011623496 0.78500003 4289364558
0.21947896 -0.011623496 0.78500003 4289299015
0.22084643 -0.011623496 0.78500003 4289101892
0.22221391 -0.011623496 0.78500003 4289101905
0.22301173 -0.011593882 0.78300005 4289036112
0.22437574 -0.011593882 0.78300005 4289036112
0.2257397 -0.011593882 0.78300005 4288904527
0.2271037 -0.011593882 0.78300005 4288904781
0.22905125 -0.011623496 0.78500003 4288904781
0.23041873 -0.011623496 0.78500003 4289035595
0.23178619 -0.011623496 0.78500003 4289035595
0.23315364 -0.011623496 0.78500003 4289035849
0.23452112 -0.011623496 0.78500003 4289101642
0.2358886 -0.011623496 0.78500003 4289101656
0.23725608 -0.011623496 0.78500003 4288904277
0.23953548 -0.011667917 0.78800005 4289100357
0.24090818 -0.011667917 0.78800005 4289034564
0.24289578 -0.011697531 0.79000002 4288706896
0.24427198 -0.011697531 0.79000002 4288378187
0.24564815 -0.011697531 0.79000002 4288117282
0.19116189 -0.010739431 0.82200003 4290546762
0.1921252 -0.010713302 0.82000005 4290480465
0.19308156 -0.010687171 0.81800002 4290282830
0.19426873 -0.010674106 0.81700003 4290217807
0.1979339 -0.010491196 0.80300003 4289955404
0.19883627 -0.010465067 0.80100006 4289889359
0.20023161 -0.010465067 0.80100006 4289757773
0.20112351 -0.010438936 0.79900002 4289823303
0.20251535 -0.010438936 0.79900002 4289757510
0.20365201 -0.010425871 0.79800004 4289625910
0.20452826 -0.010399741 0.79600006 4290152254
0.2053975 -0.010373611 0.79400003 4290088271
0.20678064 -0.010373611 0.79400003 4289561671
0.20711511 -0.010321351 0.79000002 4289429840
0.2084913 -0.010321351 0.79000002 4289627218
0.20933616 -0.010295222 0.78800005 4289430101
0.21044147 -0.010282157 0.78700006 4289035599
0.21181242 -0.010282157 0.78700006 4289035595
0.21318337 -0.010282157 0.78700006 4288969802
0.21482694 -0.010295222 0.78800005 4288838988
0.21619965 -0.010295222 0.78800005 4288838988
0.21729624 -0.010282157 0.78700006 4288904779
0.21866719 -0.010282157 0.78700006 4289299537
0.22003815 -0.010282157 0.78700006 4289036362
0.2214091 -0.010282157 0.78700006 4289036362
0.22278006 -0.010282157 0.78700006 4289101905
0.22358136 -0.010256026 0.78500003 4289167699
0.22494884 -0.010256026 0.78500003 4289036640
0.22631632 -0.010256026 0.78500003 4288905054
0.22768377 -0.010256026 0.78500003 4288838995
0.22905125 -0.010256026 0.78500003 4288838995
0.23041873 -0.010256026 0.78500003 4289101392
0.23178619 -0.010256026 0.78500003 4289298515
0.23374771 -0.010282157 0.78700006 4289364308
0.23511863 -0.010282157 0.78700006 4289101392
0.23648959 -0.010282157 0.78700006 4289167195
0.23816277 -0.010295222 0.78800005 4288838486
0.24014345 -0.010321351 0.79000002 4288837941
0.24151962 -0.010321351 0.79000002 4288772148
0.24289578 -0.010321351 0.79000002 4288507958
0.24489041 -0.010347482 0.79200006 4288442165
0.19116189 -0.0093075074 0.82200003 4290546762
0.1921252 -0.0092848614 0.82000005 4290480978
0.19308156 -0.0092622144 0.81800002 4290217807
0.19426873 -0.0092508914 0.81700003 4290152527
0.1952129 -0.0092282463 0.81500006 4290152527
0.19615009 -0.0092056002 0.81300002 4290152777
0.19842689 -0.0091150161 0.80500007 4289955404
0.19933273 -0.00909237 0.80300003 4290020427
0.20023161 -0.0090697249 0.80100006 4289823305
0.20162694 -0.0090697249 0.80100006 4289627207
0.20251535 -0.009047078 0.79900002 4289495365
0.20390722 -0.009047078 0.79900002 4289363765
0.20504212 -0.0090357549 0.79800004 4289561400
0.20591488 -0.0090131089 0.79600006 4289561158
0.20730151 -0.0090131089 0.79600006 4289495365
0.20816378 -0.0089904629 0.79400003 4289430355
0.20901912 -0.0089678168 0.79200006 4289430355
0.20986748 -0.0089451708 0.79000002 4289430090
0.21070886 -0.0089225248 0.78800005 4289101124
0.21208157 -0.0089225248 0.78800005 4288376650
0.21345425 -0.0089225248 0.78800005 4287258168
0.21482694 -0.0089225248 0.78800005 4287785544
0.21674837 -0.0089451708 0.79000002 4288114508
0.21812455 -0.0089451708 0.79000002 4288705612
0.21950074 -0.0089451708 0.79000002 4290087265
0.22087692 -0.0089451708 0.79000002 4289891145
0.22169043 -0.0089225248 0.78800005 4290154060
0.22306313 -0.0089225248 0.78800005 4289826383
0.22415102 -0.0089112027 0.78700006 4290089554
0.22552198 -0.0089112027 0.78700006 4289365875
0.2268929 -0.0089112027 0.78700006 4289102446
0.22768377 -0.0088885557 0.78500003 4288970334
0.22905125 -0.0088885557 0.78500003 4288904540
0.23041873 -0.0088885557 0.78500003 4288969552
0.23237674 -0.0089112027 0.78700006 4288837966
0.23404469 -0.0089225248 0.78800005 4288508238
0.2354174 -0.0089225248 0.78800005 4288376652
0.23679009 -0.0089225248 0.78800005 4288639821
0.23876725 -0.0089451708 0.79000002 4288442443
0.24014345 -0.0089451708 0.79000002 4288771116
0.24151962 -0.0089451708 0.79000002 4288836910
0.24351072 -0.0089678168 0.79200006 4288312140
0.24489041 -0.0089678168 0.79200006 4288377933
0.1921252 -0.0078564212 0.82000005 4290283854
0.19355364 -0.0078564212 0.82000005 4290152268
0.19450651 -0.0078372583 0.81800002 4289825102
0.1952129 -0.0078085158 0.81500006 4289825102
0.19615009 -0.0077893534 0.81300002 4290021196
0.19708033 -0.0077701919 0.81100005 4290152781
0.19800358 -0.0077510295 0.80900002 4289955152
0.19842689 -0.007712706 0.80500007 4289955152
0.19982921 -0.007712706 0.80500007 4289693259
0.20073156 -0.0076935436 0.80300003 4289693259
0.20213038 -0.0076935436 0.80300003 4289627207
0.20302229 -0.0076743821 0.80100006 4289495365
0.20441763 -0.0076743821 0.80100006 4289430073
0.20529906 -0.0076552201 0.79900002 4289430073
0.20643225 -0.0076456391 0.79800004 4289364547
0.20730151 -0.0076264772 0.79600006 4289430596
0.20816378 -0.0076073147 0.79400003 4289430603
0.20954695 -0.0076073147 0.79400003 4289496652
0.21039878 -0.0075881532 0.79200006 4289693261
0.21124366 -0.0075689908 0.79000002 4288377401
0.21261983 -0.0075689908 0.79000002 4288309800
0.21399601 -0.0075689908 0.79000002 4287322905
0.21537219 -0.0075689908 0.79000002 4287916351
0.21674837 -0.0075689908 0.79000002 4287916351
0.21812455 -0.0075689908 0.79000002 4288637507
0.21950074 -0.0075689908 0.79000002 4290150746
0.22087692 -0.0075689908 0.79000002 4289561691
0.2222531 -0.0075689908 0.79000002 4289298263
0.22362927 -0.0075689908 0.79000002 4289167185
0.22443584 -0.0075498288 0.78800005 4289561943
0.22580852 -0.0075498288 0.78800005 4289300330
0.22718121 -0.0075498288 0.78800005 4289037157
0.22855392 -0.0075498288 0.78800005 4288576856
0.2299266 -0.0075498288 0.78800005 4288379478
0.23129931 -0.0075498288 0.78800005 4288706112
0.23267201 -0.0075498288 0.78800005 4288508990
0.23463872 -0.0075689908 0.79000002 4287982909
0.23601489 -0.0075689908 0.79000002 4287982909
0.23739108 -0.0075689908 0.79000002 4288377153
0.23937172 -0.0075881532 0.79200006 4288377153
0.2407514 -0.0075881532 0.79200006 4288967214
0.24213105 -0.0075881532 0.79200006 4289164337
0.24412565 -0.0076073147 0.79400003 4288773445
0.1925938 -0.0064436588 0.82200003 4290480717
0.19355364 -0.006427981 0.82000005 4290348875
0.19450651 -0.0064123026 0.81800002 4290152527
0.19569194 -0.0064044637 0.81700003 4289955404
0.19615009 -0.0063731079 0.81300002 4290086218
0.19756635 -0.0063731079 0.81300002 4290152268
0.19849308 -0.0063574295 0.81100005 4290021198
0.19891988 -0.0063260738 0.80700004 4289889611
0.19982921 -0.0063103959 0.80500007 4290020427
0.20123151 -0.0063103959 0.80500007 4289889098
0.20213038 -0.0062947175 0.80300003 4289561162
0.20352919 -0.0062947175 0.80300003 4289495113
0.20441763 -0.0062790401 0.80100006 4289429821
0.20581298 -0.0062790401 0.80100006 4289561664
0.20669094 -0.0062633613 0.79900002 4289561671
0.20782235 -0.0062555224 0.79800004 4289561671
0.20868815 -0.006239845 0.79600006 4289627720
0.20954695 -0.0062241666 0.79400003 4289759306
0.21039878 -0.0062084887 0.79200006 4289889346
0.21177845 -0.0062084887 0.79200006 4288376107
0.21261983 -0.0061928104 0.79000002 4287914020
0.21399601 -0.0061928104 0.79000002 4287519262
0.21537219 -0.0061928104 0.79000002 4287916602
0.21729711 -0.0062084887 0.79200006 4287916602
0.21867676 -0.0062084887 0.79200006 4288242761
0.22005643 -0.0062084887 0.79200006 4288835154
0.22143611 -0.0062084887 0.79200006 4287979604
0.22281577 -0.0062084887 0.79200006 4286663745
0.22419544 -0.0062084887 0.79200006 4287192850
0.22500546 -0.0061928104 0.79000002 4287719194
0.22638163 -0.0061928104 0.79000002 4287588153
0.22775783 -0.0061928104 0.79000002 4287522104
0.22913399 -0.0061928104 0.79000002 4287587640
0.23051016 -0.0061928104 0.79000002 4287390004
0.23188636 -0.0061928104 0.79000002 4288046594
0.23385307 -0.0062084887 0.79200006 4288441609
0.23523274 -0.0062084887 0.79200006 4288639295
0.23661239 -0.0062084887 0.79200006 4288902210
0.23799208 -0.0062084887 0.79200006 4289231677
0.2399762 -0.0062241666 0.79400003 4289297470
0.24135935 -0.0062241666 0.79400003 4288969289
0.24274249 -0.0062241666 0.79400003 4288837702
0.1925938 -0.0050117346 0.82200003 4290480202
0.19355364 -0.0049995407 0.82000005 4290348615
0.19450651 -0.0049873465 0.81800002 4290348627
0.19569194 -0.0049812496 0.81700003 4290282834
0.19663264 -0.0049690558 0.81500006 4290086218
0.19756635 -0.0049568615 0.81300002 4290086218
0.19849308 -0.0049446677 0.81100005 4290085968
0.19941285 -0.0049324734 0.80900002 4290020175
0.19982921 -0.0049080853 0.80500007 4289889357
0.20123151 -0.0049080853 0.80500007 4289823564
0.20263383 -0.0049080853 0.80500007 4289627207
0.20352919 -0.0048958915 0.80300003 4289495365
0.20492803 -0.0048958915 0.80300003 4289495619
0.20581298 -0.0048836977 0.80100006 4289561412
0.20669094 -0.0048715034 0.79900002 4289626705
0.20808278 -0.0048715034 0.79900002 4289692498
0.20921248 -0.0048654065 0.79800004 4289692998
0.2106026 -0.0048654065 0.79800004 4289627205
0.21093009 -0.0048410185 0.79400003 4289625419
0.21231323 -0.0048410185 0.79400003 4287914802
0.21315812 -0.0048288247 0.79200006 4288175104
0.21453777 -0.0048288247 0.79200006 4288438529
0.21591744 -0.0048288247 0.79200006 4288047670
0.21784584 -0.0048410185 0.79400003 4287850292
0.21922898 -0.0048410185 0.79400003 4287848997
0.22061212 -0.0048410185 0.79400003 4288112169
0.22143611 -0.0048288247 0.79200006 4287586102
0.22281577 -0.0048288247 0.79200006 4287059758
0.22419544 -0.0048288247 0.79200006 4287258377
0.22557509 -0.0048288247 0.79200006 4287652879
0.22695476 -0.0048288247 0.79200006 4287521565
0.22833441 -0.0048288247 0.79200006 4287587358
0.2297141 -0.0048288247 0.79200006 4287914804
0.23109373 -0.0048288247 0.79200006 4287914804
0.23247342 -0.0048288247 0.79200006 4288570640
0.23444362 -0.0048410185 0.79400003 4289031191
0.23582675 -0.0048410185 0.79400003 4289491782
0.23780742 -0.0048532127 0.79600006 4289491782
0.23919405 -0.0048532127 0.79600006 4289625167
0.24058069 -0.0048532127 0.79600006 4289362252
0.24257527 -0.0048654065 0.79800004 4289035066
0.1925938 -0.0035798103 0.82200003 4290611533
0.19402573 -0.0035798103 0.82200003 4290414411
0.19498208 -0.0035711005 0.82000005 4290414420
0.19569194 -0.0035580352 0.81700003 4290414420
0.19663264 -0.0035493255 0.81500006 4290151512
0.19756635 -0.0035406153 0.81300002 4290151512
0.19849308 -0.0035319056 0.81100005 4290021198
0.19990584 -0.0035319056 0.81100005 4289889611
0.20032567 -0.0035144854 0.80700004 4289692757
0.20123151 -0.0035057757 0.80500007 4289626964
0.20263383 -0.0035057757 0.80500007 4289627207
0.20352919 -0.0034970655 0.80300003 4289627207
0.20492803 -0.0034970655 0.80300003 4289561671
0.20581298 -0.0034883553 0.80100006 4289430342
0.20720832 -0.0034883553 0.80100006 4289560919
0.20860367 -0.0034883553 0.80100006 4289626712
0.20947465 -0.0034796454 0.79900002 4289561662
0.2108665 -0.0034796454 0.79900002 4288969524
0.21199271 -0.0034752905 0.79800004 4288706105
0.21284805 -0.0034665805 0.79600006 4287324452
0.21369639 -0.0034578703 0.79400003 4287651584
0.21507953 -0.0034578703 0.79400003 4288506630
0.21646267 -0.0034578703 0.79400003 4289100075
0.21839458 -0.0034665805 0.79600006 4289166124
0.21922898 -0.0034578703 0.79400003 4289231150
0.22061212 -0.0034578703 0.79400003 4289691701
0.22199528 -0.0034578703 0.79400003 4289363795
0.22337842 -0.0034578703 0.79400003 4288903244
0.22476158 -0.0034578703 0.79400003 4289101622
0.22614472 -0.0034578703 0.79400003 4289233464
0.22752787 -0.0034578703 0.79400003 4289167667
0.22948763 -0.0034665805 0.79600006 4289299509
0.23029417 -0.0034578703 0.79400003 4289364058
0.23167732 -0.0034578703 0.79400003 4289101142
0.23306045 -0.0034578703 0.79400003 4288837693
0.23503415 -0.0034665805 0.79600006 4288837693
0.2364208 -0.0034665805 0.79600006 4288902210
0.23780742 -0.0034665805 0.79600006 4288639295
0.23979504 -0.0034752905 0.79800004 4288770124
0.24118514 -0.0034752905 0.79800004 4288967503
0.24287924 -0.0034796454 0.79900002 4289167154
0.18959844 -0.0022132113 0.84700006 4291269969
0.19402573 -0.0021478862 0.82200003 4290809426
0.19498208 -0.0021426601 0.82000005 4290546271
0.19593148 -0.0021374342 0.81800002 4290480478
0.19711515 -0.0021348214 0.81700003 4290085718
0.19756635 -0.0021243691 0.81300002 4290085718
0.19898258 -0.0021243691 0.81300002 4290020696
0.19990584 -0.0021191433 0.81100005 4289889109
0.20082213 -0.0021139171 0.80900002 4289889357
0.20173146 -0.002108691 0.80700004 4289757771
0.20263383 -0.0021034654 0.80500007 4289692746
0.20403613 -0.0021034654 0.80500007 4289692746
0.20492803 -0.0020982393 0.80300003 4289627207
0.20632686 -0.0020982393 0.80300003 4289561158
0.20772569 -0.0020982393 0.80300003 4289822801
0.20860367 -0.0020930131 0.80100006 4290085716
0.209999 -0.0020930131 0.80100006 4289889094
0.21139434 -0.0020930131 0.80100006 4288310062
0.21225837 -0.0020877873 0.79900002 4288047670
0.21338283 -0.0020851742 0.79800004 4287126568
0.21423468 -0.0020799483 0.79600006 4286797059
0.21507953 -0.0020747222 0.79400003 4289165607
0.21646267 -0.0020747222 0.79400003 4289361998
0.21839458 -0.0020799483 0.79600006 4289427791
0.21978121 -0.0020799483 0.79600006 4290151234
0.22116785 -0.0020799483 0.79600006 4290414407
0.22255448 -0.0020799483 0.79600006 4290547305
0.22394112 -0.0020799483 0.79600006 4290152547
0.22532773 -0.0020799483 0.79600006 4289825633
0.22671437 -0.0020799483 0.79600006 4289825633
0.22867411 -0.0020851742 0.79800004 4289694547
0.23006421 -0.0020851742 0.79800004 4289299789
0.23087427 -0.0020799483 0.79600006 4289299300
0.2322609 -0.0020799483 0.79600006 4288838749
0.23364753 -0.0020799483 0.79600006 4288575296
0.23503415 -0.0020799483 0.79600006 4288575296
0.2370148 -0.0020851742 0.79800004 4288771142
0.23840493 -0.0020851742 0.79800004 4288310591
0.24009553 -0.0020877873 0.79900002 4287981351
0.2414874 -0.0020877873 0.79900002 4289363004
0.18708821 -0.00073947909 0.84900004 4292183610
0.18856716 -0.00073947909 0.84900004 4292578368
0.18959844 -0.00073773711 0.84700006 4291336013
0.19062273 -0.00073599507 0.84500003 4291336013
0.19209471 -0.00073599507 0.84500003 4291335774
0.19402573 -0.00071596209 0.82200003 4290940501
0.19545764 -0.00071596209 0.82200003 4290874719
0.19641052 -0.00071422011 0.82000005 4290545754
0.19735642 -0.00071247807 0.81800002 4290283102
0.19805236 -0.00070986507 0.81500006 4290151260
0.19898258 -0.00070812309 0.81300002 4290019927
0.20039883 -0.00070812309 0.81300002 4290085720
0.20131861 -0.00070638111 0.81100005 4289889357
0.20223141 -0.00070463907 0.80900002 4289757771
0.20313725 -0.00070289709 0.80700004 4290086974
0.20403613 -0.00070115511 0.80500007 4290350147
0.20543845 -0.00070115511 0.80500007 4289692998
0.20684075 -0.00070115511 0.80500007 4289627205
0.20772569 -0.00069941307 0.80300003 4289889098
0.20912452 -0.00069941307 0.80300003 4290086220
0.21052332 -0.00069941307 0.80300003 4289561675
0.21192215 -0.00069941307 0.80300003 4287916850
0.21278968 -0.00069767109 0.80100006 4287521352
0.21365023 -0.00069592905 0.79900002 4287324230
0.21477295 -0.00069505809 0.79800004 4288112447
0.21562131 -0.00069331611 0.79600006 4289823064
0.21700795 -0.00069331611 0.79600006 4289232681
0.2189433 -0.00069505809 0.79800004 4287851028
0.22033341 -0.00069505809 0.79800004 4288507929
0.22172353 -0.00069505809 0.79800004 4289231652
0.22255448 -0.00069331611 0.79600006 4288640067
0.22394112 -0.00069331611 0.79600006 4288442945
0.22532773 -0.00069331611 0.79600006 4288507718
0.227284 -0.00069505809 0.79800004 4288244546
0.22867411 -0.00069505809 0.79800004 4287980579
0.23006421 -0.00069505809 0.79800004 4287849249
0.23145434 -0.00069505809 0.79800004 4287849803
0.23284446 -0.00069505809 0.79800004 4287586632
0.23423459 -0.00069505809 0.79800004 4287916591
0.23562469 -0.00069505809 0.79800004 4288574265
0.2370148 -0.00069505809 0.79800004 4288771144
0.23870367 -0.00069592905 0.79900002 4289034316
0.24009553 -0.00069592905 0.79900002 4289167437
0.18708821 0.00073947909 0.84900004 4291659315
0.18856716 0.00073947909 0.84900004 4292251452
0.18959844 0.00073773711 0.84700006 4291335763
0.19107391 0.00073773711 0.84700006 4291335763
0.19209471 0.00073599507 0.84500003 4291335772
0.19449781 0.00071770413 0.82400006 4291202385
0.19545764 0.00071596209 0.82200003 4290940253
0.19641052 0.00071422011 0.82000005 4290676824
0.19735642 0.00071247807 0.81800002 4290677076
0.19878137 0.00071247807 0.81800002 4290348112
0.19947208 0.00070986507 0.81500006 4290019916
0.20039883 0.00070812309 0.81300002 4290085709
0.20131861 0.00070638111 0.81100005 4290019916
0.20223141 0.00070463907 0.80900002 4289953867
0.2036407 0.00070463907 0.80900002 4290086722
0.20454304 0.00070289709 0.80700004 4290218309
0.20594884 0.00070289709 0.80700004 4289693511
0.20684075 0.00070115511 0.80500007 4289627718
0.20824307 0.00070115511 0.80500007 4289822801
0.20964538 0.00070115511 0.80500007 4290019923
0.21104769 0.00070115511 0.80500007 4289233490
0.21192215 0.00069941307 0.80300003 4287588664
0.21332099 0.00069941307 0.80300003 4287519526
0.21471982 0.00069941307 0.80300003 4287848747
0.21504208 0.00069592905 0.79900002 4288177710
0.21616305 0.00069505809 0.79800004 4289690949
0.21755318 0.00069505809 0.79800004 4288773443
0.2189433 0.00069505809 0.79800004 4287391790
0.22033341 0.00069505809 0.79800004 4287128350
0.22172353 0.00069505809 0.79800004 4287194399
0.22311366 0.00069505809 0.79800004 4287455516
0.22450374 0.00069505809 0.79800004 4288047909
0.22589387 0.00069505809 0.79800004 4288113212
0.227284 0.00069505809 0.79800004 4287916089
0.22896066 0.00069592905 0.79900002 4287519776
0.23035251 0.00069592905 0.79900002 4287651618
0.23174438 0.00069592905 0.79900002 4287389743
0.23313624 0.00069592905 0.79900002 4287652659
0.23452809 0.00069592905 0.79900002 4288113434
0.23591997 0.00069592905 0.79900002 4288705571
0.23731181 0.00069592905 0.79900002 4288836671
0.18708821 0.0022184374 0.84900004 4291791164
0.18812296 0.0022132113 0.84700006 4291856957
0.18959844 0.0022132113 0.84700006 4291270219
0.19062273 0.0022079851 0.84500003 4291270219
0.19209471 0.0022079851 0.84500003 4291007309
0.19545764 0.0021478862 0.82200003 4290742608
0.19641052 0.0021426601 0.82000005 4290742608
0.19783896 0.0021426601 0.82000005 4290874187
0.19878137 0.0021374342 0.81800002 4291005774
0.19996159 0.0021348214 0.81700003 4290940503
0.20039883 0.0021243691 0.81300002 4290677074
0.20181507 0.0021243691 0.81300002 4289955152
0.20273137 0.0021191433 0.81100005 4289231173
0.2036407 0.0021139171 0.80900002 4289561912
0.20504996 0.0021139171 0.80900002 4289693498
0.20594884 0.002108691 0.80700004 4289889098
0.20735465 0.002108691 0.80700004 4290020427
0.20824307 0.0021034654 0.80500007 4289626964
0.20964538 0.0021034654 0.80500007 4289626964
0.21104769 0.0021034654 0.80500007 4289430105
0.21245 0.0021034654 0.80500007 4289298263
0.21332099 0.0020982393 0.80300003 4288639839
0.21471982 0.0020982393 0.80300003 4288442204
0.21558037 0.0020930131 0.80100006 4288770374
0.21643394 0.0020877873 0.79900002 4289494353
0.2178258 0.0020877873 0.79900002 4289035595
0.21921766 0.0020877873 0.79900002 4288377665
0.22060952 0.0020877873 0.79900002 4288377935
0.22200137 0.0020877873 0.79900002 4288509264
0.22339323 0.0020877873 0.79900002 4288772661
0.22478507 0.0020877873 0.79900002 4289233212
0.22617696 0.0020877873 0.79900002 4288903244
0.22756881 0.0020877873 0.79900002 4288376899
0.22896066 0.0020877873 0.79900002 4288705614
0.23035251 0.0020877873 0.79900002 4288902994
0.23174438 0.0020877873 0.79900002 4289100618
0.23371983 0.0020930131 0.80100006 4289232460
0.18708821 0.0036973956 0.84900004 4291594553
0.18812296 0.0036886854 0.84700006 4292055104
0.18959844 0.0036886854 0.84700006 4291203920
0.19062273 0.0036799756 0.84500003 4291072334
0.19209471 0.0036799756 0.84500003 4290743632
0.19593321 0.0035885205 0.82400006 4290807377
0.19688956 0.0035798103 0.82200003 4290873426
0.19783896 0.0035711005 0.82000005 4291005264
0.1992674 0.0035711005 0.82000005 4291268180
0.20020634 0.0035623903 0.81800002 4291269727
0.20138481 0.0035580352 0.81700003 4290874969
0.20231155 0.0035493255 0.81500006 4290152529
0.20273137 0.0035319056 0.81100005 4289757771
0.20414414 0.0035319056 0.81100005 4289628220
0.20504996 0.0035231954 0.80900002 4289759806
0.20645924 0.0035231954 0.80900002 4289955402
0.20735465 0.0035144854 0.80700004 4289955402
0.20876044 0.0035144854 0.80700004 4289758804
0.21016623 0.0035144854 0.80700004 4289693011
0.21104769 0.0035057757 0.80500007 4289759066
0.21245 0.0035057757 0.80500007 4289824859
0.21385232 0.0035057757 0.80500007 4289890652
0.21471982 0.0034970655 0.80300003 4289890652
0.21611865 0.0034970655 0.80300003 4289890393
0.21697572 0.0034883553 0.80100006 4289890393
0.21837105 0.0034883553 0.80100006 4289364562
0.21976639 0.0034883553 0.80100006 4289298769
0.22116174 0.0034883553 0.80100006 4289560408
0.22255707 0.0034883553 0.80100006 4289494615
0.22395243 0.0034883553 0.80100006 4289100620
0.22534777 0.0034883553 0.80100006 4289429842
0.2267431 0.0034883553 0.80100006 4289429588
0.22813846 0.0034883553 0.80100006 4289298001
0.22953379 0.0034883553 0.80100006 4289100370
0.23092912 0.0034883553 0.80100006 4289100370
0.23232448 0.0034883553 0.80100006 4289756754
0.19107391 0.0051641595 0.84700006 4290743612
0.19209471 0.0051519652 0.84500003 4290743886
0.19593321 0.0050239288 0.82400006 4290544973
0.19736864 0.0050239288 0.82400006 4290544973
0.19832149 0.0050117346 0.82200003 4290675781
0.1992674 0.0049995407 0.82000005 4290609988
0.20020634 0.0049873465 0.81800002 4290939719
0.20138481 0.0049812496 0.81700003 4291202891
0.20280802 0.0049812496 0.81700003 4290480967
0.20323132 0.0049568615 0.81300002 4290283331
0.20414414 0.0049446677 0.81100005 4289891145
0.20555688 0.0049446677 0.81100005 4289891145
0.20696966 0.0049446677 0.81100005 4290152781
0.20786852 0.0049324734 0.80900002 4290152781
0.20876044 0.0049202796 0.80700004 4290152025
0.21016623 0.0049202796 0.80700004 4290020696
0.21157202 0.0049202796 0.80700004 4289956186
0.21297781 0.0049202796 0.80700004 4289890393
0.21385232 0.0049080853 0.80500007 4290284369
0.21525462 0.0049080853 0.80500007 4290415955
0.21611865 0.0048958915 0.80300003 4290285660
0.21751747 0.0048958915 0.80300003 4290285660
0.21891628 0.0048958915 0.80300003 4290152781
0.22031511 0.0048958915 0.80300003 4289560645
0.22171395 0.0048958915 0.80300003 4289626964
0.22311278 0.0048958915 0.80300003 4289758806
0.22451159 0.0048958915 0.80300003 4289758302
0.22591043 0.0048958915 0.80300003 4289363545
0.22730924 0.0048958915 0.80300003 4289561169
0.22870809 0.0048958915 0.80300003 4289627218
0.23068003 0.0049080853 0.80500007 4289364049
0.18901137 0.0066709896 0.85100001 4291398203
0.19107391 0.0066396338 0.84700006 4290874178
0.19209471 0.0066239559 0.84500003 4290546256
0.19784766 0.0064750146 0.82600003 4290348364
0.19832149 0.0064436588 0.82200003 4290544713
0.1992674 0.006427981 0.82000005 4290544713
0.20069584 0.006427981 0.82000005 4290479433
0.20163129 0.0064123026 0.81800002 4290676813
0.20305625 0.0064123026 0.81800002 4290481228
0.20323132 0.0063731079 0.81300002 4290152263
0.20464756 0.0063731079 0.81300002 4290152781
0.20555688 0.0063574295 0.81100005 4290218574
0.20696966 0.0063574295 0.81100005 4290284104
0.20786852 0.0063417517 0.80900002 4290349897
0.20927781 0.0063417517 0.80900002 4290283604
0.21068709 0.0063417517 0.80900002 4290349397
0.21209635 0.0063417517 0.80900002 4290283863
0.21297781 0.0063260738 0.80700004 4290349912
0.2143836 0.0063260738 0.80700004 4290349660
0.21525462 0.0063103959 0.80500007 4290349660
0.21665694 0.0063103959 0.80500007 4290349908
0.21805924 0.0063103959 0.80500007 4290415701
0.21946155 0.0063103959 0.80500007 4290349912
0.22086386 0.0063103959 0.80500007 4289757519
0.22226617 0.0063103959 0.80500007 4289757271
0.22366847 0.0063103959 0.80500007 4289954650
0.22507079 0.0063103959 0.80500007 4289758816
0.22647309 0.0063103959 0.80500007 4289495644
0.22787541 0.0063103959 0.80500007 4289626964
0.22927772 0.0063103959 0.80500007 4289626964
0.23068003 0.0063103959 0.80500007 4289299287
0.23208234 0.0063103959 0.80500007 4289233494
0.2394632 0.0063574295 0.81100005 4289626964
0.24288622 0.0063731079 0.81300002 4289495896
0.24490346 0.0063887858 0.81500006 4289232962
0.18901137 0.0081534311 0.85100001 4291201329
0.19004612 0.0081342701 0.84900004 4290677830
0.19152507 0.0081342701 0.84900004 4290611781
0.19254938 0.0081151081 0.84700006 4290414670
0.19356669 0.0080959452 0.84500003 4290348877
0.19784766 0.0079139071 0.82600003 4290348875
0.19928657 0.0079139071 0.82600003 4290414157
0.19975342 0.0078755822 0.82200003 4290414157
0.20069584 0.0078564212 0.82000005 4290348364
0.20163129 0.0078372583 0.81800002 4289493055
0.20305625 0.0078372583 0.81800002 4289361705
0.20464756 0.0077893534 0.81300002 4289757510
0.20606381 0.0077893534 0.81300002 4290086218
0.20696966 0.0077701919 0.81100005 4290415163
0.20838241 0.0077701919 0.81100005 4290678078
0.20979519 0.0077701919 0.81100005 4290612315
0.21120794 0.0077701919 0.81100005 4290809950
0.21209635 0.0077510295 0.80900002 4290876252
0.21350563 0.0077510295 0.80900002 4290876252
0.21491492 0.0077510295 0.80900002 4290875752
0.21578939 0.0077318684 0.80700004 4290612324
0.2171952 0.0077318684 0.80700004 4290546771
0.218601 0.0077318684 0.80700004 4290480978
0.21946155 0.007712706 0.80500007 4290414418
0.22086386 0.007712706 0.80500007 4289953867
0.22226617 0.007712706 0.80500007 4289822803
0.22366847 0.007712706 0.80500007 4289822803
0.22507079 0.007712706 0.80500007 4289822803
0.22647309 0.007712706 0.80500007 4289756754
0.22787541 0.007712706 0.80500007 4289626705
0.22984734 0.0077318684 0.80700004 4289626705
0.23182626 0.0077510295 0.80900002 4289692759
0.23323552 0.0077510295 0.80900002 4289692759
0.2346448 0.0077510295 0.80900002 4289627468
0.23805042 0.0077701919 0.81100005 4289429840
0.24005371 0.0077893534 0.81300002 4289364047
0.24146996 0.0077893534 0.81300002 4289429592
0.24348372 0.0078085158 0.81500006 4289626714
0.24490346 0.0078085158 0.81500006 4289430342
0.2463232 0.0078085158 0.81500006 4290417237
0.19004612 0.009613228 0.84900004 4290611783
0.19107391 0.009590582 0.84700006 4290611783
0.19254938 0.009590582 0.84700006 4290349127
0.19356669 0.009567936 0.84500003 4290283333
0.19832672 0.0093754455 0.82800007 4290283856
0.19928657 0.0093527995 0.82600003 4290217809
0.19975342 0.0093075074 0.82200003 4290283602
0.20118535 0.0093075074 0.82200003 4290348377
0.20261726 0.0093075074 0.82200003 4289558861
0.20355272 0.0092848614 0.82000005 4289361968
0.2044812 0.0092622144 0.81800002 4289427761
0.20606381 0.0092056002 0.81300002 4289822784
0.20748006 0.0092056002 0.81300002 4289953839
0.20838241 0.0091829542 0.81100005 4290677819
0.20979519 0.0091829542 0.81100005 4290546521
0.21120794 0.0091829542 0.81100005 4290678108
0.21262071 0.0091829542 0.81100005 4291007072
0.21403347 0.0091829542 0.81100005 4291072866
0.21544623 0.0091829542 0.81100005 4291072364
0.2163242 0.0091603082 0.80900002 4290743399
0.21773347 0.0091603082 0.80900002 4290874969
0.218601 0.0091376621 0.80700004 4290612053
0.22000679 0.0091376621 0.80700004 4290348877
0.22141258 0.0091376621 0.80700004 4290019912
0.22281837 0.0091376621 0.80700004 4290019916
0.22422417 0.0091376621 0.80700004 4290019916
0.22562997 0.0091376621 0.80700004 4290019916
0.22703576 0.0091376621 0.80700004 4290019916
0.22844157 0.0091376621 0.80700004 4289823051
0.22984734 0.0091376621 0.80700004 4289823051
0.23182626 0.0091603082 0.80900002 4289561689
0.23863748 0.0092056002 0.81300002 4289364045
0.24005371 0.0092056002 0.81300002 4289298251
0.24206398 0.0092282463 0.81500006 4289167435
0.24348372 0.0092282463 0.81500006 4289430607
0.19004612 0.011092186 0.84900004 4290612033
0.19107391 0.011066057 0.84700006 4290414911
0.19254938 0.011066057 0.84700006 4290283335
0.19356669 0.011039926 0.84500003 4290151750
0.19880578 0.010843951 0.83000004 4290348625
0.19976911 0.010817821 0.82800007 4290217809
0.20072545 0.010791691 0.82600003 4290283602
0.20167485 0.010765561 0.82400006 4290283365
0.20311026 0.010765561 0.82400006 4290020194
0.20404918 0.010739431 0.82200003 4289888594
0.20498116 0.010713302 0.82000005 4289822801
0.20748006 0.010621847 0.81300002 4288771105
0.20889631 0.010621847 0.81300002 4288902434
0.21031256 0.010621847 0.81300002 4289229630
0.2117288 0.010621847 0.81300002 4289229630
0.21262071 0.010595717 0.81100005 4289361709
0.21403347 0.010595717 0.81100005 4289493038
0.21544623 0.010595717 0.81100005 4289559361
0.216859 0.010595717 0.81100005 4289691203
0.21827176 0.010595717 0.81100005 4290019399
0.21914274 0.010569585 0.80900002 4290282570
0.22055203 0.010569585 0.80900002 4290085957
0.2219613 0.010569585 0.80900002 4290151750
0.22337058 0.010569585 0.80900002 4290085705
0.22422417 0.010543456 0.80700004 4290151754
0.22562997 0.010543456 0.80700004 4289954121
0.22703576 0.010543456 0.80700004 4290019914
0.22844157 0.010543456 0.80700004 4289625669
0.23041697 0.010569585 0.80900002 4289296705
0.23580498 0.010621847 0.81300002 4289298226
0.23722123 0.010621847 0.81300002 4289429812
0.24064428 0.010647976 0.81500006 4289758289
0.24206398 0.010647976 0.81500006 4289825102
0.19049381 0.012600758 0.85100001 4290612301
0.19152507 0.012571144 0.84900004 4290349129
0.19254938 0.012541531 0.84700006 4290217025
0.19356669 0.012511916 0.84500003 4290282818
0.19880578 0.012289811 0.83000004 4290152517
0.19976911 0.012260198 0.82800007 4290152529
0.20072545 0.012230583 0.82600003 4290152529
0.20216434 0.012230583 0.82600003 4290151775
0.20311026 0.01220097 0.82400006 4290020446
0.20404918 0.012171356 0.82200003 4290151512
0.20498116 0.012141741 0.82000005 4290217305
0.2064096 0.012141741 0.82000005 4290152025
0.20783804 0.012141741 0.82000005 4289823316
0.20875607 0.012112127 0.81800002 4289102142
0.20941021 0.012067707 0.81500006 4288444212
0.21082994 0.012067707 0.81500006 4288639026
0.21224967 0.012067707 0.81500006 4288968248
0.21314505 0.012038092 0.81300002 4288771128
0.21456128 0.012038092 0.81300002 4288639543
0.21597753 0.012038092 0.81300002 4288704317
0.21739377 0.012038092 0.81300002 4288638524
0.21827176 0.012008478 0.81100005 4289162540
0.21968451 0.012008478 0.81100005 4289294126
0.22109728 0.012008478 0.81100005 4289887029
0.22251004 0.012008478 0.81100005 4289952822
0.22447501 0.012038092 0.81300002 4289625660
0.22533557 0.012008478 0.81100005 4289428025
0.22674833 0.012008478 0.81100005 4289492536
0.22816108 0.012008478 0.81100005 4289492536
0.19197625 0.0140832 0.85100001 4290282568
0.19402486 0.014017005 0.84700006 4290151750
0.19503869 0.013983906 0.84500003 4290085957
0.19928482 0.01376877 0.83200002 4290086713
0.20025164 0.013735672 0.83000004 4290020427
0.20121148 0.013702574 0.82800007 4289889098
0.20216434 0.013669475 0.82600003 4290020946
0.20360324 0.013669475 0.82600003 4290152275
0.20504212 0.013669475 0.82600003 4289954902
0.20598108 0.013636378 0.82400006 4290020696
0.20691304 0.013603278 0.82200003 4290152027
0.20834497 0.013603278 0.82200003 4290217820
0.20926648 0.013570182 0.82000005 4289956436
0.21018103 0.013537084 0.81800002 4289627214
0.2113473 0.013520534 0.81700003 4289626955
0.21277051 0.013520534 0.81700003 4289626955
0.21366939 0.013487437 0.81500006 4289297490
0.21508913 0.013487437 0.81500006 4289099855
0.21597753 0.013454339 0.81300002 4288967255
0.21739377 0.013454339 0.81300002 4288572498
0.21881004 0.013454339 0.81300002 4289095995
0.22022627 0.013454339 0.81300002 4288503859
0.22164252 0.013454339 0.81300002 4288899119
0.22305876 0.013454339 0.81300002 4288899119
0.22502723 0.013487437 0.81500006 4289097529
0.22589126 0.013454339 0.81300002 4289163322
0.22730751 0.013454339 0.81300002 4289360966
0.19402486 0.015492478 0.84700006 4290151230
0.19503869 0.015455897 0.84500003 4290020675
0.19928482 0.015218113 0.83200002 4289693248
0.20025164 0.015181531 0.83000004 4289692746
0.20121148 0.01514495 0.82800007 4289758795
0.20265386 0.01514495 0.82800007 4289693011
0.20360324 0.015108367 0.82600003 4289693011
0.20504212 0.015108367 0.82600003 4289823314
0.20648102 0.015108367 0.82600003 4289889107
0.20741649 0.015071786 0.82400006 4289888855
0.20885189 0.015071786 0.82400006 4289888855
0.20977689 0.015035204 0.82200003 4289954902
0.21069492 0.014998622 0.82000005 4289954902
0.21212336 0.014998622 0.82000005 4289889359
0.21277051 0.01494375 0.81700003 4289823566
0.21419373 0.01494375 0.81700003 4289822803
0.21561694 0.01494375 0.81700003 4289625167
0.21650885 0.014907167 0.81500006 4289821529
0.21792859 0.014907167 0.81500006 4289624406
0.21934831 0.014907167 0.81500006 4289624136
0.22076803 0.014907167 0.81500006 4289295171
0.22218777 0.014907167 0.81500006 4289361218
0.2236075 0.014907167 0.81500006 4289295425
0.22557944 0.01494375 0.81700003 4289624384
0.22644696 0.014907167 0.81500006 4289690177
0.22786669 0.014907167 0.81500006 4289755972
0.22928643 0.014907167 0.81500006 4289821765
0.23070617 0.014907167 0.81500006 4289888324
0.23269551 0.01494375 0.81700003 4290020166
0.23411871 0.01494375 0.81700003 4289889359
0.23583023 0.014962039 0.81800002 4289889359
0.19402486 0.016967952 0.84700006 4290020414
0.19503869 0.016927887 0.84500003 4290020162
0.19651069 0.016927887 0.84500003 4290086211
0.20073415 0.016667457 0.83200002 4289495367
0.20169748 0.016627392 0.83000004 4289495367
0.20265386 0.016587328 0.82800007 4289560658
0.20409623 0.016587328 0.82800007 4289692244
0.20553862 0.016587328 0.82800007 4289823051
0.20648102 0.016547261 0.82600003 4289823051
0.20791991 0.016547261 0.82600003 4289823062
0.20885189 0.016507195 0.82400006 4289823062
0.2102873 0.016507195 0.82400006 4289888342
0.21120881 0.016467128 0.82200003 4290019927
0.21212336 0.016427062 0.82000005 4289955152
0.21303093 0.016386995 0.81800002 4290020946
0.21445589 0.016386995 0.81800002 4290152025
0.21561694 0.016366962 0.81700003 4290415453
0.21704017 0.016366962 0.81700003 4290480743
0.21846338 0.016366962 0.81700003 4290414949
0.21988659 0.016366962 0.81700003 4290348627
0.2213098 0.016366962 0.81700003 4290348627
0.22273301 0.016366962 0.81700003 4290283361
0.22415623 0.016366962 0.81700003 4290283361
0.22585554 0.016386995 0.81800002 4290349408
0.22728051 0.016386995 0.81800002 4290283615
0.22870545 0.016386995 0.81800002 4290152529
0.23013042 0.016386995 0.81800002 4290152529
0.23155537 0.016386995 0.81800002 4290152779
0.23354997 0.016427062 0.82000005 4289889607
0.23497842 0.016427062 0.82000005 4289955152
0.23640685 0.016427062 0.82000005 4289955152
0.19494113 0.018530525 0.85100001 4289954619
0.19550033 0.018443428 0.84700006 4289954373
0.19651069 0.018399876 0.84500003 4290020166
0.19798267 0.018399876 0.84500003 4290020173
0.20121671 0.018160351 0.83400005 4289626173
0.2021835 0.018116802 0.83200002 4289691966
0.20314336 0.018073253 0.83000004 4289757510
0.20409623 0.018029701 0.82800007 4289757510
0.20553862 0.018029701 0.82800007 4289823051
0.20698099 0.018029701 0.82800007 4289823051
0.20791991 0.017986152 0.82600003 4289888342
0.20935881 0.017986152 0.82600003 4289822549
0.2102873 0.017942604 0.82400006 4289822801
0.2117227 0.017942604 0.82400006 4290019923
0.21264073 0.017899051 0.82200003 4289889357
0.21355182 0.017855503 0.82000005 4290021200
0.21445589 0.017811952 0.81800002 4289890139
0.21588086 0.017811952 0.81800002 4290087517
0.21730581 0.017811952 0.81800002 4290349156
0.21873076 0.017811952 0.81800002 4290349156
0.22015572 0.017811952 0.81800002 4290152025
0.22158068 0.017811952 0.81800002 4290152025
0.22300562 0.017811952 0.81800002 4289955936
0.22443059 0.017811952 0.81800002 4290153058
0.22585554 0.017811952 0.81800002 4290022492
0.22728051 0.017811952 0.81800002 4290022492
0.22926466 0.017855503 0.82000005 4290087515
0.23069309 0.017855503 0.82000005 4290087515
0.23212154 0.017855503 0.82000005 4289890895
0.23354997 0.017855503 0.82000005 4289890895
0.23555154 0.017899051 0.82200003 4290152275
0.24245332 0.017986152 0.82600003 4290086220
0.24448276 0.018029701 0.82800007 4289889098
0.24592514 0.018029701 0.82800007 4290544193
0.19494113 0.020012969 0.85100001 4289888818
0.19596197 0.019965934 0.84900004 4289823303
0.19651069 0.019871866 0.84500003 4289889096
0.19798267 0.019871866 0.84500003 4290020679
0.1989826 0.019824835 0.84300005 4289757508
0.20121671 0.01961318 0.83400005 4289691705
0.20266953 0.01961318 0.83400005 4289823034
0.20363285 0.019566147 0.83200002 4289757510
0.20458922 0.019519113 0.83000004 4289757510
0.20603508 0.019519113 0.83000004 4289823303
0.20748092 0.019519113 0.83000004 4289823303
0.20842336 0.019472079 0.82800007 4289823051
0.20986573 0.019472079 0.82800007 4289823051
0.2107977 0.019425044 0.82600003 4289757258
0.2117227 0.01937801 0.82400006 4289888844
0.21264073 0.019330975 0.82200003 4289955404
0.21355182 0.019283943 0.82000005 4289955404
0.21498026 0.019283943 0.82000005 4290020696
0.21588086 0.019236907 0.81800002 4290020696
0.21730581 0.019236907 0.81800002 4290020446
0.21873076 0.019236907 0.81800002 4290151775
0.22015572 0.019236907 0.81800002 4290152025
0.22158068 0.019236907 0.81800002 4290217818
0.22300562 0.019236907 0.81800002 4289890906
0.22443059 0.019236907 0.81800002 4289956699
0.22640775 0.019283943 0.82000005 4290087765
0.22783621 0.019283943 0.82000005 4290153814
0.22926466 0.019283943 0.82000005 4290088037
0.23069309 0.019283943 0.82000005 4289890402
0.23212154 0.019283943 0.82000005 4289890643
0.23354997 0.019283943 0.82000005 4289890643
0.23555154 0.019330975 0.82200003 4289824850
0.24101445 0.019425044 0.82600003 4289824350
0.24304038 0.019472079 0.82800007 4290151754
0.24448276 0.019472079 0.82800007 4289954119
0.24592514 0.019472079 0.82800007 4290804799
0.19596197 0.021444893 0.84900004 4289822782
0.19744092 0.021444893 0.84900004 4289954369
0.19798267 0.021343857 0.84500003 4289693261
0.1989826 0.02129334 0.84300005 4289561675
0.20169923 0.021116527 0.83600003 4289429821
0.20266953 0.021066008 0.83400005 4289429821
0.20412236 0.021066008 0.83400005 4289495367
0.20508219 0.021015489 0.83200002 4289495367
0.20653154 0.021015489 0.83200002 4289495117
0.20748092 0.020964973 0.83000004 4289626703
0.2089268 0.020964973 0.83000004 4289822803
0.20986573 0.020914454 0.82800007 4289822803
0.21130811 0.020914454 0.82800007 4289823051
0.2122366 0.020863935 0.82600003 4289888844
0.21315812 0.020813419 0.82400006 4289889107
0.21407266 0.0207629 0.82200003 4289954900
0.21498026 0.020712381 0.82000005 4289954904
0.2164087 0.020712381 0.82000005 4290020698
0.21783713 0.020712381 0.82000005 4290020696
0.21926557 0.020712381 0.82000005 4290152025
0.22069401 0.020712381 0.82000005 4289825113
0.22212245 0.020712381 0.82000005 4289759320
0.22300562 0.020661863 0.81800002 4289890906
0.22443059 0.020661863 0.81800002 4289956699
0.22640775 0.020712381 0.82000005 4290284117
0.22783621 0.020712381 0.82000005 4290349910
0.22982381 0.0207629 0.82200003 4290087515
0.23125575 0.0207629 0.82200003 4289956186
0.23268765 0.0207629 0.82200003 4289890393
0.23411959 0.0207629 0.82200003 4289890393
0.24015565 0.020914454 0.82800007 4289759066
0.24159802 0.020914454 0.82800007 4289627736
0.24304038 0.020914454 0.82800007 4289955404
0.2450733 0.020964973 0.83000004 4289494853
0.19539928 0.023031855 0.85300004 4290215719
0.19642358 0.022977853 0.85100001 4289691453
0.19744092 0.022923851 0.84900004 4289691453
0.19845128 0.02286985 0.84700006 4289625419
0.19945467 0.022815848 0.84500003 4289625419
0.20169923 0.022572838 0.83600003 4289559876
0.20266953 0.022518838 0.83400005 4289691463
0.20412236 0.022518838 0.83400005 4289495367
0.2055752 0.022518838 0.83400005 4289429573
0.20653154 0.022464834 0.83200002 4289691215
0.20798089 0.022464834 0.83200002 4289822801
0.2089268 0.022410832 0.83000004 4289822297
0.21037266 0.022410832 0.83000004 4289756504
0.21130811 0.022356832 0.82800007 4289626705
0.2122366 0.022302829 0.82600003 4289626705
0.21367548 0.022302829 0.82600003 4289693011
0.21459353 0.022248827 0.82400006 4289693011
0.21550459 0.022194823 0.82200003 4289888855
0.21693651 0.022194823 0.82200003 4289888855
0.21783713 0.022140823 0.82000005 4289889357
0.21926557 0.022140823 0.82000005 4290021200
0.22069401 0.022140823 0.82000005 4289890643
0.22212245 0.022140823 0.82000005 4289890643
0.22355087 0.022140823 0.82000005 4289890643
0.22497933 0.022140823 0.82000005 4289890643
0.22695997 0.022194823 0.82200003 4290088271
0.2283919 0.022194823 0.82200003 4289890893
0.22982381 0.022194823 0.82200003 4290152529
0.23125575 0.022194823 0.82200003 4290152529
0.23268765 0.022194823 0.82200003 4290218322
0.24015565 0.022356832 0.82800007 4289758804
0.24218158 0.022410832 0.83000004 4289693011
0.24362744 0.022410832 0.83000004 4290150982
0.2450733 0.022410832 0.83000004 4289822017
0.19539928 0.024517782 0.85300004 4290083892
0.19642358 0.024460295 0.85100001 4289822269
0.19744092 0.02440281 0.84900004 4289756476
0.19845128 0.024345325 0.84700006 4289493820
0.19945467 0.024287837 0.84500003 4289559613
0.20045109 0.024230352 0.84300005 4289559626
0.20315553 0.024029151 0.83600003 4289625669
0.20461185 0.024029151 0.83600003 4289625669
0.2055752 0.023971664 0.83400005 4289625669
0.20702802 0.023971664 0.83400005 4289822031
0.20848085 0.023971664 0.83400005 4289953617
0.20943022 0.023914179 0.83200002 4289756754
0.21087956 0.023914179 0.83200002 4289822803
0.21130811 0.023799207 0.82800007 4289626705
0.21275049 0.023799207 0.82800007 4289626705
0.21367548 0.02374172 0.82600003 4289627218
0.21511438 0.02374172 0.82600003 4289693011
0.21602893 0.023684235 0.82400006 4289888857
0.21746434 0.023684235 0.82400006 4289888857
0.21889976 0.023684235 0.82400006 4289889107
0.21980035 0.023626748 0.82200003 4290020694
0.22123228 0.023626748 0.82200003 4289890393
0.22266421 0.023626748 0.82200003 4289824600
0.22355087 0.023569264 0.82000005 4289824850
0.22497933 0.023569264 0.82000005 4289890643
0.22695997 0.023626748 0.82200003 4289956186
0.2283919 0.023626748 0.82200003 4289890393
0.23038302 0.023684235 0.82400006 4289890643
0.23181841 0.023684235 0.82400006 4289956436
0.23325384 0.023684235 0.82400006 4290218322
0.19642358 0.025942737 0.85100001 4289426732
0.19790603 0.025942737 0.85100001 4289887283
0.19845128 0.025820799 0.84700006 4289624886
0.19992675 0.025820799 0.84700006 4289624886
0.20092666 0.025759827 0.84500003 4289428297
0.2019196 0.025698857 0.84300005 4289428297
0.20364156 0.025546433 0.83800006 4289625154
0.20461185 0.025485462 0.83600003 4289559626
0.20606817 0.025485462 0.83600003 4289625419
0.20702802 0.025424493 0.83400005 4289691463
0.20848085 0.025424493 0.83400005 4289691463
0.20993367 0.025424493 0.83400005 4289691215
0.2113865 0.025424493 0.83400005 4289757008
0.21232891 0.025363522 0.83200002 4289626955
0.21326438 0.025302552 0.83000004 4289626955
0.21419287 0.025241584 0.82800007 4289626451
0.21563524 0.025241584 0.82800007 4289692244
0.21655327 0.025180614 0.82600003 4289888857
0.21799217 0.025180614 0.82600003 4289823064
0.21943106 0.025180614 0.82600003 4289823064
0.22086994 0.025180614 0.82600003 4289954650
0.22230883 0.025180614 0.82600003 4289824600
0.22320597 0.025119644 0.82400006 4289758806
0.22464138 0.025119644 0.82400006 4289693011
0.2260768 0.025119644 0.82400006 4289890391
0.2275122 0.025119644 0.82400006 4290087515
0.22894761 0.025119644 0.82400006 4289824600
0.23038302 0.025119644 0.82400006 4289824850
0.23181841 0.025119644 0.82400006 4289824850
0.19642358 0.027425177 0.85100001 4289162025
0.19790603 0.027425177 0.85100001 4289556783
0.19891988 0.027360726 0.84900004 4289624636
0.20039883 0.027360726 0.84900004 4289624636
0.20140223 0.027296273 0.84700006 4289100346
0.20239866 0.027231818 0.84500003 4289297724
0.20338811 0.027167365 0.84300005 4289297470
0.20412758 0.027070682 0.84000003 4289297470
0.20510136 0.027006229 0.83800006 4289427773
0.20656116 0.027006229 0.83800006 4289625408
0.20752448 0.026941774 0.83600003 4289429323
0.20898078 0.026941774 0.83600003 4289495117
0.2104371 0.026941774 0.83600003 4289561160
0.2113865 0.026877321 0.83400005 4289626953
0.21283934 0.026877321 0.83400005 4289626955
0.21377826 0.026812866 0.83200002 4289626955
0.21471024 0.026748413 0.83000004 4289823051
0.21563524 0.026683958 0.82800007 4289888844
0.21707763 0.026683958 0.82800007 4289888855
0.21852 0.026683958 0.82800007 4289888855
0.21943106 0.026619505 0.82600003 4289889107
0.22086994 0.026619505 0.82600003 4289954900
0.22230883 0.026619505 0.82600003 4290020696
0.22374773 0.026619505 0.82600003 4289954902
0.22518663 0.026619505 0.82600003 4289759054
0.2266255 0.026619505 0.82600003 4289890641
0.2280644 0.026619505 0.82600003 4289890393
0.2295033 0.026619505 0.82600003 4289758806
0.19790603 0.028907619 0.85100001 4289226033
0.19891988 0.028839683 0.84900004 4289424945
0.19992675 0.028771745 0.84700006 4289885495
0.20092666 0.028703809 0.84500003 4289493305
0.20239866 0.028703809 0.84500003 4289493305
0.20338811 0.028635871 0.84300005 4289427773
0.20485662 0.028635871 0.84300005 4289427773
0.20559086 0.028533963 0.84000003 4289297470
0.20656116 0.028466027 0.83800006 4289363263
0.20802096 0.028466027 0.83800006 4289231945
0.20948075 0.028466027 0.83800006 4289231945
0.2104371 0.028398085 0.83600003 4289429569
0.21189341 0.028398085 0.83600003 4289495619
0.21283934 0.028330149 0.83400005 4289627207
0.21429215 0.028330149 0.83400005 4289758793
0.2152276 0.028262211 0.83200002 4289955402
0.2161561 0.028194275 0.83000004 4289955402
0.21760195 0.028194275 0.83000004 4290020698
0.21904781 0.028194275 0.83000004 4290020698
0.21996237 0.028126337 0.82800007 4290020946
0.22140475 0.028126337 0.82800007 4290218324
0.19992675 0.030247221 0.84700006 4289488943
0.20092666 0.030175798 0.84500003 4289623863
0.20239866 0.030175798 0.84500003 4289623863
0.20338811 0.030104378 0.84300005 4289361716
0.20485662 0.030104378 0.84300005 4289361716
0.20632511 0.030104378 0.84300005 4289230648
0.20705415 0.029997244 0.84000003 4289362234
0.20851742 0.029997244 0.84000003 4289100357
0.20948075 0.029925821 0.83800006 4289166150
0.21094055 0.029925821 0.83800006 4289297738
0.21189341 0.029854398 0.83600003 4289495117
0.21334973 0.029854398 0.83600003 4289495367
0.21429215 0.029782977 0.83400005 4289758795
0.21574499 0.029782977 0.83400005 4289693261
0.21667695 0.029711554 0.83200002 4289759054
0.20239866 0.03164779 0.84500003 4289688873
0.20387062 0.03164779 0.84500003 4289426219
0.20485662 0.031572882 0.84300005 4289294376
0.20632511 0.031572882 0.84300005 4289295144
0.20779362 0.031572882 0.84300005 4289426730
0.20926213 0.031572882 0.84300005 4289295671
0.20998071 0.031460524 0.84000003 4289361720
0.21094055 0.031385619 0.83800006 4289296709
0.21240035 0.031385619 0.83800006 4289362502
0.21334973 0.031310711 0.83600003 4289231945
0.21480604 0.031310711 0.83600003 4289297738
