# .PCD v0.7 - Point Cloud Data file format
VERSION 0.7
FIELDS x y z rgba
SIZE 4 4 4 4
TYPE F F F U
COUNT 1 1 1 1
WIDTH 1068
HEIGHT 1
VIEWPOINT 0 0 0 1 0 0 0
POINTS 1068
DATA ascii
0.25704867 -0.20606381 0.81300002 4283382026
0.2578291 -0.20555688 0.81100005 4283116544
0.25924188 -0.20555688 0.81100005 4280156160
0.19587398 -0.2104371 0.83600003 4285946404
0.19733028 -0.2104371 0.83600003 4285617439
0.19878662 -0.2104371 0.83600003 4285683473
0.19976388 -0.20993367 0.83400005 4285814802
0.20073415 -0.20943022 0.83200002 4285683486
0.20121148 -0.20842336 0.82800007 4285946402
0.20216434 -0.20791991 0.82600003 4286143272
0.20311026 -0.20741649 0.82400006 4286340394
0.20454566 -0.20741649 0.82400006 4286341682
0.20498116 -0.2064096 0.82000005 4287065148
0.20590617 -0.20590617 0.81800002 4286737753
0.20707765 -0.20565444 0.81700003 4286605910
0.20799047 -0.20515102 0.81500006 4286671689
0.20941021 -0.20515102 0.81500006 4286540360
0.21031256 -0.20464756 0.81300002 4286275914
0.2117288 -0.20464756 0.81300002 4286275914
0.21314505 -0.20464756 0.81300002 4286276166
0.21403347 -0.20414414 0.81100005 4286276166
0.21491492 -0.2036407 0.80900002 4286211138
0.21578939 -0.20313725 0.80700004 4285882174
0.2171952 -0.20313725 0.80700004 4285750337
0.218601 -0.20313725 0.80700004 4285552959
0.22000679 -0.20313725 0.80700004 4285946685
0.22141258 -0.20313725 0.80700004 4286012478
0.22281837 -0.20313725 0.80700004 4285947689
0.22422417 -0.20313725 0.80700004 4286079275
0.22562997 -0.20313725 0.80700004 4285948217
0.22647309 -0.20263383 0.80500007 4286211388
0.22787541 -0.20263383 0.80500007 4286080070
0.22927772 -0.20263383 0.80500007 4286080070
0.23068003 -0.20263383 0.80500007 4286079557
0.23208234 -0.20263383 0.80500007 4286210886
0.23348466 -0.20263383 0.80500007 4286276166
0.23488696 -0.20263383 0.80500007 4286144580
0.23687632 -0.20313725 0.80700004 4286274883
0.23828213 -0.20313725 0.80700004 4286472518
0.2396879 -0.20313725 0.80700004 4286538293
0.24109371 -0.20313725 0.80700004 4286604086
0.24249949 -0.20313725 0.80700004 4286669890
0.24511424 -0.20414414 0.81100005 4286669890
0.24652702 -0.20414414 0.81100005 4286604086
0.24793975 -0.20414414 0.81100005 4286669879
0.24996744 -0.20464756 0.81300002 4286604870
0.25138369 -0.20464756 0.81300002 4286670663
0.25279993 -0.20464756 0.81300002 4286670922
0.25421616 -0.20464756 0.81300002 4286999887
0.25563243 -0.20464756 0.81300002 4287065400
0.25704867 -0.20464756 0.81300002 4283578628
0.25719327 -0.2036407 0.80900002 4282064640
0.25860253 -0.2036407 0.80900002 4280025088
0.19587398 -0.20898078 0.83600003 4285815074
0.19733028 -0.20898078 0.83600003 4285551646
0.19878662 -0.20898078 0.83600003 4285683473
0.19976388 -0.20848085 0.83400005 4285814802
0.20073415 -0.20798089 0.83200002 4285749281
0.20121148 -0.20698099 0.82800007 4285946404
0.20216434 -0.20648102 0.82600003 4286143524
0.20360324 -0.20648102 0.82600003 4286143524
0.20454566 -0.20598108 0.82400006 4286406973
0.20548111 -0.20548111 0.82200003 4286933317
0.2064096 -0.20498116 0.82000005 4286737228
0.20733112 -0.2044812 0.81800002 4286671435
0.20850088 -0.20423123 0.81700003 4286671689
0.20941021 -0.20373128 0.81500006 4286540360
0.21082994 -0.20373128 0.81500006 4286342727
0.2117288 -0.20323132 0.81300002 4286210884
0.21314505 -0.20323132 0.81300002 4286276418
0.21456128 -0.20323132 0.81300002 4286276418
0.21491492 -0.20223141 0.80900002 4286211138
0.21578939 -0.20173146 0.80700004 4286211138
0.2171952 -0.20173146 0.80700004 4285750337
0.218601 -0.20173146 0.80700004 4285552959
0.22055203 -0.20223141 0.80900002 4285880890
0.2219613 -0.20223141 0.80900002 4285880890
0.22337058 -0.20223141 0.80900002 4285947689
0.22422417 -0.20173146 0.80700004 4285947689
0.22562997 -0.20173146 0.80700004 4285882677
0.22703576 -0.20173146 0.80700004 4286343228
0.22844157 -0.20173146 0.80700004 4286343506
0.22984734 -0.20173146 0.80700004 4286211920
0.23068003 -0.20123151 0.80500007 4286276166
0.23208234 -0.20123151 0.80500007 4286144580
0.23348466 -0.20123151 0.80500007 4286275914
0.2354705 -0.20173146 0.80700004 4286210121
0.23687632 -0.20173146 0.80700004 4286341180
0.23828213 -0.20173146 0.80700004 4286472766
0.24028192 -0.20223141 0.80900002 4286473270
0.24169119 -0.20223141 0.80900002 4286473270
0.24370147 -0.20273137 0.81100005 4286210625
0.24511424 -0.20273137 0.81100005 4286144832
0.24652702 -0.20273137 0.81100005 4286276670
0.24855119 -0.20323132 0.81300002 4286473792
0.24996744 -0.20323132 0.81300002 4286539576
0.25138369 -0.20323132 0.81300002 4286605370
0.25279993 -0.20323132 0.81300002 4286736188
0.25421616 -0.20323132 0.81300002 4287328325
0.25563243 -0.20323132 0.81300002 4286934071
0.25704867 -0.20323132 0.81300002 4282657536
0.25719327 -0.20223141 0.80900002 4281864192
0.25860253 -0.20223141 0.80900002 4280483840
0.19733028 -0.20752448 0.83600003 4285551646
0.19878662 -0.20752448 0.83600003 4285814802
0.19976388 -0.20702802 0.83400005 4285814802
0.20073415 -0.20653154 0.83200002 4285749281
0.2021835 -0.20653154 0.83200002 4285946404
0.20314336 -0.20603508 0.83000004 4286011686
0.20360324 -0.20504212 0.82600003 4286011686
0.20454566 -0.20454566 0.82400006 4286013243
0.20598108 -0.20454566 0.82400006 4286802760
0.2064096 -0.20355272 0.82000005 4286672187
0.20783804 -0.20355272 0.82000005 4286475065
0.20875607 -0.20305625 0.81800002 4286540608
0.20992409 -0.20280802 0.81700003 4286474815
0.21082994 -0.20231155 0.81500006 4286408772
0.21224967 -0.20231155 0.81500006 4286276929
0.21314505 -0.20181507 0.81300002 4286342463
0.21456128 -0.20181507 0.81300002 4286276670
0.21544623 -0.20131861 0.81100005 4286211390
0.2163242 -0.20082213 0.80900002 4286211390
0.21773347 -0.20082213 0.80900002 4285881926
0.21914274 -0.20082213 0.80900002 4285815876
0.22055203 -0.20082213 0.80900002 4285815617
0.2219613 -0.20082213 0.80900002 4285815617
0.22337058 -0.20082213 0.80900002 4285947187
0.22477987 -0.20082213 0.80900002 4285947187
0.22562997 -0.20032567 0.80700004 4285816382
0.22703576 -0.20032567 0.80700004 4286474313
0.22844157 -0.20032567 0.80700004 4287001170
0.22984734 -0.20032567 0.80700004 4287066963
0.23125315 -0.20032567 0.80700004 4286473293
0.23265892 -0.20032567 0.80700004 4286275914
0.23406473 -0.20032567 0.80700004 4286342223
0.2354705 -0.20032567 0.80700004 4286342223
0.23687632 -0.20032567 0.80700004 4286406973
0.23887265 -0.20082213 0.80900002 4286472766
0.24028192 -0.20082213 0.80900002 4286406973
0.24228871 -0.20131861 0.81100005 4286472766
0.24430247 -0.20181507 0.81300002 4286406973
0.24571872 -0.20181507 0.81300002 4286406973
0.24713494 -0.20181507 0.81300002 4286407236
0.24855119 -0.20181507 0.81300002 4286473029
0.24996744 -0.20181507 0.81300002 4286670644
0.25200209 -0.20231155 0.81500006 4286670644
0.25342184 -0.20231155 0.81500006 4286736685
0.25484157 -0.20231155 0.81500006 4287394872
0.25626132 -0.20231155 0.81500006 4286671667
0.25704867 -0.20181507 0.81300002 4281342208
0.19733028 -0.20606817 0.83600003 4285879834
0.19878662 -0.20606817 0.83600003 4285683738
0.19976388 -0.2055752 0.83400005 4285749531
0.20073415 -0.20508219 0.83200002 4285815074
0.2021835 -0.20508219 0.83200002 4285946404
0.20314336 -0.20458922 0.83000004 4285946404
0.20360324 -0.20360324 0.82600003 4286077990
0.20454566 -0.20311026 0.82400006 4286077490
0.20598108 -0.20311026 0.82400006 4286735420
0.20691304 -0.20261726 0.82200003 4286475326
0.20783804 -0.20212428 0.82000005 4286475326
0.20926648 -0.20212428 0.82000005 4286671689
0.21018103 -0.20163129 0.81800002 4286474311
0.2113473 -0.20138481 0.81700003 4286145861
0.21277051 -0.20138481 0.81700003 4286211655
0.21366939 -0.20089182 0.81500006 4286276670
0.21456128 -0.20039883 0.81300002 4286342463
0.21597753 -0.20039883 0.81300002 4286211138
0.216859 -0.19990584 0.81100005 4286211138
0.21827176 -0.19990584 0.81100005 4285882689
0.21968451 -0.19990584 0.81100005 4285619517
0.22164252 -0.20039883 0.81300002 4285750587
0.22305876 -0.20039883 0.81300002 4285750587
0.22447501 -0.20039883 0.81300002 4285750839
0.22533557 -0.19990584 0.81100005 4285619254
0.22674833 -0.19990584 0.81100005 4285618752
0.22816108 -0.19990584 0.81100005 4286342475
0.22957385 -0.19990584 0.81100005 4286869334
0.23041697 -0.19941285 0.80900002 4286869334
0.23182626 -0.19941285 0.80900002 4286342727
0.23265892 -0.19891988 0.80700004 4285947969
0.23406473 -0.19891988 0.80700004 4286341189
0.23605409 -0.19941285 0.80900002 4286472775
0.23746336 -0.19941285 0.80900002 4286539074
0.23887265 -0.19941285 0.80900002 4286473281
0.24087596 -0.19990584 0.81100005 4286277172
0.24288622 -0.20039883 0.81300002 4286277172
0.24430247 -0.20039883 0.81300002 4286473270
0.24571872 -0.20039883 0.81300002 4286604599
0.24713494 -0.20039883 0.81300002 4286473783
0.24916266 -0.20089182 0.81500006 4286539576
0.25058237 -0.20089182 0.81500006 4286736176
0.25200209 -0.20089182 0.81500006 4286801969
0.25342184 -0.20089182 0.81500006 4286933037
0.25484157 -0.20089182 0.81500006 4287656504
0.25626132 -0.20089182 0.81500006 4286276918
0.25704867 -0.20039883 0.81300002 4280487168
0.2584649 -0.20039883 0.81300002 4280287232
0.19780239 -0.20510136 0.83800006 4285814543
0.19926219 -0.20510136 0.83800006 4285683486
0.19976388 -0.20412236 0.83400005 4285683486
0.20121671 -0.20412236 0.83400005 4285618474
0.2021835 -0.20363285 0.83200002 4285684268
0.20314336 -0.20314336 0.83000004 4285750311
0.20360324 -0.20216434 0.82600003 4285947689
0.20504212 -0.20216434 0.82600003 4286012215
0.20598108 -0.20167485 0.82400006 4285946422
0.20741649 -0.20167485 0.82400006 4286605101
0.20834497 -0.20118535 0.82200003 4286736687
0.20926648 -0.20069584 0.82000005 4286276670
0.21018103 -0.20020634 0.81800002 4286013241
0.21160598 -0.20020634 0.81800002 4286079037
0.21303093 -0.20020634 0.81800002 4286144830
0.21419373 -0.19996159 0.81700003 4286145082
0.21561694 -0.19996159 0.81700003 4286079289
0.21650885 -0.19947208 0.81500006 4286013760
0.21739377 -0.19898258 0.81300002 4285947967
0.21881004 -0.19898258 0.81300002 4285948221
0.22022627 -0.19898258 0.81300002 4285750585
0.22164252 -0.19898258 0.81300002 4285750333
0.22305876 -0.19898258 0.81300002 4285750333
0.22447501 -0.19898258 0.81300002 4285750839
0.22589126 -0.19898258 0.81300002 4285750839
0.22730751 -0.19898258 0.81300002 4285816130
0.22872375 -0.19898258 0.81300002 4286408268
0.23014 -0.19898258 0.81300002 4286474826
0.23098662 -0.19849308 0.81100005 4286409033
0.23239939 -0.19849308 0.81100005 4286276670
0.23265892 -0.19751409 0.80700004 4285750326
0.23406473 -0.19751409 0.80700004 4285881410
0.23605409 -0.19800358 0.80900002 4286078533
0.23746336 -0.19800358 0.80900002 4286079289
0.2394632 -0.19849308 0.81100005 4286210875
0.24087596 -0.19849308 0.81100005 4286407475
0.24288622 -0.19898258 0.81300002 4286407475
0.24490346 -0.19947208 0.81500006 4286537789
0.2463232 -0.19947208 0.81500006 4286669375
0.24774292 -0.19947208 0.81500006 4286670644
0.24916266 -0.19947208 0.81500006 4286604851
0.25058237 -0.19947208 0.81500006 4286866992
0.25200209 -0.19947208 0.81500006 4286866992
0.25342184 -0.19947208 0.81500006 4287128613
0.25546694 -0.19996159 0.81700003 4287392042
0.25626132 -0.19947208 0.81500006 4286407443
0.25768104 -0.19947208 0.81500006 4280486400
0.25910074 -0.19947208 0.81500006 4279435264
0.19973774 -0.20412758 0.84000003 4285683486
0.20072198 -0.20364156 0.83800006 4285683486
0.20169923 -0.20315553 0.83600003 4285552681
0.2021835 -0.2021835 0.83200002 4285684268
0.20314336 -0.20169748 0.83000004 4285750063
0.20360324 -0.20072545 0.82600003 4285750063
0.20504212 -0.20072545 0.82600003 4285946935
0.20648102 -0.20072545 0.82600003 4285946935
0.20741649 -0.20023943 0.82400006 4286275385
0.20885189 -0.20023943 0.82400006 4286275385
0.20977689 -0.19975342 0.82200003 4285947187
0.21069492 -0.1992674 0.82000005 4286012980
0.21212336 -0.1992674 0.82000005 4286078773
0.21303093 -0.19878137 0.81800002 4286012980
0.21445589 -0.19878137 0.81800002 4286012980
0.21561694 -0.19853838 0.81700003 4286012980
0.21650885 -0.19805236 0.81500006 4286012730
0.21792859 -0.19805236 0.81500006 4286012730
0.21881004 -0.19756635 0.81300002 4285750835
0.22022627 -0.19756635 0.81300002 4285750835
0.22218777 -0.19805236 0.81500006 4285619767
0.22305876 -0.19756635 0.81300002 4285553974
0.22447501 -0.19756635 0.81300002 4285619254
0.22589126 -0.19756635 0.81300002 4285553461
0.22730751 -0.19756635 0.81300002 4285553726
0.22872375 -0.19756635 0.81300002 4286342986
0.23014 -0.19756635 0.81300002 4286277963
0.23155625 -0.19756635 0.81300002 4286146377
0.2329725 -0.19756635 0.81300002 4286341959
0.23381214 -0.19708033 0.81100005 4285815615
0.2352249 -0.19708033 0.81100005 4285881662
0.23722123 -0.19756635 0.81300002 4285881662
0.23863748 -0.19756635 0.81300002 4286079289
0.24005371 -0.19756635 0.81300002 4286276668
0.24146996 -0.19756635 0.81300002 4286277172
0.24348372 -0.19805236 0.81500006 4286211123
0.24490346 -0.19805236 0.81500006 4286472498
0.2463232 -0.19805236 0.81500006 4286735926
0.24774292 -0.19805236 0.81500006 4286670644
0.24977407 -0.19853838 0.81700003 4286670644
0.25119728 -0.19853838 0.81700003 4286932534
0.25262052 -0.19853838 0.81700003 4286998327
0.25404373 -0.19853838 0.81700003 4287588153
0.25577962 -0.19878137 0.81800002 4286798637
0.25689015 -0.19853838 0.81700003 4285156636
0.25768104 -0.19805236 0.81500006 4279762944
0.19642358 -0.20531823 0.85100001 4286012949
0.19744092 -0.2048357 0.84900004 4285815826
0.19845128 -0.20435318 0.84700006 4285683738
0.19945467 -0.20387062 0.84500003 4285749531
0.20045109 -0.20338811 0.84300005 4285748777
0.20072198 -0.20218177 0.83800006 4285814570
0.20169923 -0.20169923 0.83600003 4285618224
0.20266953 -0.20121671 0.83400005 4285684018
0.20363285 -0.20073415 0.83200002 4285683768
0.20458922 -0.20025164 0.83000004 4285683768
0.20504212 -0.19928657 0.82600003 4285946935
0.20648102 -0.19928657 0.82600003 4286407486
0.20791991 -0.19928657 0.82600003 4286211116
0.20885189 -0.19880404 0.82400006 4286013480
0.2102873 -0.19880404 0.82400006 4286012730
0.21120881 -0.19832149 0.82200003 4285946937
0.21212336 -0.19783896 0.82000005 4285881142
0.21355182 -0.19783896 0.82000005 4285946935
0.21445589 -0.19735642 0.81800002 4285749813
0.21588086 -0.19735642 0.81800002 4285749813
0.21650885 -0.19663264 0.81500006 4285749813
0.21792859 -0.19663264 0.81500006 4285683764
0.21881004 -0.19615009 0.81300002 4285553442
0.22022627 -0.19615009 0.81300002 4285685285
0.22218777 -0.19663264 0.81500006 4285684277
0.22305876 -0.19615009 0.81300002 4285684277
0.22447501 -0.19615009 0.81300002 4285684783
0.22589126 -0.19615009 0.81300002 4285618734
0.22730751 -0.19615009 0.81300002 4285487929
0.22872375 -0.19615009 0.81300002 4285882687
0.23014 -0.19615009 0.81300002 4285947969
0.23155625 -0.19615009 0.81300002 4285619004
0.2329725 -0.19615009 0.81300002 4285750337
0.23438872 -0.19615009 0.81300002 4285750337
0.23580498 -0.19615009 0.81300002 4285683768
0.23722123 -0.19615009 0.81300002 4285617719
0.23922454 -0.19663264 0.81500006 4285946683
0.24064428 -0.19663264 0.81500006 4286407234
0.24206398 -0.19663264 0.81500006 4286407475
0.24348372 -0.19663264 0.81500006 4286473268
0.24550445 -0.19711515 0.81700003 4286472766
0.24692766 -0.19711515 0.81700003 4286604095
0.24835089 -0.19711515 0.81700003 4286866740
0.24977407 -0.19711515 0.81700003 4286866740
0.25150475 -0.19735642 0.81800002 4286932534
0.25354812 -0.19783896 0.82000005 4287327291
0.25497657 -0.19783896 0.82000005 4287523153
0.256405 -0.19783896 0.82000005 4285614900
0.25783345 -0.19783896 0.82000005 4284828416
0.25926191 -0.19783896 0.82000005 4279894272
0.19642358 -0.2038358 0.85100001 4286274603
0.19790603 -0.2038358 0.85100001 4285945638
0.19891988 -0.20335674 0.84900004 4285683738
0.20039883 -0.20335674 0.84900004 4285749531
0.20092666 -0.20239866 0.84500003 4285618722
0.20120102 -0.20120102 0.84000003 4285684772
0.20218177 -0.20072198 0.83800006 4285750063
0.20315553 -0.20024292 0.83600003 4285618220
0.20412236 -0.19976388 0.83400005 4285684270
0.20458922 -0.19880578 0.83000004 4285750063
0.20553862 -0.19832672 0.82800007 4285947187
0.20648102 -0.19784766 0.82600003 4286210360
0.20791991 -0.19784766 0.82600003 4286145082
0.20885189 -0.19736864 0.82400006 4286079289
0.2102873 -0.19736864 0.82400006 4285882171
0.21120881 -0.19688956 0.82200003 4285816378
0.21264073 -0.19688956 0.82200003 4285750839
0.21355182 -0.19641052 0.82000005 4285750839
0.21498026 -0.19641052 0.82000005 4285684277
0.21588086 -0.19593148 0.81800002 4285684277
0.21730581 -0.19593148 0.81800002 4285684277
0.21792859 -0.1952129 0.81500006 4285684277
0.21934831 -0.1952129 0.81500006 4285618734
0.22076803 -0.1952129 0.81500006 4285684783
0.22218777 -0.1952129 0.81500006 4285553461
0.2236075 -0.1952129 0.81500006 4285553461
0.22502723 -0.1952129 0.81500006 4285291308
0.22644696 -0.1952129 0.81500006 4285225515
0.22786669 -0.1952129 0.81500006 4285487929
0.22928643 -0.1952129 0.81500006 4285882687
0.23070617 -0.1952129 0.81500006 4285947719
0.23212588 -0.1952129 0.81500006 4285552961
0.2335456 -0.1952129 0.81500006 4285684018
0.23496534 -0.1952129 0.81500006 4285684018
0.23638508 -0.1952129 0.81500006 4285749813
0.23780482 -0.1952129 0.81500006 4285683764
0.23922454 -0.1952129 0.81500006 4285749813
0.24064428 -0.1952129 0.81500006 4286144315
0.24206398 -0.1952129 0.81500006 4286341178
0.24408123 -0.19569194 0.81700003 4286406971
0.24550445 -0.19569194 0.81700003 4286472766
0.24722989 -0.19593148 0.81800002 4286669888
0.24865483 -0.19593148 0.81800002 4286670644
0.25007981 -0.19593148 0.81800002 4286670644
0.25211969 -0.19641052 0.82000005 4286866740
0.25354812 -0.19641052 0.82000005 4287458878
0.25559846 -0.19688956 0.82200003 4287393866
0.2570304 -0.19688956 0.82200003 4283314699
0.25846231 -0.19688956 0.82200003 4283705856
0.19539928 -0.20282893 0.85300004 4286797636
0.19688521 -0.20282893 0.85300004 4286603051
0.19790603 -0.20235334 0.85100001 4286142500
0.19938847 -0.20235334 0.85100001 4285945890
0.20039883 -0.20187779 0.84900004 4285945890
0.20092666 -0.20092666 0.84500003 4285815074
0.2019196 -0.20045109 0.84300005 4285946404
0.20338811 -0.20045109 0.84300005 4285618722
0.20364156 -0.19926219 0.83800006 4285684772
0.20461185 -0.19878662 0.83600003 4285882146
0.20508219 -0.19783548 0.83200002 4285882146
0.20603508 -0.19735992 0.83000004 4285946935
0.20698099 -0.19688435 0.82800007 4286144315
0.20791991 -0.19640878 0.82600003 4286079289
0.20935881 -0.19640878 0.82600003 4286079289
0.2107977 -0.19640878 0.82600003 4286078775
0.2117227 -0.19593321 0.82400006 4286012726
0.21264073 -0.19545764 0.82200003 4285946935
0.21355182 -0.19498208 0.82000005 4285881142
0.21498026 -0.19498208 0.82000005 4285881392
0.21588086 -0.19450651 0.81800002 4285881392
0.21730581 -0.19450651 0.81800002 4285749813
0.21846338 -0.19426873 0.81700003 4285683764
0.21934831 -0.19379316 0.81500006 4285487666
0.22076803 -0.19379316 0.81500006 4285553715
0.22218777 -0.19379316 0.81500006 4285684277
0.2236075 -0.19379316 0.81500006 4285618484
0.22502723 -0.19379316 0.81500006 4285226017
0.22644696 -0.19379316 0.81500006 4285291810
0.22786669 -0.19379316 0.81500006 4285488181
0.22928643 -0.19379316 0.81500006 4285619767
0.23070617 -0.19379316 0.81500006 4285685576
0.23212588 -0.19379316 0.81500006 4285422404
0.2335456 -0.19379316 0.81500006 4285684018
0.23496534 -0.19379316 0.81500006 4285684018
0.23638508 -0.19379316 0.81500006 4285881142
0.23838836 -0.19426873 0.81700003 4285881142
0.23981158 -0.19426873 0.81700003 4285946683
0.24123479 -0.19426873 0.81700003 4285946683
0.24265802 -0.19426873 0.81700003 4286079037
0.24408123 -0.19426873 0.81700003 4286210623
0.24580492 -0.19450651 0.81800002 4286407486
0.24722989 -0.19450651 0.81800002 4286473279
0.24865483 -0.19450651 0.81800002 4286736176
0.25069124 -0.19498208 0.82000005 4286801969
0.25211969 -0.19498208 0.82000005 4286866992
0.25416651 -0.19545764 0.82200003 4287459130
0.25559846 -0.19545764 0.82200003 4287262269
0.2570304 -0.19545764 0.82200003 4282985728
0.25846231 -0.19545764 0.82200003 4281602560
0.19436802 -0.20181507 0.85500002 4281600000
0.19539928 -0.201343 0.85300004 4286994756
0.19688521 -0.201343 0.85300004 4286472235
0.19790603 -0.2008709 0.85100001 4286077477
0.19891988 -0.20039883 0.84900004 4286011935
0.20039883 -0.20039883 0.84900004 4286011935
0.20140223 -0.19992675 0.84700006 4285946404
0.20239866 -0.19945467 0.84500003 4285946404
0.20338811 -0.1989826 0.84300005 4285552681
0.20412758 -0.19827446 0.84000003 4285947183
0.20510136 -0.19780239 0.83800006 4285816617
0.2055752 -0.19685821 0.83400005 4286013995
0.20653154 -0.19638613 0.83200002 4286145071
0.20748092 -0.19591404 0.83000004 4286145071
0.20842336 -0.19544198 0.82800007 4286275887
0.20935881 -0.19496989 0.82600003 4286275887
0.2107977 -0.19496989 0.82600003 4286210093
0.2122366 -0.19496989 0.82600003 4286210093
0.21315812 -0.19449781 0.82400006 4286143785
0.21407266 -0.19402573 0.82200003 4286143785
0.21550459 -0.19402573 0.82200003 4285881392
0.2164087 -0.19355364 0.82000005 4285881392
0.21730581 -0.19308156 0.81800002 4285750063
0.21873076 -0.19308156 0.81800002 4285684270
0.21988659 -0.19284552 0.81700003 4285750063
0.2213098 -0.19284552 0.81700003 4285750063
0.22273301 -0.19284552 0.81700003 4285684277
0.22415623 -0.19284552 0.81700003 4285684277
0.22557944 -0.19284552 0.81700003 4285618734
0.22644696 -0.19237344 0.81500006 4285618734
0.22786669 -0.19237344 0.81500006 4285618738
0.22928643 -0.19237344 0.81500006 4285750324
0.23070617 -0.19237344 0.81500006 4285750085
0.23269551 -0.19284552 0.81700003 4285618756
0.23411871 -0.19284552 0.81700003 4285553461
0.23554194 -0.19284552 0.81700003 4285750839
0.23696515 -0.19284552 0.81700003 4285750839
0.23868014 -0.19308156 0.81800002 4285750839
0.24010511 -0.19308156 0.81800002 4286012730
0.24153006 -0.19308156 0.81800002 4286144317
0.24295503 -0.19308156 0.81800002 4286079289
0.24437997 -0.19308156 0.81800002 4286210875
0.24640593 -0.19355364 0.82000005 4286407486
0.24783437 -0.19355364 0.82000005 4286539072
0.24926281 -0.19355364 0.82000005 4286670644
0.25069124 -0.19355364 0.82000005 4286802231
0.2527346 -0.19402573 0.82200003 4286998579
0.25416651 -0.19402573 0.82200003 4287722301
0.25559846 -0.19402573 0.82200003 4287000379
0.2570304 -0.19402573 0.82200003 4281539584
0.25846231 -0.19402573 0.82200003 4280484352
0.2605266 -0.19449781 0.82400006 4280025088
0.19436802 -0.20032567 0.85500002 4281864192
0.19539928 -0.19985707 0.85300004 4286996032
0.19688521 -0.19985707 0.85300004 4287128100
0.19790603 -0.19938847 0.85100001 4287062307
0.19891988 -0.19891988 0.84900004 4286667803
0.19992675 -0.19845128 0.84700006 4286338838
0.20092666 -0.19798267 0.84500003 4285945388
0.20239866 -0.19798267 0.84500003 4285879595
0.20338811 -0.19751409 0.84300005 4285618474
0.20485662 -0.19751409 0.84300005 4285947183
0.20559086 -0.19681118 0.84000003 4286079779
0.20606817 -0.19587398 0.83600003 4286145572
0.20702802 -0.19540538 0.83400005 4286211116
0.20798089 -0.19493678 0.83200002 4286211116
0.20842336 -0.1939996 0.82800007 4286145330
0.20986573 -0.1939996 0.82800007 4286079537
0.2107977 -0.19353101 0.82600003 4286275887
0.2122366 -0.19353101 0.82600003 4286210093
0.21315812 -0.19306241 0.82400006 4286144300
0.21459353 -0.19306241 0.82400006 4286012715
0.21550459 -0.1925938 0.82200003 4285881392
0.2164087 -0.1921252 0.82000005 4285750063
0.21783713 -0.1921252 0.82000005 4285750063
0.21873076 -0.1916566 0.81800002 4285750063
0.22015572 -0.1916566 0.81800002 4285750063
0.22158068 -0.1916566 0.81800002 4285881392
0.22300562 -0.1916566 0.81800002 4285881142
0.22443059 -0.1916566 0.81800002 4285749813
0.22557944 -0.1914223 0.81700003 4285684783
0.22700267 -0.1914223 0.81700003 4285552940
0.22842588 -0.1914223 0.81700003 4285618738
0.2298491 -0.1914223 0.81700003 4285684531
0.23127231 -0.1914223 0.81700003 4285553213
0.23269551 -0.1914223 0.81700003 4285553213
0.23411871 -0.1914223 0.81700003 4285684277
0.23583023 -0.1916566 0.81800002 4285816119
0.2372552 -0.1916566 0.81800002 4285750322
0.23868014 -0.1916566 0.81800002 4285816115
0.24010511 -0.1916566 0.81800002 4286078773
0.24212061 -0.1921252 0.82000005 4286078773
0.24354906 -0.1921252 0.82000005 4286143546
0.24497749 -0.1921252 0.82000005 4286275133
0.24640593 -0.1921252 0.82000005 4286274883
0.24843884 -0.1925938 0.82200003 4286669641
0.24987078 -0.1925938 0.82200003 4286932785
0.25130269 -0.1925938 0.82200003 4287524923
0.25334954 -0.19306241 0.82400006 4287325995
0.25478494 -0.19306241 0.82400006 4288115510
0.25622037 -0.19306241 0.82400006 4286605101
0.25765577 -0.19306241 0.82400006 4279894272
0.25909117 -0.19306241 0.82400006 4278648832
0.19436802 -0.19883625 0.85500002 4282653696
0.19539928 -0.19837114 0.85300004 4287193141
0.19688521 -0.19837114 0.85300004 4287193904
0.19790603 -0.19790603 0.85100001 4287128111
0.19891988 -0.19744092 0.84900004 4286733605
0.19992675 -0.19697581 0.84700006 4286207261
0.20092666 -0.19651069 0.84500003 4286010650
0.20239866 -0.19651069 0.84500003 4286076443
0.20338811 -0.19604558 0.84300005 4285815074
0.20485662 -0.19604558 0.84300005 4286012197
0.20559086 -0.19534791 0.84000003 4286079277
0.20606817 -0.19441767 0.83600003 4286342193
0.20752448 -0.19441767 0.83600003 4286210877
0.20848085 -0.19395256 0.83400005 4286210877
0.2089268 -0.19302234 0.83000004 4286210625
0.20986573 -0.19255723 0.82800007 4286144832
0.21130811 -0.19255723 0.82800007 4286079289
0.2122366 -0.19209211 0.82600003 4285881910
0.21367548 -0.19209211 0.82600003 4286012980
0.21459353 -0.191627 0.82400006 4285947187
0.21602893 -0.191627 0.82400006 4285619254
0.21693651 -0.19116189 0.82200003 4285487668
0.21783713 -0.19069676 0.82000005 4285684270
0.21926557 -0.19069676 0.82000005 4285684270
0.22069401 -0.19069676 0.82000005 4285684270
0.22212245 -0.19069676 0.82000005 4285947185
0.22355087 -0.19069676 0.82000005 4285881142
0.22497933 -0.19069676 0.82000005 4285749813
0.22585554 -0.19023164 0.81800002 4285684018
0.22728051 -0.19023164 0.81800002 4285618224
0.22870545 -0.19023164 0.81800002 4285617973
0.23013042 -0.19023164 0.81800002 4285617973
0.23155537 -0.19023164 0.81800002 4285487416
0.23298031 -0.19023164 0.81800002 4285553209
0.23440528 -0.19023164 0.81800002 4285619258
0.23583023 -0.19023164 0.81800002 4285816380
0.2372552 -0.19023164 0.81800002 4285816382
0.23868014 -0.19023164 0.81800002 4285947969
0.24069218 -0.19069676 0.82000005 4286079289
0.24212061 -0.19069676 0.82000005 4285881910
0.24354906 -0.19069676 0.82000005 4286209078
0.24497749 -0.19069676 0.82000005 4286209078
0.24700691 -0.19116189 0.82200003 4286209076
0.24843884 -0.19116189 0.82200003 4286735420
0.24987078 -0.19116189 0.82200003 4286933049
0.25130269 -0.19116189 0.82200003 4287459393
0.25334954 -0.191627 0.82400006 4287523639
0.25540337 -0.19209211 0.82600003 4287984190
0.25684226 -0.19209211 0.82600003 4285619238
0.25828114 -0.19209211 0.82600003 4278648832
0.25972003 -0.19209211 0.82600003 4278190080
0.19527735 -0.19827011 0.85900003 4282983168
0.19585744 -0.19734685 0.85500002 4287128113
0.19734685 -0.19734685 0.85500002 4287127848
0.19837114 -0.19688521 0.85300004 4286733346
0.19891988 -0.19596197 0.84900004 4286667812
0.19992675 -0.19550033 0.84700006 4286733605
0.20092666 -0.19503869 0.84500003 4286340898
0.20239866 -0.19503869 0.84500003 4286406691
0.20338811 -0.19457707 0.84300005 4286210595
0.20485662 -0.19457707 0.84300005 4286013217
0.20559086 -0.19388461 0.84000003 4286079289
0.20656116 -0.193423 0.83800006 4286210875
0.20752448 -0.19296136 0.83600003 4286341180
0.20848085 -0.19249973 0.83400005 4286406973
0.20943022 -0.1920381 0.83200002 4286406982
0.20986573 -0.19111484 0.82800007 4286209860
0.21130811 -0.19111484 0.82800007 4286078523
0.21275049 -0.19111484 0.82800007 4286012730
0.21367548 -0.19065322 0.82600003 4285947187
0.21511438 -0.19065322 0.82600003 4285947187
0.21602893 -0.19019158 0.82400006 4285619254
0.21746434 -0.19019158 0.82400006 4285553461
0.21836843 -0.18972994 0.82200003 4285553194
0.21980035 -0.18972994 0.82200003 4285553194
0.22069401 -0.18926832 0.82000005 4285749813
0.22212245 -0.18926832 0.82000005 4285749813
0.22355087 -0.18926832 0.82000005 4285749813
0.22552806 -0.18972994 0.82200003 4285683764
0.22640775 -0.18926832 0.82000005 4285421621
0.22783621 -0.18926832 0.82000005 4285355827
0.22926466 -0.18926832 0.82000005 4285355827
0.23069309 -0.18926832 0.82000005 4285355827
0.23212154 -0.18926832 0.82000005 4285355827
0.23354997 -0.18926832 0.82000005 4285487670
0.23497842 -0.18926832 0.82000005 4285421375
0.23640685 -0.18926832 0.82000005 4285552961
0.2378353 -0.18926832 0.82000005 4285619006
0.23926373 -0.18926832 0.82000005 4285881922
0.24069218 -0.18926832 0.82000005 4286209088
0.24212061 -0.18926832 0.82000005 4286340930
0.24354906 -0.18926832 0.82000005 4286471744
0.24497749 -0.18926832 0.82000005 4286800966
0.24700691 -0.18972994 0.82200003 4286866488
0.24843884 -0.18972994 0.82200003 4286932282
0.25047871 -0.19019158 0.82400006 4286932797
0.25191414 -0.19019158 0.82400006 4287130432
0.25334954 -0.19019158 0.82400006 4287588931
0.25540337 -0.19065322 0.82600003 4286667829
0.25684226 -0.19065322 0.82600003 4285487616
0.25828114 -0.19065322 0.82600003 4278845440
0.25972003 -0.19065322 0.82600003 4278190080
0.19527735 -0.19677372 0.85900003 4283379200
0.19677372 -0.19677372 0.85900003 4286866481
0.19780847 -0.19631557 0.85700005 4286996010
0.19930138 -0.19631557 0.85700005 4286798887
0.19938847 -0.19494113 0.85100001 4286603051
0.20039883 -0.194483 0.84900004 4286537257
0.20140223 -0.19402486 0.84700006 4286406691
0.20239866 -0.19356669 0.84500003 4286472484
0.20387062 -0.19356669 0.84500003 4286210595
0.20485662 -0.19310856 0.84300005 4286276388
0.20559086 -0.19242135 0.84000003 4286275887
0.20656116 -0.1919632 0.83800006 4286341680
0.20752448 -0.19150504 0.83600003 4286537789
0.20848085 -0.19104691 0.83400005 4286603582
0.20993367 -0.19104691 0.83400005 4286537537
0.21087956 -0.19058876 0.83200002 4286405951
0.21181852 -0.19013061 0.83000004 4286209339
0.21275049 -0.18967247 0.82800007 4286143546
0.21419287 -0.18967247 0.82800007 4286012728
0.21563524 -0.18967247 0.82800007 4285946935
0.21655327 -0.18921432 0.82600003 4285750839
0.21799217 -0.18921432 0.82600003 4285619254
0.21943106 -0.18921432 0.82600003 4285422386
0.22033516 -0.18875618 0.82400006 4285291056
0.22177055 -0.18875618 0.82400006 4285684277
0.22320597 -0.18875618 0.82400006 4285750326
0.22464138 -0.18875618 0.82400006 4285684783
0.2260768 -0.18875618 0.82400006 4285684783
0.22695997 -0.18829802 0.82200003 4285487666
0.2283919 -0.18829802 0.82200003 4285487666
0.22982381 -0.18829802 0.82200003 4285422386
0.23069309 -0.1878399 0.82000005 4285159470
0.23212154 -0.1878399 0.82000005 4285290277
0.23354997 -0.1878399 0.82000005 4285356070
0.23497842 -0.1878399 0.82000005 4285552175
0.23640685 -0.1878399 0.82000005 4285552175
0.2378353 -0.1878399 0.82000005 4285553183
0.23926373 -0.1878399 0.82000005 4285881892
0.24127921 -0.18829802 0.82200003 4286669096
0.24271116 -0.18829802 0.82200003 4286734889
0.24414305 -0.18829802 0.82200003 4286865444
0.245575 -0.18829802 0.82200003 4287128615
0.24700691 -0.18829802 0.82200003 4287062838
0.24904332 -0.18875618 0.82400006 4287062838
0.25047871 -0.18875618 0.82400006 4287130178
0.25313702 -0.18967247 0.82800007 4287459143
0.2545794 -0.18967247 0.82800007 4287523903
0.2560218 -0.18967247 0.82800007 4285024025
0.25746417 -0.18967247 0.82800007 4283774976
0.25890651 -0.18967247 0.82800007 4278910976
0.26034892 -0.18967247 0.82800007 4278190080
0.19378096 -0.19527735 0.85900003 4282394920
0.19527735 -0.19527735 0.85900003 4283642145
0.19677372 -0.19527735 0.85900003 4286800466
0.19827011 -0.19527735 0.85900003 4287062059
0.19930138 -0.1948227 0.85700005 4286798887
0.20032567 -0.19436802 0.85500002 4286733372
0.20039883 -0.19300404 0.84900004 4286667579
0.20140223 -0.19254938 0.84700006 4286406441
0.20239866 -0.19209471 0.84500003 4286538028
0.20387062 -0.19209471 0.84500003 4286538793
0.20485662 -0.19164005 0.84300005 4286538793
0.20632511 -0.19164005 0.84300005 4286473268
0.20656116 -0.1905034 0.83800006 4286407475
0.20802096 -0.1905034 0.83800006 4286537789
0.20848085 -0.18959408 0.83400005 4286537789
0.20993367 -0.18959408 0.83400005 4286538291
0.21087956 -0.18913941 0.83200002 4286275375
0.21181852 -0.18868475 0.83000004 4286012215
0.21326438 -0.18868475 0.83000004 4286012215
0.21419287 -0.1882301 0.82800007 4285946935
0.21563524 -0.1882301 0.82800007 4285946935
0.21707763 -0.1882301 0.82800007 4285619258
0.21799217 -0.18777543 0.82600003 4285553209
0.21943106 -0.18777543 0.82600003 4285553209
0.22086994 -0.18777543 0.82600003 4285553209
0.22230883 -0.18777543 0.82600003 4285553209
0.22320597 -0.18732077 0.82400006 4285750587
0.22464138 -0.18732077 0.82400006 4285947187
0.2266255 -0.18777543 0.82600003 4285947187
0.2275122 -0.18732077 0.82400006 4285684277
0.2283919 -0.1868661 0.82200003 4285684277
0.22982381 -0.1868661 0.82200003 4285422386
0.23125575 -0.1868661 0.82200003 4285093677
0.23268765 -0.1868661 0.82200003 4285355538
0.23411959 -0.1868661 0.82200003 4285750296
0.23555154 -0.1868661 0.82200003 4286605101
0.23698343 -0.1868661 0.82200003 4287131445
0.23841538 -0.1868661 0.82200003 4287131693
0.23984729 -0.1868661 0.82200003 4287329329
0.24127921 -0.1868661 0.82200003 4287329331
0.24271116 -0.1868661 0.82200003 4287329331
0.24473709 -0.18732077 0.82400006 4287656243
0.2461725 -0.18732077 0.82400006 4287853878
0.24760792 -0.18732077 0.82400006 4287853106
0.25025225 -0.1882301 0.82800007 4287524141
0.25230259 -0.18868475 0.83000004 4287523903
0.25374845 -0.18868475 0.83000004 4287787331
0.25519434 -0.18868475 0.83000004 4287722049
0.2566402 -0.18868475 0.83000004 4284235277
0.25808606 -0.18868475 0.83000004 4283183104
0.25953189 -0.18868475 0.83000004 4279042048
0.19378096 -0.19378096 0.85900003 4282987057
0.19527735 -0.19378096 0.85900003 4284696617
0.19677372 -0.19378096 0.85900003 4286604870
0.19827011 -0.19378096 0.85900003 4287062055
0.19930138 -0.1933298 0.85700005 4286996262
0.20079428 -0.1933298 0.85700005 4286799149
0.20039883 -0.19152507 0.84900004 4286733355
0.20140223 -0.19107391 0.84700006 4286406691
0.20239866 -0.19062273 0.84500003 4286472484
0.20387062 -0.19062273 0.84500003 4286538543
0.20485662 -0.19017155 0.84300005 4286670129
0.20632511 -0.19017155 0.84300005 4286604336
0.20705415 -0.18949479 0.84000003 4286604336
0.20802096 -0.18904361 0.83800006 4286472766
0.20898078 -0.18859242 0.83600003 4286472766
0.20993367 -0.18814124 0.83400005 4286406973
0.2113865 -0.18814124 0.83400005 4286275387
0.21181852 -0.1872389 0.83000004 4286079289
0.21326438 -0.1872389 0.83000004 4285816117
0.21471024 -0.1872389 0.83000004 4286012728
0.21563524 -0.18678771 0.82800007 4285946935
0.21707763 -0.18678771 0.82800007 4285750839
0.21852 -0.18678771 0.82800007 4285553461
0.21996237 -0.18678771 0.82800007 4285619254
0.22086994 -0.18633653 0.82600003 4285487668
0.22230883 -0.18633653 0.82600003 4285684018
0.22374773 -0.18633653 0.82600003 4286012726
0.22518663 -0.18633653 0.82600003 4286012728
0.2266255 -0.18633653 0.82600003 4286078521
0.2280644 -0.18633653 0.82600003 4286012730
0.22894761 -0.18588535 0.82400006 4285683766
0.23038302 -0.18588535 0.82400006 4285487416
0.23181841 -0.18588535 0.82400006 4285290036
0.23268765 -0.18543418 0.82200003 4285749249
0.23411959 -0.18543418 0.82200003 4286407180
0.23555154 -0.18543418 0.82200003 4287130680
0.23698343 -0.18543418 0.82200003 4287393852
0.23841538 -0.18543418 0.82200003 4287721786
0.23984729 -0.18543418 0.82200003 4287853372
0.24186628 -0.18588535 0.82400006 4287721786
0.24330169 -0.18588535 0.82400006 4287590200
0.24533111 -0.18633653 0.82600003 4287656245
0.24677001 -0.18633653 0.82600003 4287853624
0.24820888 -0.18633653 0.82600003 4287853122
0.25025225 -0.18678771 0.82800007 4287721536
0.25230259 -0.1872389 0.83000004 4287393866
0.25374845 -0.1872389 0.83000004 4287722831
0.25519434 -0.1872389 0.83000004 4287853638
0.2566402 -0.1872389 0.83000004 4281932288
0.25808606 -0.1872389 0.83000004 4282582784
0.25953189 -0.1872389 0.83000004 4280483840
0.19378096 -0.19228458 0.85900003 4283121209
0.19527735 -0.19228458 0.85900003 4284894774
0.19677372 -0.19228458 0.85900003 4286736978
0.19827011 -0.19228458 0.85900003 4287128343
0.19976649 -0.19228458 0.85900003 4286996500
0.20079428 -0.19183689 0.85700005 4286603302
0.20039883 -0.19004612 0.84900004 4286340387
0.20140223 -0.18959844 0.84700006 4286340385
0.2028777 -0.18959844 0.84700006 4286406178
0.20387062 -0.18915074 0.84500003 4286472235
0.20485662 -0.18870305 0.84300005 4286801199
0.20632511 -0.18870305 0.84300005 4286867242
0.20705415 -0.18803149 0.84000003 4286998829
0.20802096 -0.1875838 0.83800006 4286933049
0.20898078 -0.18713611 0.83600003 4286604084
0.20993367 -0.18668842 0.83400005 4286407236
0.2113865 -0.18668842 0.83400005 4286341443
0.21232891 -0.18624072 0.83200002 4286275135
0.21377826 -0.18624072 0.83200002 4286340928
0.21471024 -0.18579303 0.83000004 4286078775
0.2161561 -0.18579303 0.83000004 4286012726
0.21707763 -0.18534535 0.82800007 4285750839
0.21852 -0.18534535 0.82800007 4285750839
0.21996237 -0.18534535 0.82800007 4285881142
0.22140475 -0.18534535 0.82800007 4285881142
0.22230883 -0.18489765 0.82600003 4285880890
0.22374773 -0.18489765 0.82600003 4286012476
0.22518663 -0.18489765 0.82600003 4286012730
0.22717424 -0.18534535 0.82800007 4286012730
0.22861663 -0.18534535 0.82800007 4285816632
0.2295033 -0.18489765 0.82600003 4285421874
0.23094217 -0.18489765 0.82600003 4285816130
0.23181841 -0.18444996 0.82400006 4286737232
0.23325384 -0.18444996 0.82400006 4286803746
0.23468925 -0.18444996 0.82400006 4287330090
0.23612463 -0.18444996 0.82400006 4286868528
0.23756005 -0.18444996 0.82400006 4286802735
0.23899548 -0.18444996 0.82400006 4287065139
0.24043086 -0.18444996 0.82400006 4287196725
0.24186628 -0.18444996 0.82400006 4287196725
0.24448276 -0.18534535 0.82800007 4287065139
0.24651918 -0.18579303 0.83000004 4287065391
0.24736753 -0.18534535 0.82800007 4287196977
0.2488099 -0.18534535 0.82800007 4287787061
0.25085673 -0.18579303 0.83000004 4287655732
0.25230259 -0.18579303 0.83000004 4287786577
0.2543599 -0.18624072 0.83200002 4287852370
0.25580925 -0.18624072 0.83200002 4286604325
0.25787699 -0.18668842 0.83400005 4280222208
0.25932983 -0.18668842 0.83400005 4278190080
0.19445774 -0.19145453 0.86200005 4284239691
0.19595934 -0.19145453 0.86200005 4285092921
0.19746095 -0.19145453 0.86200005 4286474574
0.19827011 -0.19078822 0.85900003 4286997036
0.19976649 -0.19078822 0.85900003 4286865194
0.20126286 -0.19078822 0.85900003 4286603051
0.20228715 -0.19034402 0.85700005 4286405928
0.20235334 -0.18901137 0.85100001 4286537257
0.20335674 -0.18856716 0.84900004 4286537257
0.20435318 -0.18812296 0.84700006 4286472235
0.20534262 -0.18767874 0.84500003 4286735406
0.20632511 -0.18723454 0.84300005 4286997043
0.20705415 -0.18656822 0.84000003 4287194679
0.20802096 -0.18612401 0.83800006 4287194175
0.20898078 -0.18567979 0.83600003 4287128382
0.2104371 -0.18567979 0.83600003 4286539074
0.21189341 -0.18567979 0.83600003 4286407232
0.21283934 -0.18523559 0.83400005 4286406973
0.21377826 -0.18479137 0.83200002 4286341180
0.2152276 -0.18479137 0.83200002 4286079289
0.2161561 -0.18434717 0.83000004 4286013239
0.21707763 -0.18390296 0.82800007 4286012980
0.21852 -0.18390296 0.82800007 4285947187
0.21996237 -0.18390296 0.82800007 4285946935
0.22140475 -0.18390296 0.82800007 4285946935
0.22284712 -0.18390296 0.82800007 4286012730
0.22374773 -0.18345875 0.82600003 4286012730
0.22518663 -0.18345875 0.82600003 4286013243
0.22717424 -0.18390296 0.82800007 4286013243
0.22861663 -0.18390296 0.82800007 4285816617
0.230059 -0.18390296 0.82800007 4285619238
0.23094217 -0.18345875 0.82600003 4285947187
0.23238108 -0.18345875 0.82600003 4286999875
0.23381998 -0.18345875 0.82600003 4287066154
0.23525888 -0.18345875 0.82600003 4286802983
0.23669775 -0.18345875 0.82600003 4286671135
0.23813665 -0.18345875 0.82600003 4286671135
0.23899548 -0.18301454 0.82400006 4286670633
0.24043086 -0.18301454 0.82400006 4287196977
0.24304038 -0.18390296 0.82800007 4287000893
0.2450733 -0.18434717 0.83000004 4286671928
0.24651918 -0.18434717 0.83000004 4286868776
0.24796501 -0.18434717 0.83000004 4287131947
0.25001186 -0.18479137 0.83200002 4287524152
0.25146121 -0.18479137 0.83200002 4287655995
0.25351852 -0.18523559 0.83400005 4287917384
0.25558278 -0.18567979 0.83600003 4287785542
0.2570391 -0.18567979 0.83600003 4285749281
0.25849539 -0.18567979 0.83600003 4278714368
0.25995171 -0.18567979 0.83600003 4278190080
0.19445774 -0.18995292 0.86200005 4285680713
0.19595934 -0.18995292 0.86200005 4286340396
0.19746095 -0.18995292 0.86200005 4286932534
0.19896255 -0.18995292 0.86200005 4286997043
0.19976649 -0.18929183 0.85900003 4286668335
0.20126286 -0.18929183 0.85900003 4286603051
0.20228715 -0.18885112 0.85700005 4286603051
0.20330448 -0.18841037 0.85500002 4286275373
0.2038358 -0.18752894 0.85100001 4286275373
0.2048357 -0.18708821 0.84900004 4286405676
0.20534262 -0.18620674 0.84500003 4286668848
0.20681462 -0.18620674 0.84500003 4286930737
0.20705415 -0.18510494 0.84000003 4286930737
0.20851742 -0.18510494 0.84000003 4286734400
0.20898078 -0.18422349 0.83600003 4286932036
0.2104371 -0.18422349 0.83600003 4286669639
0.21189341 -0.18422349 0.83600003 4286669639
0.21283934 -0.18378277 0.83400005 4286407236
0.21429215 -0.18378277 0.83400005 4286407236
0.2152276 -0.18334202 0.83200002 4286144832
0.21667695 -0.18334202 0.83200002 4286144832
0.21760195 -0.18290131 0.83000004 4286079289
0.21904781 -0.18290131 0.83000004 4286079289
0.22049367 -0.18290131 0.83000004 4286012730
0.22140475 -0.18246059 0.82800007 4286012730
0.22284712 -0.18246059 0.82800007 4286012730
0.22428951 -0.18246059 0.82800007 4286078523
0.22573188 -0.18246059 0.82800007 4286013243
0.22717424 -0.18246059 0.82800007 4286079037
0.22861663 -0.18246059 0.82800007 4286670633
0.230059 -0.18246059 0.82800007 4286999342
0.23150139 -0.18246059 0.82800007 4286736685
0.23294376 -0.18246059 0.82800007 4286736685
0.23438615 -0.18246059 0.82800007 4286605353
0.2358285 -0.18246059 0.82800007 4285815837
0.23727088 -0.18246059 0.82800007 4286078494
0.23871326 -0.18246059 0.82800007 4286736424
0.24015565 -0.18246059 0.82800007 4287392303
0.24159802 -0.18246059 0.82800007 4288050489
0.24304038 -0.18246059 0.82800007 4287262793
0.2450733 -0.18290131 0.83000004 4286933828
0.24711317 -0.18334202 0.83200002 4287326760
0.24916002 -0.18378277 0.83400005 4287392553
0.25061285 -0.18378277 0.83400005 4287720500
0.25267017 -0.18422349 0.83600003 4287720500
0.25412646 -0.18422349 0.83600003 4287719991
0.25558278 -0.18422349 0.83600003 4286338338
0.25765404 -0.18466422 0.83800006 4285025052
0.25911382 -0.18466422 0.83800006 4278714368
0.1949089 -0.18888855 0.86400002 4286536004
0.19595934 -0.18845132 0.86200005 4286996545
0.19746095 -0.18845132 0.86200005 4287062338
0.19896255 -0.18845132 0.86200005 4286864942
0.19976649 -0.18779546 0.85900003 4286667562
0.20126286 -0.18779546 0.85900003 4286537005
0.20228715 -0.18735822 0.85700005 4286537005
0.20330448 -0.18692097 0.85500002 4286537005
0.20431484 -0.18648374 0.85300004 4286602799
0.20531823 -0.18604648 0.85100001 4286602801
0.20582865 -0.18517201 0.84700006 4286734387
0.20681462 -0.18473476 0.84500003 4286603823
0.20779362 -0.18429753 0.84300005 4286538030
0.20851742 -0.18364166 0.84000003 4286603823
0.20948075 -0.18320443 0.83800006 4286800945
0.21094055 -0.18320443 0.83800006 4286866740
0.21189341 -0.18276718 0.83600003 4286866740
0.21283934 -0.18232994 0.83400005 4286736188
0.21429215 -0.18232994 0.83400005 4286736188
0.21574499 -0.18232994 0.83400005 4286473783
0.21667695 -0.18189268 0.83200002 4286473783
0.2181263 -0.18189268 0.83200002 4286276670
0.21957564 -0.18189268 0.83200002 4286276670
0.22049367 -0.18145546 0.83000004 4286341178
0.22193953 -0.18145546 0.83000004 4286275385
0.22284712 -0.18101822 0.82800007 4286145071
0.22428951 -0.18101822 0.82800007 4286145071
0.22573188 -0.18101822 0.82800007 4286275385
0.22772297 -0.18145546 0.83000004 4286275385
0.22916883 -0.18145546 0.83000004 4286997047
0.23061471 -0.18145546 0.83000004 4287523391
0.23206057 -0.18145546 0.83000004 4287130680
0.23350643 -0.18145546 0.83000004 4286735922
0.23495227 -0.18145546 0.83000004 4286145580
0.23639813 -0.18145546 0.83000004 4285619236
0.23784399 -0.18145546 0.83000004 4285946640
0.23928985 -0.18145546 0.83000004 4286999585
0.24073572 -0.18145546 0.83000004 4287327030
0.24218158 -0.18145546 0.83000004 4287458359
0.24362744 -0.18145546 0.83000004 4287523651
0.24566382 -0.18189268 0.83200002 4287326528
0.2477072 -0.18232994 0.83400005 4287326510
0.24975754 -0.18276718 0.83600003 4287589938
0.25181484 -0.18320443 0.83800006 4287655241
0.25327462 -0.18320443 0.83800006 4287721034
0.25473443 -0.18320443 0.83800006 4287523651
0.25619423 -0.18320443 0.83800006 4285286945
0.25765404 -0.18320443 0.83800006 4284039438
0.25911382 -0.18320443 0.83800006 4278845440
0.19641401 -0.18738347 0.86400002 4287129385
0.19746095 -0.18694973 0.86200005 4286734628
0.19896255 -0.18694973 0.86200005 4286405928
0.19976649 -0.18629909 0.85900003 4286340135
0.20126286 -0.18629909 0.85900003 4286406189
0.20228715 -0.18586533 0.85700005 4286340396
0.20330448 -0.18543155 0.85500002 4286405676
0.20431484 -0.18499781 0.85300004 4286537005
0.20531823 -0.18456404 0.85100001 4286405687
0.20582865 -0.18369654 0.84700006 4286471481
0.20681462 -0.18326278 0.84500003 4286930987
0.20779362 -0.18282902 0.84300005 4287128365
0.20926213 -0.18282902 0.84300005 4287261235
0.20998071 -0.18217838 0.84000003 4287984957
0.21144398 -0.18217838 0.84000003 4287854641
0.21240035 -0.18174464 0.83800006 4287854641
0.21334973 -0.18131086 0.83600003 4287394622
0.21429215 -0.1808771 0.83400005 4287328829
0.21574499 -0.1808771 0.83400005 4287130680
0.21719781 -0.1808771 0.83400005 4287196473
0.2181263 -0.18044333 0.83200002 4286933049
0.21957564 -0.18044333 0.83200002 4286669877
0.22102498 -0.18044333 0.83200002 4286866490
0.22247432 -0.18044333 0.83200002 4286800697
0.22338538 -0.18000959 0.83000004 4286473000
0.22483125 -0.18000959 0.83000004 4286473000
0.22627711 -0.18000959 0.83000004 4286406705
0.22827171 -0.18044333 0.83200002 4286406705
0.22972105 -0.18044333 0.83200002 4286798651
0.2311704 -0.18044333 0.83200002 4286798651
0.23261972 -0.18044333 0.83200002 4286733092
0.23406906 -0.18044333 0.83200002 4286864934
0.23551841 -0.18044333 0.83200002 4286275887
0.23696776 -0.18044333 0.83200002 4286275887
0.2384171 -0.18044333 0.83200002 4286604086
0.23986645 -0.18044333 0.83200002 4286998844
0.2413158 -0.18044333 0.83200002 4287392303
0.24276514 -0.18044333 0.83200002 4287392303
0.24421448 -0.18044333 0.83200002 4287130680
0.24625437 -0.1808771 0.83400005 4287130680
0.24830122 -0.18131086 0.83600003 4287654707
0.25035504 -0.18174464 0.83800006 4288247101
0.25181484 -0.18174464 0.83800006 4287786325
0.25327462 -0.18174464 0.83800006 4286865223
0.25473443 -0.18174464 0.83800006 4286667310
0.25619423 -0.18174464 0.83800006 4284167433
0.25765404 -0.18174464 0.83800006 4283644160
0.25973222 -0.18217838 0.84000003 4279500800
0.19641401 -0.18587838 0.86400002 4287064887
0.19746095 -0.18544813 0.86200005 4286406701
0.19896255 -0.18544813 0.86200005 4286340646
0.19976649 -0.1848027 0.85900003 4286274853
0.20126286 -0.1848027 0.85900003 4286340396
0.20228715 -0.18437244 0.85700005 4286406189
0.20330448 -0.18394214 0.85500002 4286537005
0.20479389 -0.18394214 0.85500002 4286405676
0.20531823 -0.1830816 0.85100001 4286405676
0.20631467 -0.18265133 0.84900004 4286734641
0.20681462 -0.18179078 0.84500003 4286997036
0.20828661 -0.18179078 0.84500003 4287325745
0.20926213 -0.18136051 0.84300005 4287653696
0.21073063 -0.18136051 0.84300005 4288574542
0.21144398 -0.1807151 0.84000003 4288577108
0.21290725 -0.1807151 0.84000003 4287787592
0.21386014 -0.18028483 0.83800006 4287523669
0.21480604 -0.17985454 0.83600003 4287260496
0.21626236 -0.17985454 0.83600003 4287062087
0.21771866 -0.17985454 0.83600003 4286996293
0.21865064 -0.17942429 0.83400005 4286864451
0.22010347 -0.17942429 0.83400005 4286996293
0.22155629 -0.17942429 0.83400005 4287588685
