# .PCD v0.7 - Point Cloud Data file format
VERSION 0.7
FIELDS x y z rgba
SIZE 4 4 4 4
TYPE F F F U
COUNT 1 1 1 1
WIDTH 1082
HEIGHT 1
VIEWPOINT 0 0 0 1 0 0 0
POINTS 1082
DATA ascii
0.22235326 0.057859663 0.54900002 4288773484
0.22290286 0.057754278 0.54800004 4288444519
0.22385749 0.057754278 0.54800004 4288248684
0.22481211 0.057754278 0.54800004 4288314477
0.22535473 0.057648886 0.54700005 4288249459
0.2263076 0.057648886 0.54700005 4287920237
0.2272605 0.057648886 0.54700005 4288115822
0.22821337 0.057648886 0.54700005 4288905081
0.22916624 0.057648886 0.54700005 4288840562
0.23011911 0.057648886 0.54700005 4289037685
0.23107196 0.057648886 0.54700005 4288710006
0.23202486 0.057648886 0.54700005 4288578419
0.23297773 0.057648886 0.54700005 4288184960
0.23478593 0.057859663 0.54900002 4287790202
0.23574227 0.057859663 0.54900002 4287724409
0.23669863 0.057859663 0.54900002 4287724409
0.237655 0.057859663 0.54900002 4287789682
0.23861136 0.057859663 0.54900002 4287855475
0.24000408 0.057965055 0.55000001 4287790202
0.24096216 0.057965055 0.55000001 4287592567
0.24192026 0.057965055 0.55000001 4287527526
0.24420317 0.058281228 0.55300003 4286606424
0.24560983 0.05838662 0.55400002 4286802272
0.24701998 0.058492009 0.55500001 4286341721
0.24798678 0.058492009 0.55500001 4286210403
0.19214176 0.062030021 0.57900006 4287785542
0.19315037 0.062030021 0.57900006 4287917384
0.19382364 0.061922878 0.57800001 4288048452
0.19449346 0.061815746 0.57700002 4287916610
0.19549857 0.061815746 0.57700002 4288178242
0.19548203 0.061494343 0.574 4288178242
0.19648193 0.061494343 0.574 4287715405
0.19559178 0.059994482 0.56 4286858048
0.1965673 0.059994482 0.56 4287515721
0.19754282 0.059994482 0.56 4287320896
0.19851834 0.059994482 0.56 4287320896
0.19949386 0.059994482 0.56 4287190854
0.20046937 0.059994482 0.56 4287190854
0.20144489 0.059994482 0.56 4287190854
0.20169748 0.059780221 0.55800003 4287125061
0.20266952 0.059780221 0.55800003 4287125063
0.20327662 0.059673086 0.55700004 4287059270
0.20424692 0.059673086 0.55700004 4287189320
0.20484878 0.059565958 0.55600005 4287057991
0.20581733 0.059565958 0.55600005 4287255114
0.20641395 0.059458818 0.55500001 4287189320
0.20738076 0.059458818 0.55500001 4287386191
0.20797217 0.05935169 0.55400002 4287714899
0.20856011 0.059244558 0.55300003 4287781712
0.20952342 0.059244558 0.55300003 4287847505
0.21048675 0.059244558 0.55300003 4287848788
0.21145009 0.059244558 0.55300003 4288177753
0.21202931 0.059137423 0.55200005 4288047194
0.21299089 0.059137423 0.55200005 4288113243
0.21356486 0.059030291 0.551 4288245343
0.2145247 0.059030291 0.551 4288376929
0.21548454 0.059030291 0.551 4288509533
0.21644439 0.059030291 0.551 4288575326
0.21700968 0.058923155 0.55000001 4288707161
0.21796776 0.058923155 0.55000001 4288772954
0.21892586 0.058923155 0.55000001 4288707429
0.21948418 0.058816019 0.54900002 4288773222
0.22044054 0.058816019 0.54900002 4288773484
0.22139691 0.058816019 0.54900002 4288773484
0.22235326 0.058816019 0.54900002 4288707942
0.22290286 0.058708895 0.54800004 4288181598
0.22344899 0.058601759 0.54700005 4288445036
0.22440186 0.058601759 0.54700005 4288773745
0.22535473 0.058601759 0.54700005 4288708474
0.2263076 0.058601759 0.54700005 4288576632
0.2272605 0.058601759 0.54700005 4288511091
0.22821337 0.058601759 0.54700005 4288774519
0.22916624 0.058601759 0.54700005 4288840562
0.23011911 0.058601759 0.54700005 4288971892
0.23107196 0.058601759 0.54700005 4288841589
0.23202486 0.058601759 0.54700005 4288841589
0.23382954 0.058816019 0.54900002 4288710523
0.23478593 0.058816019 0.54900002 4288183923
0.23574227 0.058816019 0.54900002 4287987063
0.23669863 0.058816019 0.54900002 4287855477
0.237655 0.058816019 0.54900002 4287789682
0.23861136 0.058816019 0.54900002 4287855475
0.24000408 0.058923155 0.55000001 4287789950
0.24096216 0.058923155 0.55000001 4287526522
0.24192026 0.058923155 0.55000001 4287592289
0.24420317 0.059244558 0.55300003 4286736980
0.24560983 0.05935169 0.55400002 4286670683
0.24701998 0.059458818 0.55500001 4286210132
0.24798678 0.059458818 0.55500001 4285815906
0.2489536 0.059458818 0.55500001 4285684320
0.19033007 0.064127386 0.58900005 4289165357
0.19070634 0.063909627 0.58700001 4288509001
0.19140227 0.063800752 0.58600003 4288443208
0.19212346 0.063365251 0.58200002 4287457596
0.19214176 0.063038632 0.57900006 4287588931
0.19315037 0.063038632 0.57900006 4287852102
0.19382364 0.062929757 0.57800001 4287982659
0.19449346 0.062820882 0.57700002 4287916610
0.19482096 0.062603138 0.57500005 4288243263
0.19548203 0.062494256 0.574 4288440898
0.19648193 0.062494256 0.574 4288637257
0.19748184 0.062494256 0.574 4287584569
0.19565885 0.061296631 0.56300002 4287055172
0.1966396 0.061296631 0.56300002 4286792505
0.19762033 0.061296631 0.56300002 4287647814
0.19789559 0.061078884 0.56100005 4287453262
0.19887285 0.061078884 0.56100005 4287255884
0.19985011 0.061078884 0.56100005 4287059270
0.20082736 0.061078884 0.56100005 4287059270
0.20144489 0.060970005 0.56 4287125063
0.20169748 0.060752254 0.55800003 4286927684
0.20266952 0.060752254 0.55800003 4287058243
0.20327662 0.060643386 0.55700004 4286992194
0.20424692 0.060643386 0.55700004 4287123266
0.20484878 0.060534511 0.55600005 4287123266
0.20544714 0.060425628 0.55500001 4287188807
0.20641395 0.060425628 0.55500001 4287188807
0.20738076 0.060425628 0.55500001 4287320394
0.20797217 0.060316753 0.55400002 4287517772
0.20893724 0.060316753 0.55400002 4287715915
0.20952342 0.060207885 0.55300003 4287715915
0.21048675 0.060207885 0.55300003 4287783247
0.21145009 0.060207885 0.55300003 4288046163
0.21202931 0.060099009 0.55200005 4287915608
0.21299089 0.060099009 0.55200005 4288113243
0.21356486 0.05999013 0.551 4288179037
0.2145247 0.05999013 0.551 4288376159
0.21548454 0.05999013 0.551 4288377183
0.21644439 0.05999013 0.551 4288771685
0.21700968 0.059881255 0.55000001 4288444773
0.21796776 0.059881255 0.55000001 4288444773
0.21892586 0.059881255 0.55000001 4288641382
0.21948418 0.05977238 0.54900002 4288773224
0.22044054 0.05977238 0.54900002 4288641897
0.22139691 0.05977238 0.54900002 4288773484
0.22235326 0.05977238 0.54900002 4288839790
0.22290286 0.059663512 0.54800004 4288379239
0.22344899 0.059554636 0.54700005 4288575850
0.22440186 0.059554636 0.54700005 4288773486
0.22535473 0.059554636 0.54700005 4288576371
0.2263076 0.059554636 0.54700005 4288576371
0.2272605 0.059554636 0.54700005 4288642931
0.22821337 0.059554636 0.54700005 4288840310
0.22916624 0.059554636 0.54700005 4288578419
0.23011911 0.059554636 0.54700005 4288644212
0.23107196 0.059554636 0.54700005 4288578932
0.23202486 0.059554636 0.54700005 4288644726
0.23340364 0.059663512 0.54800004 4288710784
0.23478593 0.05977238 0.54900002 4288053111
0.23574227 0.05977238 0.54900002 4287921522
0.23669863 0.05977238 0.54900002 4287789680
0.237655 0.05977238 0.54900002 4287592560
0.23904598 0.059881255 0.55000001 4287526510
0.24000408 0.059881255 0.55000001 4287526776
0.24140027 0.05999013 0.551 4287526776
0.24236013 0.05999013 0.551 4287067747
0.24420317 0.060207885 0.55300003 4286409816
0.24560983 0.060316753 0.55400002 4286539356
0.24701998 0.060425628 0.55500001 4286078805
0.24798678 0.060425628 0.55500001 4285816412
0.2489536 0.060425628 0.55500001 4285684570
0.18930404 0.065153427 0.58900005 4288441913
0.19033007 0.065153427 0.58900005 4289034050
0.19070634 0.06493219 0.58700001 4288640839
0.19140227 0.064821571 0.58600003 4288509253
0.19143797 0.064489715 0.583 4288048965
0.19212346 0.064379096 0.58200002 4287325243
0.1931373 0.064379096 0.58200002 4287719739
0.19315037 0.064047255 0.57900006 4287982655
0.19382364 0.063936628 0.57800001 4287916610
0.19449346 0.06382601 0.57700002 4287916610
0.19482096 0.063604787 0.57500005 4288309571
0.19548203 0.063494161 0.574 4288507206
0.19545504 0.063162319 0.57100004 4288572477
0.19644971 0.063162319 0.57100004 4288111926
0.19675282 0.062941074 0.56900001 4287517520
0.19704898 0.062719844 0.56700003 4286728004
0.1966396 0.062277373 0.56300002 4286990413
0.19762033 0.062277373 0.56300002 4287648343
0.19824834 0.062166765 0.56200004 4287518803
0.19887285 0.06205615 0.56100005 4287189839
0.19985011 0.06205615 0.56100005 4287059266
0.20082736 0.06205615 0.56100005 4286927936
0.20144489 0.061945528 0.56 4286992959
0.20169748 0.061724294 0.55800003 4286992959
0.20266952 0.061724294 0.55800003 4286992700
0.20327662 0.061613679 0.55700004 4286926651
0.20424692 0.061613679 0.55700004 4287123266
0.20484878 0.061503064 0.55600005 4287123266
0.20544714 0.061392438 0.55500001 4287058243
0.20641395 0.061392438 0.55500001 4287189572
0.20738076 0.061392438 0.55500001 4287255366
0.20797217 0.061281823 0.55400002 4287255366
0.20893724 0.061281823 0.55400002 4287453510
0.20952342 0.061171208 0.55300003 4287519303
0.21048675 0.061171208 0.55300003 4287520589
0.21145009 0.061171208 0.55300003 4287915347
0.21202931 0.061060593 0.55200005 4287915860
0.21299089 0.061060593 0.55200005 4287784531
0.21395247 0.061060593 0.55200005 4287915356
0.21491405 0.061060593 0.55200005 4287981149
0.21548454 0.06094997 0.551 4288114777
0.21605156 0.060839351 0.55000001 4288114777
0.21700968 0.060839351 0.55000001 4288114527
0.21796776 0.060839351 0.55000001 4288048734
0.21852782 0.060728736 0.54900002 4288444255
0.21948418 0.060728736 0.54900002 4288641634
0.22044054 0.060728736 0.54900002 4288641636
0.22139691 0.060728736 0.54900002 4288641636
0.22194825 0.060618129 0.54800004 4288641895
0.22290286 0.060618129 0.54800004 4288641895
0.22344899 0.06050751 0.54700005 4288575850
0.22440186 0.06050751 0.54700005 4288575850
0.22535473 0.06050751 0.54700005 4288510829
0.2263076 0.06050751 0.54700005 4288510829
0.2272605 0.06050751 0.54700005 4288642668
0.22821337 0.06050751 0.54700005 4288642668
0.22916624 0.06050751 0.54700005 4288708974
0.23011911 0.06050751 0.54700005 4288774767
0.23107196 0.06050751 0.54700005 4288578421
0.23202486 0.06050751 0.54700005 4288644214
0.23340364 0.060618129 0.54800004 4288513139
0.23478593 0.060728736 0.54900002 4288249968
0.23574227 0.060728736 0.54900002 4288250222
0.23669863 0.060728736 0.54900002 4287921257
0.237655 0.060728736 0.54900002 4287855979
0.23904598 0.060839351 0.55000001 4287592808
0.24000408 0.060839351 0.55000001 4287461482
0.24140027 0.06094997 0.551 4287264360
0.24279998 0.061060593 0.55200005 4287132255
0.24420317 0.061171208 0.55300003 4286211409
0.24560983 0.061281823 0.55400002 4286472287
0.24701998 0.061392438 0.55500001 4286275164
0.24798678 0.061392438 0.55500001 4285947226
0.2489536 0.061392438 0.55500001 4285947226
0.2499204 0.061392438 0.55500001 4285816925
0.18827799 0.066179454 0.58900005 4289226253
0.18930404 0.066179454 0.58900005 4288639558
0.19033007 0.066179454 0.58900005 4288968266
0.19103122 0.066067092 0.588 4288509512
0.19205551 0.066067092 0.588 4288115010
0.19275145 0.065954737 0.58700001 4287785029
0.19344389 0.065842383 0.58600003 4287653442
0.1944647 0.065842383 0.58600003 4287850557
0.19315037 0.065055877 0.57900006 4287982144
0.19348831 0.064831153 0.57700002 4287916351
0.19415638 0.06471879 0.57600003 4287982144
0.19448212 0.064494066 0.574 4288047687
0.19514146 0.064381711 0.57300001 4288047687
0.19545504 0.064156994 0.57100004 4288376902
0.19644971 0.064156994 0.57100004 4288047937
0.19606125 0.06370756 0.56700003 4287520087
0.1963539 0.063482843 0.565 4286862156
0.19733813 0.063482843 0.565 4286991165
0.19797134 0.063370481 0.56400001 4287517509
0.19824834 0.063145764 0.56200004 4287322190
0.19887285 0.063033409 0.56100005 4287059018
0.19985011 0.063033409 0.56100005 4286927688
0.20082736 0.063033409 0.56100005 4286795846
0.20144489 0.06292104 0.56 4286926914
0.20169748 0.06269633 0.55800003 4286926914
0.20266952 0.06269633 0.55800003 4286926651
0.20327662 0.062583968 0.55700004 4286860858
0.20424692 0.062583968 0.55700004 4286991678
0.20484878 0.062471613 0.55600005 4286991678
0.20581733 0.062471613 0.55600005 4286795333
0.20641395 0.062359251 0.55500001 4286729540
0.20738076 0.062359251 0.55500001 4286729794
0.20834757 0.062359251 0.55500001 4286926916
0.20893724 0.062246893 0.55400002 4287255364
0.2099023 0.062246893 0.55400002 4287518792
0.21048675 0.062134534 0.55300003 4287192141
0.21145009 0.062134534 0.55300003 4287718486
0.21202931 0.062022179 0.55200005 4287785051
0.21299089 0.062022179 0.55200005 4287587929
0.21395247 0.062022179 0.55200005 4287718749
0.21491405 0.062022179 0.55200005 4287916128
0.21548454 0.061909813 0.551 4287851869
0.21605156 0.061797459 0.55000001 4287983198
0.21700968 0.061797459 0.55000001 4288048734
0.21796776 0.061797459 0.55000001 4288114527
0.21852782 0.0616851 0.54900002 4288377183
0.21948418 0.0616851 0.54900002 4288705892
0.22044054 0.0616851 0.54900002 4288509796
0.22099362 0.061572738 0.54800004 4288509796
0.22194825 0.061572738 0.54800004 4288444003
0.22290286 0.061572738 0.54800004 4288641382
0.22344899 0.06146038 0.54700005 4288510827
0.22440186 0.06146038 0.54700005 4288445034
0.22535473 0.06146038 0.54700005 4288510577
0.2263076 0.06146038 0.54700005 4288444784
0.2272605 0.06146038 0.54700005 4288445034
0.22821337 0.06146038 0.54700005 4288576621
0.22916624 0.06146038 0.54700005 4288576621
0.23011911 0.06146038 0.54700005 4288905585
0.23107196 0.06146038 0.54700005 4288643960
0.23202486 0.06146038 0.54700005 4288578167
0.23340364 0.061572738 0.54800004 4288381558
0.23478593 0.0616851 0.54900002 4288315765
0.23574227 0.0616851 0.54900002 4288381556
0.23669863 0.0616851 0.54900002 4287921005
0.237655 0.0616851 0.54900002 4287789680
0.23861136 0.0616851 0.54900002 4287526764
0.24000408 0.061797459 0.55000001 4287329901
0.24140027 0.061909813 0.551 4287264108
0.24279998 0.062022179 0.55200005 4286868828
0.24420317 0.062134534 0.55300003 4286211155
0.24560983 0.062246893 0.55400002 4286340958
0.24701998 0.062359251 0.55500001 4286275164
0.24753995 0.062246893 0.55400002 4286210134
0.24850503 0.062246893 0.55400002 4286275927
0.2494701 0.062246893 0.55400002 4285947998
0.18859765 0.067319594 0.59000003 4289098282
0.18962543 0.067319594 0.59000003 4288508236
0.19033007 0.067205496 0.58900005 4288705614
0.19103122 0.06709139 0.588 4288640573
0.19205551 0.06709139 0.588 4287785264
0.19275145 0.066977292 0.58700001 4287719237
0.19344389 0.066863194 0.58600003 4287785031
0.1944647 0.066863194 0.58600003 4287916614
0.19315037 0.066064492 0.57900006 4287916614
0.19348831 0.065836288 0.57700002 4287916614
0.19415638 0.065722182 0.57600003 4287916614
0.19448212 0.065493979 0.574 4288047687
0.19514146 0.06537988 0.57300001 4288047687
0.19579734 0.065265782 0.57200003 4288245063
0.19644971 0.065151677 0.57100004 4288508236
0.19606125 0.064695269 0.56700003 4288309851
0.1963539 0.064467065 0.565 4287322955
0.19733813 0.064467065 0.565 4286991926
0.19797134 0.064352967 0.56400001 4286860597
0.1986011 0.064238869 0.56300002 4286927434
0.19887285 0.064010672 0.56100005 4286927434
0.19985011 0.064010672 0.56100005 4286861639
0.20082736 0.064010672 0.56100005 4286795846
0.20144489 0.063896567 0.56 4286729794
0.20205894 0.063782468 0.55900002 4286795587
0.20230632 0.063554265 0.55700004 4286729790
0.20327662 0.063554265 0.55700004 4286729790
0.20388022 0.063440166 0.55600005 4286663745
0.20484878 0.063440166 0.55600005 4286663745
0.20581733 0.063440166 0.55600005 4286663749
0.20641395 0.063326061 0.55500001 4286663749
0.20738076 0.063326061 0.55500001 4286598201
0.20834757 0.063326061 0.55500001 4286598201
0.20893724 0.063211963 0.55400002 4287058239
0.2099023 0.063211963 0.55400002 4287058239
0.21048675 0.063097857 0.55300003 4287125063
0.21145009 0.063097857 0.55300003 4287256649
0.21241342 0.063097857 0.55300003 4287191887
0.21299089 0.062983759 0.55200005 4287191887
0.21395247 0.062983759 0.55200005 4287257681
0.2145247 0.062869653 0.551 4287323730
0.21548454 0.062869653 0.551 4287520602
0.21605156 0.062755555 0.55000001 4287783775
0.21700968 0.062755555 0.55000001 4287850585
0.21757147 0.062641457 0.54900002 4287784792
0.21852782 0.062641457 0.54900002 4288048732
0.21948418 0.062641457 0.54900002 4288114525
0.22044054 0.062641457 0.54900002 4288245854
0.22099362 0.062527351 0.54800004 4288377696
0.22194825 0.062527351 0.54800004 4288444255
0.22249611 0.062413257 0.54700005 4288510048
0.22344899 0.062413257 0.54700005 4288312168
0.22440186 0.062413257 0.54700005 4288114788
0.22535473 0.062413257 0.54700005 4288180844
0.2263076 0.062413257 0.54700005 4288180844
0.2272605 0.062413257 0.54700005 4288444773
0.22821337 0.062413257 0.54700005 4288641895
0.22916624 0.062413257 0.54700005 4288445036
0.23011911 0.062413257 0.54700005 4288379243
0.23107196 0.062413257 0.54700005 4288117618
0.23202486 0.062413257 0.54700005 4288117618
0.23340364 0.062527351 0.54800004 4288052336
0.23435827 0.062527351 0.54800004 4288052336
0.23574227 0.062641457 0.54900002 4288052588
0.23669863 0.062641457 0.54900002 4287789417
0.237655 0.062641457 0.54900002 4287592810
0.23861136 0.062641457 0.54900002 4287395174
0.24000408 0.062755555 0.55000001 4287264360
0.24140027 0.062869653 0.551 4287264360
0.24236013 0.062869653 0.551 4287066461
0.24420317 0.063097857 0.55300003 4286211409
0.2451665 0.063097857 0.55300003 4286341207
0.24657491 0.063211963 0.55400002 4286275414
0.24753995 0.063211963 0.55400002 4286078805
0.24850503 0.063211963 0.55400002 4286210134
0.2494701 0.063211963 0.55400002 4285619295
0.18962543 0.068347372 0.59000003 4288378183
0.19065322 0.068347372 0.59000003 4288509512
0.19135612 0.068231538 0.58900005 4288640319
0.19205551 0.068115689 0.588 4287851059
0.1930798 0.068115689 0.588 4287784762
0.193774 0.067999847 0.58700001 4287850555
0.19479655 0.067999847 0.58700001 4287785283
0.19348396 0.067188948 0.58000004 4287785283
0.19382364 0.066957258 0.57800001 4287785283
0.19415638 0.066725574 0.57600003 4287785283
0.19448212 0.066493891 0.574 4288046917
0.19480091 0.0662622 0.57200003 4287915587
0.19545504 0.066146366 0.57100004 4288112962
0.19610569 0.066030517 0.57000005 4288507720
0.19709863 0.066030517 0.57000005 4288311134
0.1963539 0.065451294 0.565 4287126859
0.19733813 0.065451294 0.565 4287387967
0.19797134 0.06533546 0.56400001 4287190845
0.19824834 0.065103769 0.56200004 4286927434
0.19887285 0.064987935 0.56100005 4286861641
0.19985011 0.064987935 0.56100005 4286927688
0.20082736 0.064987935 0.56100005 4286795846
0.20144489 0.064872086 0.56 4286665030
0.20205894 0.064756244 0.55900002 4286599237
0.20230632 0.064524561 0.55700004 4286729794
0.20327662 0.064524561 0.55700004 4286597951
0.20388022 0.06440872 0.55600005 4286597951
0.20484878 0.06440872 0.55600005 4286597951
0.20581733 0.06440872 0.55600005 4286663745
0.20641395 0.06429287 0.55500001 4286597951
0.20738076 0.06429287 0.55500001 4286728760
0.20834757 0.06429287 0.55500001 4286728760
0.20893724 0.064177029 0.55400002 4286991678
0.2099023 0.064177029 0.55400002 4286860349
0.21086738 0.064177029 0.55400002 4286926405
0.21145009 0.064061187 0.55300003 4287189320
0.21241342 0.064061187 0.55300003 4287255884
0.21299089 0.063945346 0.55200005 4287255884
0.21356486 0.063829497 0.551 4287584849
0.2145247 0.063829497 0.551 4287584849
0.21509348 0.063713655 0.55000001 4287520339
0.21605156 0.063713655 0.55000001 4287783254
0.21700968 0.063713655 0.55000001 4287784792
0.21757147 0.063597813 0.54900002 4287784792
0.21852782 0.063597813 0.54900002 4287916378
0.21948418 0.063597813 0.54900002 4288245343
0.22044054 0.063597813 0.54900002 4288115038
0.22099362 0.063481972 0.54800004 4288312674
0.22194825 0.063481972 0.54800004 4288182117
0.22249611 0.06336613 0.54700005 4288116324
0.22344899 0.06336613 0.54700005 4288050278
0.22440186 0.06336613 0.54700005 4287918692
0.22535473 0.06336613 0.54700005 4288114788
0.2263076 0.06336613 0.54700005 4288180581
0.2272605 0.06336613 0.54700005 4288312168
0.22821337 0.06336613 0.54700005 4288443753
0.22916624 0.06336613 0.54700005 4288313194
0.23011911 0.06336613 0.54700005 4288313194
0.23107196 0.06336613 0.54700005 4288117616
0.23202486 0.06336613 0.54700005 4288117616
0.23340364 0.063481972 0.54800004 4288052336
0.23435827 0.063481972 0.54800004 4288052336
0.23574227 0.063597813 0.54900002 4287855212
0.23669863 0.063597813 0.54900002 4287723626
0.237655 0.063597813 0.54900002 4287657065
0.23904598 0.063713655 0.55000001 4287591272
0.24000408 0.063713655 0.55000001 4287197798
0.24140027 0.063829497 0.551 4287395176
0.24236013 0.063829497 0.551 4287198311
0.24376157 0.063945346 0.55200005 4286211416
0.2451665 0.064061187 0.55300003 4286145111
0.24657491 0.064177029 0.55400002 4285750354
0.24753995 0.064177029 0.55400002 4285880920
0.24850503 0.064177029 0.55400002 4285815127
0.2494701 0.064177029 0.55400002 4285356622
0.18962543 0.069375157 0.59000003 4288509512
0.19065322 0.069375157 0.59000003 4288509512
0.19168098 0.069375157 0.59000003 4288378169
0.19238216 0.069257572 0.58900005 4287588653
0.19176635 0.068669647 0.58400005 4287719219
0.19278368 0.068669647 0.58400005 4287850805
0.19346915 0.068552062 0.583 4287785283
0.19448473 0.068552062 0.583 4287785283
0.19382364 0.067964137 0.57800001 4287916614
0.19381931 0.067611389 0.57500005 4287982407
0.1941433 0.067376211 0.57300001 4287916351
0.19480091 0.067258626 0.57200003 4287916351
0.19545504 0.067141049 0.57100004 4288112962
0.19610569 0.067023456 0.57000005 4288112962
0.19709863 0.067023456 0.57000005 4288112710
0.19704898 0.066670701 0.56700003 4287849538
0.19733813 0.066435531 0.565 4287520589
0.19797134 0.066317946 0.56400001 4287454796
0.19824834 0.066082776 0.56200004 4287192137
0.19887285 0.065965198 0.56100005 4286797636
0.19985011 0.065965198 0.56100005 4286993995
0.20082736 0.065965198 0.56100005 4286862152
0.20144489 0.065847605 0.56 4286927688
0.20205894 0.06573002 0.55900002 4286730053
0.20230632 0.065494858 0.55700004 4286663749
0.20327662 0.065494858 0.55700004 4286663749
0.20388022 0.065377265 0.55600005 4286794553
0.20484878 0.065377265 0.55600005 4286794553
0.20581733 0.065377265 0.55600005 4286597951
0.20641395 0.06525968 0.55500001 4286663745
0.20738076 0.06525968 0.55500001 4286729790
0.20834757 0.06525968 0.55500001 4286729790
0.20893724 0.065142095 0.55400002 4286795583
0.2099023 0.065142095 0.55400002 4286729790
0.21086738 0.065142095 0.55400002 4286926151
0.21145009 0.065024517 0.55300003 4286860358
0.21241342 0.065024517 0.55300003 4286927688
0.21299089 0.064906925 0.55200005 4286927688
0.21356486 0.06478934 0.551 4287059018
0.2145247 0.06478934 0.551 4287190604
0.21509348 0.064671755 0.55000001 4287323209
0.21605156 0.064671755 0.55000001 4287389003
0.21700968 0.064671755 0.55000001 4287323728
0.21757147 0.064554177 0.54900002 4287455057
0.21852782 0.064554177 0.54900002 4287586645
0.21948418 0.064554177 0.54900002 4287784281
0.22044054 0.064554177 0.54900002 4287785305
0.22139691 0.064554177 0.54900002 4287653976
0.22194825 0.064436585 0.54800004 4287852123
0.22290286 0.064436585 0.54800004 4287852123
0.22344899 0.064319007 0.54700005 4287852132
0.22440186 0.064319007 0.54700005 4287983718
0.22535473 0.064319007 0.54700005 4287983968
0.2263076 0.064319007 0.54700005 4287983968
0.2272605 0.064319007 0.54700005 4288115301
0.22821337 0.064319007 0.54700005 4288115301
0.22916624 0.064319007 0.54700005 4287919976
0.23011911 0.064319007 0.54700005 4287919976
0.23107196 0.064319007 0.54700005 4287985769
0.23202486 0.064319007 0.54700005 4288051562
0.23340364 0.064436585 0.54800004 4287855466
0.23435827 0.064436585 0.54800004 4287789417
0.23574227 0.064554177 0.54900002 4287789156
0.23669863 0.064554177 0.54900002 4287525983
0.237655 0.064554177 0.54900002 4287591785
0.23904598 0.064671755 0.55000001 4287723372
0.24000408 0.064671755 0.55000001 4287396710
0.24140027 0.06478934 0.551 4287001952
0.24236013 0.06478934 0.551 4287132507
0.24376157 0.064906925 0.55200005 4286145611
0.2451665 0.065024517 0.55300003 4286079318
0.24657491 0.065142095 0.55400002 4285750354
0.24753995 0.065142095 0.55400002 4285618261
0.24850503 0.065142095 0.55400002 4285223760
0.2494701 0.065142095 0.55400002 4284699964
0.18994683 0.070522264 0.59100002 4288509512
0.19097635 0.070522264 0.59100002 4288312390
0.19168098 0.070402935 0.59000003 4288049985
0.19270878 0.070402935 0.59000003 4287392055
0.19176635 0.069686972 0.58400005 4287653942
0.19245356 0.069567651 0.583 4287719991
0.19346915 0.069567651 0.583 4287719999
0.19415115 0.069448322 0.58200002 4287719999
0.19315298 0.068732359 0.57600003 4287785029
0.19381931 0.068613037 0.57500005 4287982407
0.1941433 0.068374373 0.57300001 4287982407
0.19446036 0.068135723 0.57100004 4287916614
0.19545504 0.068135723 0.57100004 4288046917
0.19610569 0.068016395 0.57000005 4288046917
0.19709863 0.068016395 0.57000005 4287784010
0.19704898 0.067658417 0.56700003 4287784010
0.19733813 0.06741976 0.565 4287653707
0.19797134 0.067300431 0.56400001 4287653707
0.1986011 0.06718111 0.56300002 4287390799
0.19887285 0.066942461 0.56100005 4286667077
0.19985011 0.066942461 0.56100005 4286927948
0.20082736 0.066942461 0.56100005 4286796361
0.20144489 0.066823125 0.56 4286862154
0.20205894 0.066703796 0.55900002 4286401603
0.20230632 0.066465147 0.55700004 4286728508
0.20291167 0.066345818 0.55600005 4286728508
0.20388022 0.066345818 0.55600005 4286728508
0.20484878 0.066345818 0.55600005 4286728508
0.20581733 0.066345818 0.55600005 4286597692
0.20641395 0.06622649 0.55500001 4286729021
0.20738076 0.06622649 0.55500001 4286729794
0.20834757 0.06622649 0.55500001 4286729794
0.20893724 0.066107161 0.55400002 4286729790
0.2099023 0.066107161 0.55400002 4286729790
0.21086738 0.066107161 0.55400002 4286729542
0.21183245 0.066107161 0.55400002 4286729542
0.21241342 0.065987833 0.55300003 4286926151
0.21299089 0.065868512 0.55200005 4286926151
0.21356486 0.065749183 0.551 4286926662
0.2145247 0.065749183 0.551 4287124298
0.21509348 0.065629855 0.55000001 4287322190
0.21605156 0.065629855 0.55000001 4287322190
0.21700968 0.065629855 0.55000001 4287191887
0.21796776 0.065629855 0.55000001 4287257681
0.21852782 0.065510534 0.54900002 4287455059
0.21948418 0.065510534 0.54900002 4287652438
0.22044054 0.065510534 0.54900002 4287587929
0.22139691 0.065510534 0.54900002 4287587929
0.22235326 0.065510534 0.54900002 4287851098
0.22290286 0.065391205 0.54800004 4287851098
0.22385749 0.065391205 0.54800004 4287786589
0.22440186 0.065271884 0.54700005 4287786589
0.22535473 0.065271884 0.54700005 4287918175
0.2263076 0.065271884 0.54700005 4287852382
0.2272605 0.065271884 0.54700005 4287591009
0.22821337 0.065271884 0.54700005 4287722594
0.22916624 0.065271884 0.54700005 4287788135
0.23011911 0.065271884 0.54700005 4287722342
0.23107196 0.065271884 0.54700005 4287722342
0.23202486 0.065271884 0.54700005 4288051564
0.23297773 0.065271884 0.54700005 4287789932
0.23435827 0.065391205 0.54800004 4287658603
0.23531289 0.065391205 0.54800004 4287657319
0.23669863 0.065510534 0.54900002 4287591526
0.237655 0.065510534 0.54900002 4287264358
0.23904598 0.065629855 0.55000001 4287330151
0.24000408 0.065629855 0.55000001 4287396975
0.24140027 0.065749183 0.551 4286936424
0.24279998 0.065868512 0.55200005 4286606944
0.24376157 0.065868512 0.55200005 4285554256
0.2451665 0.065987833 0.55300003 4286011736
0.24657491 0.066107161 0.55400002 4285880407
0.24753995 0.066107161 0.55400002 4285356122
0.2489536 0.06622649 0.55500001 4284632400
0.2499204 0.06622649 0.55500001 4283714884
0.18994683 0.071551785 0.59100002 4288575557
0.19097635 0.071551785 0.59100002 4288049213
0.19168098 0.071430713 0.59000003 4288049213
0.19270878 0.071430713 0.59000003 4287391540
0.19176635 0.070704311 0.58400005 4287653942
0.19245356 0.070583232 0.583 4287785784
0.19346915 0.070583232 0.583 4287916351
0.19415115 0.070462167 0.58200002 4287916351
0.19315298 0.069735751 0.57600003 4287916351
0.19381931 0.069614679 0.57500005 4287916351
0.1941433 0.069372542 0.57300001 4287916351
0.19446036 0.069130406 0.57100004 4287850557
0.19545504 0.069130406 0.57100004 4287784762
0.19610569 0.069009341 0.57000005 4287784762
0.19709863 0.069009341 0.57000005 4287784260
0.19704898 0.068646133 0.56700003 4287718467
0.19733813 0.068403989 0.565 4287456842
0.19832236 0.068403989 0.565 4287456842
0.19895384 0.068282925 0.56400001 4287587145
0.19922733 0.068040788 0.56200004 4286863679
0.19985011 0.067919716 0.56100005 4286862152
0.20082736 0.067919716 0.56100005 4286796359
0.20144489 0.067798644 0.56 4286796359
0.20169748 0.067556508 0.55800003 4286401601
0.20230632 0.067435443 0.55700004 4286531647
0.20291167 0.067314371 0.55600005 4286531647
0.20388022 0.067314371 0.55600005 4286531643
0.20484878 0.067314371 0.55600005 4286465850
0.20581733 0.067314371 0.55600005 4286531895
0.20641395 0.0671933 0.55500001 4286531895
0.20738076 0.0671933 0.55500001 4286598201
0.20834757 0.0671933 0.55500001 4286598201
0.20893724 0.067072235 0.55400002 4286664247
0.2099023 0.067072235 0.55400002 4286730040
0.21086738 0.067072235 0.55400002 4286729794
0.21145009 0.066951163 0.55300003 4286729794
0.21241342 0.066951163 0.55300003 4286795333
0.21299089 0.066830099 0.55200005 4286795333
0.21356486 0.066709019 0.551 4286795335
0.2145247 0.066709019 0.551 4286795335
0.21509348 0.066587955 0.55000001 4286926664
0.21605156 0.066587955 0.55000001 4286992457
0.21700968 0.066587955 0.55000001 4286927434
0.21796776 0.066587955 0.55000001 4287190606
0.21892586 0.066587955 0.55000001 4287125581
0.21988398 0.066587955 0.55000001 4287322703
0.22044054 0.06646689 0.54900002 4287258198
0.22139691 0.06646689 0.54900002 4287455577
0.22235326 0.06646689 0.54900002 4287654228
0.22330964 0.06646689 0.54900002 4287785557
0.22426598 0.06646689 0.54900002 4287721047
0.22440186 0.066224754 0.54700005 4287852634
0.22535473 0.066224754 0.54700005 4287722844
0.2263076 0.066224754 0.54700005 4287722844
0.2272605 0.066224754 0.54700005 4287657571
0.22821337 0.066224754 0.54700005 4287591522
0.22916624 0.066224754 0.54700005 4287591522
0.23011911 0.066224754 0.54700005 4287459936
0.23107196 0.066224754 0.54700005 4287393891
0.23202486 0.066224754 0.54700005 4287459684
0.23297773 0.066224754 0.54700005 4287393893
0.23435827 0.066345818 0.54800004 4287196514
0.23531289 0.066345818 0.54800004 4287197027
0.23669863 0.06646689 0.54900002 4287197027
0.237655 0.06646689 0.54900002 4287000670
0.23861136 0.06646689 0.54900002 4286671706
0.24000408 0.066587955 0.55000001 4286475360
0.24140027 0.066709019 0.551 4286343517
0.24236013 0.066709019 0.551 4286474322
0.24376157 0.066830099 0.55200005 4285553220
0.2451665 0.066951163 0.55300003 4285617750
0.24612981 0.066951163 0.55300003 4285880922
0.24709316 0.066951163 0.55300003 4285290077
0.24850503 0.067072235 0.55400002 4284237646
0.2499204 0.0671933 0.55500001 4283714634
0.19129948 0.072704114 0.59200001 4287852102
0.19200587 0.072581306 0.59100002 4287786048
0.19270878 0.072458498 0.59000003 4287457083
0.19176635 0.071721636 0.58400005 4287653942
0.19278368 0.071721636 0.58400005 4287785784
0.193801 0.071721636 0.58400005 4287719751
0.19415115 0.071476012 0.58200002 4287719751
0.19315298 0.070739143 0.57600003 4287785283
0.19381931 0.070616335 0.57500005 4287785283
0.1941433 0.070370704 0.57300001 4287915585
0.19480091 0.070247896 0.57200003 4287718206
0.19545504 0.070125096 0.57100004 4287718717
0.19644971 0.070125096 0.57100004 4287587388
0.19709863 0.07000228 0.57000005 4287586632
0.19774401 0.069879465 0.56900001 4287520839
0.19733813 0.069388218 0.565 4287324743
0.19832236 0.069388218 0.565 4287719501
0.19895384 0.06926541 0.56400001 4287785807
0.19958183 0.069142602 0.56300002 4286864705
0.19985011 0.068896979 0.56100005 4286797132
0.20082736 0.068896979 0.56100005 4286731338
0.20144489 0.068774164 0.56 4286730307
0.20169748 0.06852854 0.55800003 4286401342
0.20230632 0.068405733 0.55700004 4286531654
0.20291167 0.068282932 0.55600005 4286465861
0.20388022 0.068282932 0.55600005 4286531643
0.20484878 0.068282932 0.55600005 4286465850
0.20581733 0.068282932 0.55600005 4286466100
0.20641395 0.068160109 0.55500001 4286466100
0.20738076 0.068160109 0.55500001 4286597692
0.20834757 0.068160109 0.55500001 4286597692
0.20893724 0.068037301 0.55400002 4286598205
0.2099023 0.068037301 0.55400002 4286663999
0.21048675 0.067914493 0.55300003 4286663745
0.21145009 0.067914493 0.55300003 4286663745
0.21202931 0.067791685 0.55200005 4286597951
0.21299089 0.067791685 0.55200005 4286729794
0.21356486 0.06766887 0.551 4286795335
0.2145247 0.06766887 0.551 4286729542
0.21509348 0.067546055 0.55000001 4286860358
0.21605156 0.067546055 0.55000001 4286860358
0.21700968 0.067546055 0.55000001 4286927434
0.21796776 0.067546055 0.55000001 4287124813
0.21892586 0.067546055 0.55000001 4287059790
0.21988398 0.067546055 0.55000001 4287125583
0.22084206 0.067546055 0.55000001 4287256910
0.22139691 0.067423247 0.54900002 4287520339
0.22235326 0.067423247 0.54900002 4287522136
0.22330964 0.067423247 0.54900002 4287851100
0.22426598 0.067423247 0.54900002 4287393116
0.22481211 0.067300439 0.54800004 4287722081
0.22535473 0.067177624 0.54700005 4287788906
0.2263076 0.067177624 0.54700005 4287723112
0.2272605 0.067177624 0.54700005 4287658349
0.22821337 0.067177624 0.54700005 4287460969
0.22916624 0.067177624 0.54700005 4287460456
0.23011911 0.067177624 0.54700005 4287328870
0.23107196 0.067177624 0.54700005 4287327584
0.23202486 0.067177624 0.54700005 4287393377
0.23297773 0.067177624 0.54700005 4287327584
0.23435827 0.067300439 0.54800004 4287327584
0.23531289 0.067300439 0.54800004 4287196768
0.23669863 0.067423247 0.54900002 4287196768
0.237655 0.067423247 0.54900002 4286934877
0.23861136 0.067423247 0.54900002 4286605912
0.24000408 0.067546055 0.55000001 4286539869
0.24140027 0.06766887 0.551 4286539869
0.24236013 0.06766887 0.551 4286210905
0.24376157 0.067791685 0.55200005 4285684560
0.2451665 0.067914493 0.55300003 4286011736
0.24612981 0.067914493 0.55300003 4285814613
0.24709316 0.067914493 0.55300003 4285224019
0.24850503 0.068037301 0.55400002 4284302917
0.19138487 0.074980915 0.60200006 4288113962
0.19243355 0.074980915 0.60200006 4288772148
0.19200587 0.073610827 0.59100002 4287588164
0.19303539 0.073610827 0.59100002 4287588164
0.19209471 0.072863512 0.58500004 4287588399
0.19278368 0.072738968 0.58400005 4287917364
0.193801 0.072738968 0.58400005 4287850835
0.19415115 0.072489858 0.58200002 4287719249
0.19315298 0.071742535 0.57600003 4287785029
0.19381931 0.071617983 0.57500005 4287785029
0.19448212 0.071493424 0.574 4287915837
0.19480091 0.071244322 0.57200003 4287850044
0.19545504 0.07111977 0.57100004 4287784762
0.19644971 0.07111977 0.57100004 4287718969
0.19709863 0.070995227 0.57000005 4287455559
0.19774401 0.070870668 0.56900001 4287455559
0.19768742 0.070497006 0.56600004 4287456329
0.19832236 0.070372447 0.565 4287653707
0.19930658 0.070372447 0.565 4287456590
0.19958183 0.070123345 0.56300002 4286733124
0.20020634 0.069998793 0.56200004 4286796880
0.20082736 0.069874242 0.56100005 4286796880
0.20144489 0.069749683 0.56 4286599239
0.20169748 0.06950058 0.55800003 4286401603
0.20230632 0.069376037 0.55700004 4286466631
0.20291167 0.069251485 0.55600005 4286466631
0.20388022 0.069251485 0.55600005 4286597688
0.20484878 0.069251485 0.55600005 4286466102
0.20581733 0.069251485 0.55600005 4286400557
0.20641395 0.069126919 0.55500001 4286466606
0.20738076 0.069126919 0.55500001 4286401340
0.20834757 0.069126919 0.55500001 4286335547
0.20893724 0.069002368 0.55400002 4286467133
0.2099023 0.069002368 0.55400002 4286467133
0.21048675 0.068877816 0.55300003 4286598205
0.21145009 0.068877816 0.55300003 4286532156
0.21202931 0.068753265 0.55200005 4286729794
0.21299089 0.068753265 0.55200005 4286729794
0.21356486 0.068628706 0.551 4286729794
0.2145247 0.068628706 0.551 4286597951
0.21509348 0.068504155 0.55000001 4286663745
0.21605156 0.068504155 0.55000001 4286729794
0.21700968 0.068504155 0.55000001 4286795333
0.21796776 0.068504155 0.55000001 4286926662
0.21892586 0.068504155 0.55000001 4286796109
0.21988398 0.068504155 0.55000001 4286927696
0.22084206 0.068504155 0.55000001 4286929485
0.22139691 0.068379603 0.54900002 4286929485
0.22235326 0.068379603 0.54900002 4286995539
0.22330964 0.068379603 0.54900002 4287061333
0.22426598 0.068379603 0.54900002 4287193684
0.22481211 0.068255052 0.54800004 4287193684
0.2257667 0.068255052 0.54800004 4286932576
0.22672133 0.068255052 0.54800004 4286998370
0.22767596 0.068255052 0.54800004 4286998120
0.22863054 0.068255052 0.54800004 4286998120
0.22958517 0.068255052 0.54800004 4286998633
0.2305398 0.068255052 0.54800004 4286998633
0.23191684 0.068379603 0.54900002 4287130458
0.23244901 0.068255052 0.54800004 4287459423
0.23340364 0.068255052 0.54800004 4287262293
0.23435827 0.068255052 0.54800004 4287130964
0.23531289 0.068255052 0.54800004 4286999637
0.23669863 0.068379603 0.54900002 4286736465
0.237655 0.068379603 0.54900002 4286473307
0.23904598 0.068504155 0.55000001 4286341721
0.24000408 0.068504155 0.55000001 4286210905
0.24140027 0.068628706 0.551 4286079318
0.24323985 0.068877816 0.55300003 4286275414
0.24420317 0.068877816 0.55300003 4286011986
0.24560983 0.069002368 0.55400002 4285815115
0.24701998 0.069126919 0.55500001 4285880908
0.24798678 0.069126919 0.55500001 4285881935
0.2489536 0.069126919 0.55500001 4285290055
0.19065236 0.076155894 0.60300004 4288310575
0.19138487 0.076029599 0.60200006 4288245565
0.19243355 0.076029599 0.60200006 4288640067
0.1931608 0.075903304 0.60100001 4288377933
0.19200587 0.074640349 0.59100002 4287587651
0.19303539 0.074640349 0.59100002 4287587651
0.19373655 0.074514054 0.59000003 4287457081
0.19443423 0.074387766 0.58900005 4287720253
0.1951284 0.074261464 0.588 4287851087
0.19448473 0.07362999 0.583 4287719501
0.19348831 0.072872221 0.57700002 4288046917
0.19381931 0.072619639 0.57500005 4288112710
0.19448212 0.072493337 0.574 4288047167
0.19480091 0.072240748 0.57200003 4287718202
0.19579734 0.072240748 0.57200003 4287718467
0.19644971 0.072114453 0.57100004 4287521089
0.19744439 0.072114453 0.57100004 4287324743
0.19809157 0.071988165 0.57000005 4287258950
0.19803669 0.071609274 0.56700003 4287128393
0.19832236 0.071356684 0.565 4287457357
0.19930658 0.071356684 0.565 4287325020
0.19993633 0.071230382 0.56400001 4286667090
0.20056258 0.071104094 0.56300002 4286862925
0.20118535 0.0709778 0.56200004 4286731338
0.20180464 0.070851505 0.56100005 4286665545
0.20205894 0.070598908 0.55900002 4286533703
0.20266952 0.07047262 0.55800003 4286599239
0.20327662 0.070346326 0.55700004 4286533190
0.20388022 0.070220031 0.55600005 4286401340
0.20484878 0.070220031 0.55600005 4286269754
0.20581733 0.070220031 0.55600005 4286269491
0.20641395 0.070093729 0.55500001 4286466613
0.20738076 0.070093729 0.55500001 4286138686
0.20834757 0.070093729 0.55500001 4286072893
0.20893724 0.069967434 0.55400002 4286334782
0.2099023 0.069967434 0.55400002 4286532160
0.21048675 0.069841146 0.55300003 4286466613
0.21145009 0.069841146 0.55300003 4286532662
0.21202931 0.069714852 0.55200005 4286663745
0.21299089 0.069714852 0.55200005 4286663745
0.21356486 0.069588549 0.551 4286532156
0.2145247 0.069588549 0.551 4286532156
0.21509348 0.069462255 0.55000001 4286598205
0.21605156 0.069462255 0.55000001 4286598205
0.21700968 0.069462255 0.55000001 4286663749
0.21796776 0.069462255 0.55000001 4286663749
0.21892586 0.069462255 0.55000001 4286730055
0.21988398 0.069462255 0.55000001 4286861641
0.22084206 0.069462255 0.55000001 4286797132
0.22180018 0.069462255 0.55000001 4287060303
0.22235326 0.06933596 0.54900002 4286929231
0.22330964 0.06933596 0.54900002 4286929231
0.22426598 0.06933596 0.54900002 4287324243
0.22481211 0.069209673 0.54800004 4287324243
0.2257667 0.069209673 0.54800004 4286931545
0.22672133 0.069209673 0.54800004 4286931545
0.22767596 0.069209673 0.54800004 4286997084
0.22863054 0.069209673 0.54800004 4286997084
0.22958517 0.069209673 0.54800004 4287063133
0.23096049 0.06933596 0.54900002 4286997084
0.23191684 0.06933596 0.54900002 4286866518
0.23287319 0.06933596 0.54900002 4286932567
0.23382954 0.06933596 0.54900002 4286802262
0.23478593 0.06933596 0.54900002 4286802262
0.23574227 0.06933596 0.54900002 4286802008
0.23669863 0.06933596 0.54900002 4286670422
0.237655 0.06933596 0.54900002 4286407768
0.23904598 0.069462255 0.55000001 4286210132
0.24000408 0.069462255 0.55000001 4286209621
0.24140027 0.069588549 0.551 4286209621
0.24323985 0.069841146 0.55300003 4286012756
0.24464478 0.069967434 0.55400002 4285881170
0.24605316 0.070093729 0.55500001 4286208338
0.24701998 0.070093729 0.55500001 4286274131
0.24798678 0.070093729 0.55500001 4285881433
0.24985074 0.070346326 0.55700004 4286144862
0.19065236 0.077206321 0.60300004 4288245048
0.1904311 0.076694176 0.59900004 4288245834
0.19115491 0.076566137 0.59800005 4288508749
0.19219662 0.076566137 0.59800005 4288246595
0.19200587 0.075669877 0.59100002 4287653957
0.19270878 0.075541839 0.59000003 4287719751
0.19340819 0.075413808 0.58900005 4287720003
0.19410411 0.075285755 0.588 4287653953
0.19479655 0.075157724 0.58700001 4287784781
0.19415638 0.073749319 0.57600003 4287850557
0.19482096 0.073621288 0.57500005 4287916089
0.19514146 0.073365211 0.57300001 4287784247
0.19613963 0.073365211 0.57300001 4287587901
0.19679376 0.073237173 0.57200003 4287522108
0.19744439 0.073109135 0.57100004 4287456063
0.19809157 0.072981104 0.57000005 4287324478
0.19838594 0.07272502 0.56800002 4287456079
0.1986734 0.072468951 0.56600004 4288640097
0.19930658 0.072340913 0.565 4288246624
0.20029081 0.072340913 0.565 4287259729
0.20091882 0.072212875 0.56400001 4286995541
0.20154332 0.072084837 0.56300002 4286666577
0.20216435 0.071956806 0.56200004 4286404432
0.20242041 0.071700722 0.56 4286404432
0.20303273 0.071572691 0.55900002 4286666056
0.20327662 0.071316615 0.55700004 4286337092
0.20424692 0.071316615 0.55700004 4286533442
0.20521721 0.071316615 0.55700004 4286401855
0.20581733 0.071188584 0.55600005 4286532408
0.20678589 0.071188584 0.55600005 4286335286
0.20738076 0.071060538 0.55500001 4286268737
0.20834757 0.071060538 0.55500001 4286137150
0.20931438 0.071060538 0.55500001 4286333748
0.2099023 0.070932508 0.55400002 4286267955
0.21086738 0.070932508 0.55400002 4286202401
0.21183245 0.070932508 0.55400002 4286597159
0.21241342 0.070804469 0.55300003 4286532145
0.21299089 0.070676431 0.55200005 4286598194
0.21356486 0.070548393 0.551 4286467133
0.2145247 0.070548393 0.551 4286467133
0.21509348 0.070420355 0.55000001 4286467133
0.21605156 0.070420355 0.55000001 4286467133
0.21700968 0.070420355 0.55000001 4286664258
0.21796776 0.070420355 0.55000001 4286664258
0.21892586 0.070420355 0.55000001 4286730055
0.21988398 0.070420355 0.55000001 4286795848
0.22084206 0.070420355 0.55000001 4286665545
0.22180018 0.070420355 0.55000001 4286665545
0.22275826 0.070420355 0.55000001 4286731086
0.22330964 0.070292316 0.54900002 4286994258
0.22426598 0.070292316 0.54900002 4286996043
0.22522233 0.070292316 0.54900002 4287061837
0.22617868 0.070292316 0.54900002 4286734167
0.22713506 0.070292316 0.54900002 4286734167
0.22809142 0.070292316 0.54900002 4286734682
0.22904776 0.070292316 0.54900002 4286800475
0.23000412 0.070292316 0.54900002 4286800473
0.23096049 0.070292316 0.54900002 4286800473
0.23191684 0.070292316 0.54900002 4286800473
0.23287319 0.070292316 0.54900002 4286800473
0.23382954 0.070292316 0.54900002 4286800725
0.23478593 0.070292316 0.54900002 4286800725
0.23574227 0.070292316 0.54900002 4286472789
0.23669863 0.070292316 0.54900002 4286078031
0.237655 0.070292316 0.54900002 4286143828
0.2394806 0.070548393 0.551 4286143828
0.24044043 0.070548393 0.551 4286078035
0.24271463 0.070932508 0.55400002 4286078035
0.2436797 0.070932508 0.55400002 4286143828
0.24508636 0.071060538 0.55500001 4286143828
0.24649653 0.071188584 0.55600005 4286210655
0.24701998 0.071060538 0.55500001 4285947226
0.24798678 0.071060538 0.55500001 4285422165
0.24985074 0.071316615 0.55700004 4289567124
0.19065236 0.078256749 0.60300004 4288180288
0.1904311 0.077737629 0.59900004 4288245063
0.19115491 0.077607848 0.59800005 4288376650
0.19219662 0.077607848 0.59800005 4288377667
0.19323835 0.077607848 0.59800005 4287653944
0.19200587 0.076699398 0.59100002 4287784762
0.19270878 0.076569617 0.59000003 4287916349
0.19340819 0.076439843 0.58900005 4287916351
0.19410411 0.076310053 0.588 4287850557
0.19479655 0.076180279 0.58700001 4287785031
0.19515193 0.075920731 0.58500004 4287719237
0.19415638 0.074752711 0.57600003 4287784512
0.19482096 0.074622937 0.57500005 4287718969
0.19548203 0.074493155 0.574 4287718969
0.19613963 0.074363373 0.57300001 4287587136
0.19679376 0.074233599 0.57200003 4287587136
0.19744439 0.074103817 0.57100004 4287455559
0.19809157 0.073974043 0.57000005 4287455559
0.19873522 0.073844254 0.56900001 4287521100
0.1986734 0.073454924 0.56600004 4288574044
0.19930658 0.073325135 0.565 4287919976
0.20029081 0.073325135 0.565 4286867031
0.20127504 0.073325135 0.565 4286997588
0.2019013 0.073195361 0.56400001 4286537037
0.20252407 0.073065579 0.56300002 4286864205
0.20278189 0.072806031 0.56100005 4286732620
0.20375916 0.072806031 0.56100005 4286666058
0.20364156 0.072416693 0.55800003 4286534729
0.20424692 0.072286911 0.55700004 4286533190
0.20521721 0.072286911 0.55700004 4286401603
0.20581733 0.072157137 0.55600005 4286401340
0.20678589 0.072157137 0.55600005 4286138168
0.20738076 0.072027348 0.55500001 4286399546
0.20834757 0.072027348 0.55500001 4286399546
0.20931438 0.072027348 0.55500001 4286333748
0.21028119 0.072027348 0.55500001 4286202162
0.21086738 0.071897574 0.55400002 4286202662
0.21183245 0.071897574 0.55400002 4286202662
0.21241342 0.071767792 0.55300003 4286400307
0.21299089 0.071638018 0.55200005 4286466100
0.21395247 0.071638018 0.55200005 4286466617
0.2145247 0.071508236 0.551 4286532410
0.21509348 0.071378462 0.55000001 4286401088
0.21605156 0.071378462 0.55000001 4286401088
0.21700968 0.071378462 0.55000001 4286401088
0.21796776 0.071378462 0.55000001 4286401088
0.21892586 0.071378462 0.55000001 4286466883
0.21988398 0.071378462 0.55000001 4286598213
0.22084206 0.071378462 0.55000001 4286599235
0.22180018 0.071378462 0.55000001 4286665028
0.22275826 0.071378462 0.55000001 4286665545
0.22330964 0.07124868 0.54900002 4286665545
0.22426598 0.07124868 0.54900002 4286864205
0.22522233 0.07124868 0.54900002 4286929998
0.22617868 0.07124868 0.54900002 4286733648
0.22713506 0.07124868 0.54900002 4286733648
0.22809142 0.07124868 0.54900002 4286471764
0.22904776 0.07124868 0.54900002 4286668887
0.23000412 0.07124868 0.54900002 4286538323
0.23096049 0.07124868 0.54900002 4286604116
0.23191684 0.07124868 0.54900002 4286604116
0.23287319 0.07124868 0.54900002 4286406480
0.23382954 0.07124868 0.54900002 4286472016
0.23521358 0.071378462 0.55000001 4286340174
0.23617166 0.071378462 0.55000001 4286470994
0.23712976 0.071378462 0.55000001 4286207822
0.23808788 0.071378462 0.55000001 4285880908
0.24165377 0.072157137 0.55600005 4285880908
0.24262232 0.072157137 0.55600005 4286012238
0.24359088 0.072157137 0.55600005 4286078031
0.24455942 0.072157137 0.55600005 4286012506
0.24552797 0.072157137 0.55600005 4286538850
0.24649653 0.072157137 0.55600005 4286211418
0.24746507 0.072157137 0.55600005 4285290316
0.24843363 0.072157137 0.55600005 4285291361
0.18960191 0.079307176 0.60300004 4288838736
0.19033617 0.079175651 0.60200006 4288707150
0.19106694 0.079044126 0.60100001 4288378185
0.19211388 0.079044126 0.60100001 4288114756
0.19251803 0.078781091 0.59900004 4288246587
0.19291519 0.078518048 0.597 4287588401
0.19233076 0.077860437 0.59200001 4287784762
0.19303539 0.07772892 0.59100002 4287916349
0.19340819 0.077465884 0.58900005 4287916602
0.19443423 0.077465884 0.58900005 4287982396
0.19479655 0.077202834 0.58700001 4287916864
0.19515193 0.076939799 0.58500004 4287719485
0.19449346 0.075887628 0.57700002 4287784260
0.19515976 0.075756103 0.57600003 4287718969
0.1958226 0.075624585 0.57500005 4287521591
0.19648193 0.07549306 0.574 4287455800
0.1971378 0.075361542 0.57300001 4287455800
0.19779019 0.075230017 0.57200003 4287324478
0.19809157 0.074966982 0.57000005 4287324478
0.19873522 0.074835449 0.56900001 4287258950
0.19902439 0.074572414 0.56700003 4287719501
0.19965935 0.074440897 0.56600004 4287522640
