# .PCD v0.7 - Point Cloud Data file format
VERSION 0.7
FIELDS x y z rgba
SIZE 4 4 4 4
TYPE F F F U
COUNT 1 1 1 1
WIDTH 1045
HEIGHT 1
VIEWPOINT 0 0 0 1 0 0 0
POINTS 1045
DATA ascii
-0.24134976 0.016004626 0.73500001 4284751371
-0.24006939 0.016004626 0.73500001 4286595332
-0.23911391 0.016026402 0.73600006 4290279740
-0.23847808 0.016069952 0.73800004 4289558861
-0.23751388 0.016091727 0.73900002 4290019412
-0.23622654 0.016091727 0.73900002 4289888342
-0.23557505 0.016135277 0.74100006 4290019927
-0.23523274 0.016200602 0.74400002 4290019927
-0.23456557 0.016244153 0.74600005 4290085720
-0.2335787 0.016265927 0.74700004 4290217818
-0.23352124 0.016353028 0.75100005 4289823316
-0.23221298 0.016353028 0.75100005 4289626462
-0.23182712 0.016418351 0.75400001 4290087013
-0.23051365 0.016418351 0.75400001 4290349408
-0.28333196 0.017190928 0.73100001 4289830060
-0.28205857 0.017190928 0.73100001 4286802565
-0.28040108 0.017167412 0.73000002 4284697445
-0.27836466 0.017120378 0.72800004 4284957478
-0.26978186 0.016979277 0.72200006 4285216521
-0.26852411 0.016979277 0.72200006 4285479198
-0.26726639 0.016979277 0.72200006 4285676320
-0.26600868 0.016979277 0.72200006 4285809192
-0.26475096 0.016979277 0.72200006 4286072107
-0.26349324 0.016979277 0.72200006 4286074649
-0.26223549 0.016979277 0.72200006 4286798115
-0.26170069 0.017026309 0.72400004 4286339129
-0.26043949 0.017026309 0.72400004 4286273336
-0.25917828 0.017026309 0.72400004 4286270758
-0.25791708 0.017026309 0.72400004 4286270758
-0.25665587 0.017026309 0.72400004 4286137891
-0.25539464 0.017026309 0.72400004 4285940512
-0.25413343 0.017026309 0.72400004 4286071857
-0.25287223 0.017026309 0.72400004 4285677099
-0.25161102 0.017026309 0.72400004 4285941023
-0.25069562 0.017049827 0.72500002 4286138658
-0.24943264 0.017049827 0.72500002 4285612047
-0.24816971 0.017049827 0.72500002 4284296448
-0.24792843 0.017120378 0.72800004 4284950303
-0.24666026 0.017120378 0.72800004 4284686874
-0.24539208 0.017120378 0.72800004 4284883220
-0.24479458 0.017167412 0.73000002 4284883220
-0.2435229 0.017167412 0.73000002 4285146119
-0.24324681 0.017237963 0.73300004 4285211912
-0.24263014 0.017284997 0.73500001 4285014277
-0.24134976 0.017284997 0.73500001 4285146119
-0.24039604 0.017308515 0.73600006 4286924827
-0.23976368 0.017355548 0.73800004 4290214477
-0.23880123 0.017379064 0.73900002 4289887824
-0.23815669 0.0174261 0.74100006 4289690701
-0.23686586 0.0174261 0.74100006 4289888326
-0.23652877 0.017496651 0.74400002 4289888326
-0.23586507 0.017543685 0.74600005 4289887313
-0.23487999 0.017567201 0.74700004 4289953106
-0.2335787 0.017567201 0.74700004 4290019927
-0.23352124 0.017661268 0.75100005 4290085720
-0.23252219 0.017684786 0.75200003 4289954398
-0.23182712 0.017731819 0.75400001 4290283363
-0.2311251 0.017778853 0.75600004 4290415199
-0.22836402 0.018296229 0.77800006 4290611799
-0.28410718 0.018514849 0.73300004 4291409345
-0.28205857 0.018464329 0.73100001 4289105571
-0.28078517 0.018464329 0.73100001 4284631648
-0.27951175 0.018464329 0.73100001 4286073897
-0.27785775 0.018439071 0.73000002 4285152795
-0.27658609 0.018439071 0.73000002 4284166940
-0.26963985 0.018312778 0.72500002 4284955432
-0.26837689 0.018312778 0.72500002 4284757796
-0.26711395 0.018312778 0.72500002 4285084701
-0.2654843 0.018287517 0.72400004 4285084701
-0.2642231 0.018287517 0.72400004 4285611029
-0.26296189 0.018287517 0.72400004 4286071580
-0.26170069 0.018287517 0.72400004 4285548843
-0.2607992 0.018312778 0.72500002 4285812272
-0.25917828 0.018287517 0.72400004 4286139953
-0.25791708 0.018287517 0.72400004 4285679402
-0.25701034 0.018312778 0.72500002 4285347092
-0.25574738 0.018312778 0.72500002 4285610263
-0.25448444 0.018312778 0.72500002 4285940521
-0.25322148 0.018312778 0.72500002 4286006314
-0.25195855 0.018312778 0.72500002 4286007348
-0.25138718 0.018363295 0.72700006 4285941554
-0.25012073 0.018363295 0.72700006 4285479718
-0.24885432 0.018363295 0.72700006 4283900943
-0.24792843 0.018388554 0.72800004 4284815371
-0.24666026 0.018388554 0.72800004 4285144080
-0.24606623 0.018439071 0.73000002 4284686874
-0.2451299 0.018464329 0.73100001 4284686874
-0.24385649 0.018464329 0.73100001 4285211922
-0.24424237 0.018590627 0.73600006 4285211922
-0.24296026 0.018590627 0.73600006 4284948738
-0.24167813 0.018590627 0.73600006 4285146117
-0.24104926 0.018641144 0.73800004 4287254310
-0.23976368 0.018641144 0.73800004 4290214738
-0.23880123 0.018666402 0.73900002 4289822551
-0.23815669 0.018716922 0.74100006 4289690709
-0.23750517 0.018767439 0.74300003 4289822281
-0.23652877 0.018792698 0.74400002 4289822281
-0.23586507 0.018843215 0.74600005 4289821765
-0.23487999 0.018868476 0.74700004 4290019401
-0.23420407 0.018918993 0.74900001 4290085455
-0.23352124 0.018969512 0.75100005 4290151248
-0.23252219 0.018994769 0.75200003 4290282848
-0.23182712 0.019045288 0.75400001 4290546019
-0.2311251 0.019095806 0.75600004 4290349408
-0.22836402 0.019651504 0.77800006 4290611801
-0.22700875 0.019651504 0.77800006 4290611297
-0.28488237 0.019845735 0.73500001 4293447126
-0.2828303 0.019791735 0.73300004 4291672253
-0.28155339 0.019791735 0.73300004 4285882468
-0.28027651 0.019791735 0.73300004 4285089841
-0.27823836 0.019737732 0.73100001 4285353270
-0.27696496 0.019737732 0.73100001 4285021988
-0.27531439 0.019710733 0.73000002 4284166679
-0.27404276 0.019710733 0.73000002 4284691238
-0.27038369 0.01962973 0.72700006 4284754464
-0.26911727 0.01962973 0.72700006 4284557342
-0.26711395 0.019575726 0.72500002 4284427300
-0.26585099 0.019575726 0.72500002 4284756009
-0.26458806 0.019575726 0.72500002 4284952095
-0.2633251 0.019575726 0.72500002 4285281060
-0.26206213 0.019575726 0.72500002 4285151007
-0.2607992 0.019575726 0.72500002 4285216800
-0.25953624 0.019575726 0.72500002 4285151007
-0.2582733 0.019575726 0.72500002 4285151007
-0.25701034 0.019575726 0.72500002 4285216539
-0.25574738 0.019575726 0.72500002 4285413662
-0.25448444 0.019575726 0.72500002 4285018658
-0.25392005 0.01962973 0.72700006 4284755486
-0.25265363 0.01962973 0.72700006 4284361507
-0.25138718 0.01962973 0.72700006 4283835163
-0.25012073 0.01962973 0.72700006 4284358171
-0.24885432 0.01962973 0.72700006 4284161048
-0.24860954 0.019710733 0.73000002 4284619273
-0.24767672 0.019737732 0.73100001 4284882189
-0.24707748 0.019791735 0.73300004 4284686874
-0.24580058 0.019791735 0.73300004 4284686874
-0.24519087 0.019845735 0.73500001 4284885019
-0.24490607 0.01992674 0.73800004 4284622103
-0.24362049 0.01992674 0.73800004 4284751623
-0.24233487 0.01992674 0.73800004 4285672725
-0.24104926 0.01992674 0.73800004 4287320877
-0.24008855 0.019953741 0.73900002 4290018647
-0.2394475 0.020007744 0.74100006 4289953367
-0.23815669 0.020007744 0.74100006 4289690451
-0.23750517 0.020061744 0.74300003 4289887824
-0.23716462 0.020142749 0.74600005 4289887824
-0.23586507 0.020142749 0.74600005 4289953867
-0.23550884 0.02022375 0.74900001 4290348625
-0.23482946 0.020277753 0.75100005 4290151248
-0.23383218 0.020304754 0.75200003 4290151248
-0.23252219 0.020304754 0.75200003 4290282852
-0.23182712 0.020358756 0.75400001 4290677354
-0.2311251 0.020412758 0.75600004 4290612315
-0.2304797 0.020709768 0.76700002 4290545767
-0.2297411 0.020763772 0.76900005 4290480226
-0.22840148 0.020763772 0.76900005 4290546019
-0.28488237 0.021126106 0.73500001 4294367715
-0.28360197 0.021126106 0.73500001 4292725216
-0.2823216 0.021126106 0.73500001 4286475137
-0.28104123 0.021126106 0.73500001 4286665543
-0.27899963 0.021068621 0.73300004 4286270785
-0.27696496 0.021011135 0.73100001 4286007086
-0.27569157 0.021011135 0.73100001 4284625433
-0.27441815 0.021011135 0.73100001 4284754464
-0.27277109 0.020982392 0.73000002 4284754464
-0.27075562 0.020924907 0.72800004 4284753701
-0.26948744 0.020924907 0.72800004 4284622115
-0.26785082 0.020896163 0.72700006 4284556571
-0.2665844 0.020896163 0.72700006 4284951329
-0.26458806 0.020838678 0.72500002 4284625695
-0.2633251 0.020838678 0.72500002 4284691488
-0.26206213 0.020838678 0.72500002 4285150244
-0.2607992 0.020838678 0.72500002 4285084451
-0.25953624 0.020838678 0.72500002 4284952609
-0.2582733 0.020838678 0.72500002 4285150244
-0.25771937 0.020896163 0.72700006 4285151007
-0.25645292 0.020896163 0.72700006 4285085214
-0.25518647 0.020896163 0.72700006 4284691740
-0.2542693 0.020924907 0.72800004 4283836431
-0.25300115 0.020924907 0.72800004 4284292368
-0.25173298 0.020924907 0.72800004 4284292368
-0.2504648 0.020924907 0.72800004 4284357658
-0.24988122 0.020982392 0.73000002 4284357658
-0.24895012 0.021011135 0.73100001 4284554763
-0.24835436 0.021068621 0.73300004 4284883472
-0.24707748 0.021068621 0.73300004 4284490272
-0.24580058 0.021068621 0.73300004 4284358943
-0.24519087 0.021126106 0.73500001 4284884760
-0.24490607 0.021212338 0.73800004 4284490002
-0.24362049 0.021212338 0.73800004 4284423936
-0.24233487 0.021212338 0.73800004 4285345027
-0.24137589 0.02124108 0.73900002 4287583524
-0.24008855 0.02124108 0.73900002 4290281037
-0.2394475 0.021298565 0.74100006 4289821777
-0.2387995 0.021356052 0.74300003 4289690447
-0.23846415 0.021442281 0.74600005 4289953619
-0.23716462 0.021442281 0.74600005 4289887826
-0.23618126 0.021471024 0.74700004 4290019653
-0.23550884 0.021528509 0.74900001 4290216775
-0.23482946 0.021585995 0.75100005 4290085705
-0.23383218 0.02161474 0.75200003 4290480463
-0.2331406 0.021672223 0.75400001 4290218088
-0.23244205 0.021729711 0.75600004 4290415467
-0.23090911 0.021959655 0.76400006 4290546021
-0.23017921 0.022017142 0.76600003 4290546021
-0.2297411 0.022103371 0.76900005 4290545508
-0.22840148 0.022103371 0.76900005 4290545508
-0.28488237 0.022406477 0.73500001 4294301411
-0.28398785 0.022436963 0.73600006 4293580765
-0.28270572 0.022436963 0.73600006 4289567393
-0.28142363 0.022436963 0.73600006 4286998913
-0.27976087 0.022406477 0.73500001 4286012017
-0.27772275 0.022345508 0.73300004 4286141500
-0.27644584 0.022345508 0.73300004 4284957226
-0.27516896 0.022345508 0.73300004 4284428595
-0.27314475 0.022284538 0.73100001 4284231472
-0.27149945 0.022254052 0.73000002 4284753199
-0.27022776 0.022254052 0.73000002 4284621613
-0.26895612 0.022254052 0.73000002 4284490272
-0.26695108 0.022193084 0.72800004 4284293150
-0.26531798 0.022162598 0.72700006 4284098069
-0.26405153 0.022162598 0.72700006 4283966484
-0.26278508 0.022162598 0.72700006 4284490778
-0.26151866 0.022162598 0.72700006 4284359193
-0.26025224 0.022162598 0.72700006 4284490263
-0.25934201 0.022193084 0.72800004 4284358677
-0.25807384 0.022193084 0.72800004 4284556306
-0.25786391 0.022284538 0.73100001 4284490513
-0.2562395 0.022254052 0.73000002 4284556556
-0.25496787 0.022254052 0.73000002 4284688398
-0.2536962 0.022254052 0.73000002 4284490778
-0.25242454 0.022254052 0.73000002 4284490778
-0.25149691 0.022284538 0.73100001 4284620566
-0.25022349 0.022284538 0.73100001 4284620566
-0.24963126 0.022345508 0.73300004 4284488980
-0.24903199 0.022406477 0.73500001 4284752152
-0.24775162 0.022406477 0.73500001 4284489511
-0.24647124 0.022406477 0.73500001 4284357669
-0.24619167 0.022497933 0.73800004 4284488466
-0.24490607 0.022497933 0.73800004 4284027915
-0.24395056 0.022528417 0.73900002 4284158216
-0.24266322 0.022528417 0.73900002 4287184694
-0.24137589 0.022528417 0.73900002 4287320900
-0.24073835 0.022589387 0.74100006 4289952363
-0.2400938 0.022650357 0.74300003 4290480717
-0.23912089 0.022680841 0.74400002 4290480717
-0.23846415 0.022741813 0.74600005 4290479711
-0.23748255 0.022772297 0.74700004 4290019160
-0.23618126 0.022772297 0.74700004 4289362250
-0.23613772 0.022894237 0.75100005 4289164870
-0.23514216 0.022924723 0.75200003 4289953858
-0.23445407 0.022985691 0.75400001 4290874960
-0.2331406 0.022985691 0.75400001 4290677619
-0.23244205 0.023046663 0.75600004 4290414448
-0.23151356 0.023351513 0.76600003 4290546021
-0.23017921 0.023351513 0.76600003 4290479972
-0.2297411 0.023442967 0.76900005 4290480224
-0.22840148 0.023442967 0.76900005 4290480224
-0.22706188 0.023442967 0.76900005 4290742367
-0.28398785 0.023719076 0.73600006 4293383652
-0.28218836 0.023783529 0.73800004 4288776605
-0.2801415 0.023719076 0.73600006 4285815919
-0.27885941 0.023719076 0.73600006 4286406201
-0.27720013 0.023686847 0.73500001 4285485099
-0.27516896 0.023622394 0.73300004 4284892719
-0.2738921 0.023622394 0.73300004 4283839774
-0.27187133 0.023557939 0.73100001 4284753951
-0.27059793 0.023557939 0.73100001 4284359193
-0.26932454 0.023557939 0.73100001 4284358677
-0.26805115 0.023557939 0.73100001 4284227092
-0.26641279 0.023525711 0.73000002 4284358677
-0.26514113 0.023525711 0.73000002 4284490263
-0.26314655 0.023461258 0.72800004 4284556306
-0.2618784 0.023461258 0.72800004 4284556306
-0.26240012 0.023622394 0.73300004 4284687115
-0.26041073 0.023557939 0.73100001 4284555273
-0.25913733 0.023557939 0.73100001 4284686359
-0.25786391 0.023557939 0.73100001 4284686359
-0.25659055 0.023557939 0.73100001 4284686609
-0.25531712 0.023557939 0.73100001 4284818451
-0.25404373 0.023557939 0.73100001 4284818710
-0.2527703 0.023557939 0.73100001 4284687124
-0.25218502 0.023622394 0.73300004 4284686609
-0.25090814 0.023622394 0.73300004 4284620816
-0.25031236 0.023686847 0.73500001 4284619521
-0.24903199 0.023686847 0.73500001 4284619521
-0.24808872 0.023719076 0.73600006 4284489728
-0.24680659 0.023719076 0.73600006 4284358144
-0.24619167 0.023783529 0.73800004 4284422912
-0.24523792 0.023815755 0.73900002 4284686080
-0.24395056 0.023815755 0.73900002 4285477632
-0.24266322 0.023815755 0.73900002 4287056396
-0.24202916 0.02388021 0.74100006 4288831792
-0.2413881 0.023944663 0.74300003 4290871376
-0.24041693 0.023976889 0.74400002 4290546017
-0.23976368 0.024041345 0.74600005 4290348895
-0.23878381 0.024073573 0.74700004 4290347621
-0.23748255 0.024073573 0.74700004 4289952863
-0.23618126 0.024073573 0.74700004 4289427012
-0.23645215 0.024234707 0.75200003 4289361218
-0.23576753 0.02429916 0.75400001 4290216514
-0.23445407 0.02429916 0.75400001 4290874187
-0.233759 0.024363615 0.75600004 4290611563
-0.23244205 0.024363615 0.75600004 4290479976
-0.23223999 0.024621431 0.76400006 4290546021
-0.23151356 0.024685884 0.76600003 4290546017
-0.23017921 0.024685884 0.76600003 4290480224
-0.2297411 0.024782566 0.76900005 4290480224
-0.22840148 0.024782566 0.76900005 4290348895
-0.22706188 0.024782566 0.76900005 4290742367
-0.28218836 0.025069125 0.73800004 4291277243
-0.28090274 0.025069125 0.73800004 4285355872
-0.27885941 0.025001187 0.73600006 4285551385
-0.27757728 0.025001187 0.73600006 4286867244
-0.27629519 0.025001187 0.73600006 4286010691
-0.2746394 0.024967218 0.73500001 4285221431
-0.273359 0.024967218 0.73500001 4284889137
-0.27133831 0.02489928 0.73300004 4284691501
-0.27006143 0.02489928 0.73300004 4283965995
-0.26805115 0.024831342 0.73100001 4283703080
-0.26641279 0.024797373 0.73000002 4283965967
-0.26514113 0.024797373 0.73000002 4283965967
-0.26386946 0.024797373 0.73000002 4284358411
-0.26367697 0.02489928 0.73300004 4284292618
-0.26240012 0.02489928 0.73300004 4284227073
-0.26112324 0.02489928 0.73300004 4284227073
-0.25984633 0.02489928 0.73300004 4284226823
-0.25856945 0.02489928 0.73300004 4284226823
-0.25729257 0.02489928 0.73300004 4284226823
-0.25601566 0.02489928 0.73300004 4284029701
-0.25473878 0.02489928 0.73300004 4284290820
-0.25415346 0.024967218 0.73500001 4284290820
-0.25287309 0.024967218 0.73500001 4284355584
-0.25159273 0.024967218 0.73500001 4284355584
-0.25133404 0.025069125 0.73800004 4284290068
-0.25004843 0.025069125 0.73800004 4285276963
-0.24876286 0.025069125 0.73800004 4286201600
-0.24747725 0.025069125 0.73800004 4287056898
-0.24652526 0.025103094 0.73900002 4288112896
-0.24523792 0.025103094 0.73900002 4288902400
-0.2446108 0.025171032 0.74100006 4289693259
-0.24331999 0.025171032 0.74100006 4289693259
-0.2426824 0.02523897 0.74300003 4290020696
-0.24171296 0.025272937 0.74400002 4290349660
-0.24106322 0.025340877 0.74600005 4289954650
-0.24008507 0.025374847 0.74700004 4289823064
-0.23878381 0.025374847 0.74700004 4289888355
-0.23811837 0.025442783 0.74900001 4289756769
-0.23681359 0.025442783 0.74900001 4289953619
-0.23645215 0.02554469 0.75200003 4290282328
-0.23576753 0.025612628 0.75400001 4290151248
-0.23445407 0.025612628 0.75400001 4290414420
-0.233759 0.025680566 0.75600004 4290479711
-0.23274951 0.025714535 0.75700003 4290545504
-0.23284794 0.026020257 0.76600003 4290546021
-0.23151356 0.026020257 0.76600003 4290546017
-0.2304797 0.026054224 0.76700002 4290480224
-0.2297411 0.026122164 0.76900005 4290348897
-0.22840148 0.026122164 0.76900005 4290282848
-0.22706188 0.026122164 0.76900005 4290676824
-0.28090274 0.026354721 0.73800004 4285422195
-0.27961716 0.026354721 0.73800004 4286665012
-0.27757728 0.0262833 0.73600006 4287257149
-0.27629519 0.0262833 0.73600006 4287127361
-0.27501306 0.0262833 0.73600006 4286535481
-0.27373096 0.0262833 0.73600006 4285944375
-0.27207863 0.026247587 0.73500001 4284694052
-0.27006143 0.026176166 0.73300004 4285282596
-0.26878452 0.026176166 0.73300004 4284690458
-0.26750764 0.026176166 0.73300004 4284032261
-0.26623076 0.026176166 0.73300004 4283703552
-0.26495388 0.026176166 0.73300004 4284095232
-0.26367697 0.026176166 0.73300004 4284161024
-0.26240012 0.026176166 0.73300004 4283768576
-0.26112324 0.026176166 0.73300004 4283308032
-0.25984633 0.026176166 0.73300004 4283830272
-0.25856945 0.026176166 0.73300004 4284159232
-0.25729257 0.026176166 0.73300004 4284159744
-0.25671422 0.026247587 0.73500001 4284093696
-0.25543386 0.026247587 0.73500001 4284224768
-0.25415346 0.026247587 0.73500001 4284224768
-0.25321716 0.0262833 0.73600006 4284488704
-0.25193503 0.0262833 0.73600006 4285015040
-0.25133404 0.026354721 0.73800004 4285543424
-0.25004843 0.026354721 0.73800004 4285477632
-0.24909993 0.026390431 0.73900002 4287253776
-0.2478126 0.026390431 0.73900002 4288240671
-0.24652526 0.026390431 0.73900002 4289425476
-0.24590161 0.026461855 0.74100006 4290675543
-0.2446108 0.026461855 0.74100006 4290217066
-0.24397671 0.026533276 0.74300003 4289954151
-0.24300902 0.026568986 0.74400002 4290217818
-0.24236275 0.02664041 0.74600005 4290020696
-0.24106322 0.02664041 0.74600005 4289429588
-0.24008507 0.02667612 0.74700004 4289429588
-0.23878381 0.02667612 0.74700004 4289626212
-0.2387542 0.026818965 0.75100005 4289626212
-0.23744595 0.026818965 0.75100005 4290151000
-0.23645215 0.026854673 0.75200003 4290282330
-0.23576753 0.026926095 0.75400001 4290348625
-0.23507597 0.02699752 0.75600004 4290414418
-0.233759 0.02699752 0.75600004 4290414170
-0.23357089 0.027283208 0.76400006 4290808172
-0.23284794 0.02735463 0.76600003 4290808172
-0.23151356 0.02735463 0.76600003 4290545758
-0.2304797 0.027390338 0.76700002 4290611551
-0.2297411 0.027461763 0.76900005 4290479963
-0.22840148 0.027461763 0.76900005 4290479963
-0.22706188 0.027461763 0.76900005 4290546008
-0.27244884 0.027565412 0.73600006 4286865225
-0.27079827 0.027527958 0.73500001 4287127880
-0.2695179 0.027527958 0.73500001 4287325002
-0.26860252 0.027565412 0.73600006 4286929735
-0.26732039 0.027565412 0.73600006 4286534977
-0.2660383 0.027565412 0.73600006 4286730303
-0.26475617 0.027565412 0.73600006 4286598717
-0.26347405 0.027565412 0.73600006 4286466865
-0.26183569 0.027527958 0.73500001 4286138156
-0.26055533 0.027527958 0.73500001 4286467367
-0.25927496 0.027527958 0.73500001 4286533160
-0.25799459 0.027527958 0.73500001 4287058975
-0.25706348 0.027565412 0.73600006 4287388196
-0.25578138 0.027565412 0.73600006 4287388196
-0.25449926 0.027565412 0.73600006 4287585319
-0.25321716 0.027565412 0.73600006 4287980597
-0.25193503 0.027565412 0.73600006 4288704319
-0.25167459 0.027677769 0.73900002 4288771405
-0.25038725 0.027677769 0.73900002 4289166163
-0.24909993 0.027677769 0.73900002 4289560667
-0.2478126 0.027677769 0.73900002 4289758302
-0.24719244 0.027752677 0.74100006 4289822560
-0.24656531 0.027827581 0.74300003 4289756767
-0.24626134 0.027939942 0.74600005 4289690713
-0.2449618 0.027939942 0.74600005 4289558870
-0.2436623 0.027939942 0.74600005 4290020173
-0.24268763 0.027977394 0.74700004 4290020173
-0.24138637 0.027977394 0.74700004 4290153812
-0.24008507 0.027977394 0.74700004 4290351192
-0.23942311 0.0280523 0.74900001 4290415998
-0.2390721 0.028164661 0.75200003 4290218363
-0.23776212 0.028164661 0.75200003 4290217055
-0.23708099 0.028239565 0.75400001 4290217055
-0.23639292 0.028314473 0.75600004 4290217809
-0.23507597 0.028314473 0.75600004 4290217809
-0.23406821 0.028351925 0.75700003 4290414418
-0.23357089 0.028614094 0.76400006 4290677356
-0.23284794 0.028688999 0.76600003 4290545770
-0.23151356 0.028688999 0.76600003 4290479711
-0.2304797 0.028726451 0.76700002 4290479711
-0.2297411 0.028801359 0.76900005 4290480478
-0.2289955 0.028876266 0.77100003 4290480478
-0.22765243 0.028876266 0.77100003 4290611031
-0.27190357 0.028925914 0.73800004 4287721034
-0.27061799 0.028925914 0.73800004 4287786827
-0.26933238 0.028925914 0.73800004 4288048200
-0.2680468 0.028925914 0.73800004 4287785029
-0.26676121 0.028925914 0.73800004 4287915335
-0.26475617 0.028847525 0.73600006 4287849542
-0.26347405 0.028847525 0.73600006 4287717452
-0.26219192 0.028847525 0.73600006 4287651659
-0.26090983 0.028847525 0.73600006 4287717191
-0.2596277 0.028847525 0.73600006 4288045899
-0.2583456 0.028847525 0.73600006 4288112197
-0.25776204 0.028925914 0.73800004 4288901712
-0.25647643 0.028925914 0.73800004 4288835917
-0.25519085 0.028925914 0.73800004 4289033297
-0.25390524 0.028925914 0.73800004 4288968017
-0.25261965 0.028925914 0.73800004 4289494361
-0.25167459 0.028965108 0.73900002 4289297752
-0.25038725 0.028965108 0.73900002 4289429338
-0.24909993 0.028965108 0.73900002 4289889891
-0.24848329 0.029043498 0.74100006 4289560669
-0.24785961 0.029121889 0.74300003 4289231958
-0.24689718 0.029161081 0.74400002 4289297752
-0.24626134 0.029239476 0.74600005 4289297248
-0.24529018 0.029278668 0.74700004 4289363297
-0.24398889 0.029278668 0.74700004 4289954650
-0.24268763 0.029278668 0.74700004 4290020444
-0.24138637 0.029278668 0.74700004 4290481510
-0.24008507 0.029278668 0.74700004 4290547303
-0.23942311 0.029357059 0.74900001 4290350703
-0.2390721 0.029474642 0.75200003 4290219117
-0.23776212 0.029474642 0.75200003 4290151775
-0.23708099 0.029553032 0.75400001 4290151775
-0.23639292 0.029631423 0.75600004 4290217305
-0.23538691 0.029670618 0.75700003 4290217305
-0.23468661 0.02974901 0.75900006 4290283084
-0.23397937 0.029827399 0.76100004 4290414670
-0.23357089 0.029944982 0.76400006 4290546021
-0.23284794 0.030023374 0.76600003 4290479972
-0.23151356 0.030023374 0.76600003 4290610527
-0.2304797 0.030062566 0.76700002 4290610527
-0.2297411 0.030140961 0.76900005 4290479965
-0.26969734 0.030252445 0.73900002 4287851055
-0.26841 0.030252445 0.73900002 4287917104
-0.26676121 0.030211508 0.73800004 4288047670
-0.2654756 0.030211508 0.73800004 4288245050
-0.26419002 0.030211508 0.73800004 4288375116
-0.26290441 0.030211508 0.73800004 4288440909
-0.26161882 0.030211508 0.73800004 4288506966
-0.26033321 0.030211508 0.73800004 4288638552
-0.2590476 0.030211508 0.73800004 4288837714
-0.25776204 0.030211508 0.73800004 4288969300
-0.25647643 0.030211508 0.73800004 4289165913
-0.25519085 0.030211508 0.73800004 4289100120
-0.25424927 0.030252445 0.73900002 4289100120
-0.25296193 0.030252445 0.73900002 4288968791
-0.25235572 0.030334322 0.74100006 4288968271
-0.25106493 0.030334322 0.74100006 4288968271
-0.2497741 0.030334322 0.74100006 4289427791
-0.24848329 0.030334322 0.74100006 4289427791
-0.2481932 0.030457132 0.74400002 4289889357
-0.24756087 0.030539008 0.74600005 4290218322
-0.24659145 0.030579941 0.74700004 4290087547
-0.24529018 0.030579941 0.74700004 4290087547
-0.24398889 0.030579941 0.74700004 4289693791
-0.24333739 0.030661814 0.74900001 4289035860
-0.24203262 0.030661814 0.74900001 4289627235
-0.24072787 0.030661814 0.74900001 4290416750
-0.24006243 0.03074369 0.75100005 4290612065
-0.23970792 0.0308665 0.75400001 4290546271
-0.23839445 0.0308665 0.75400001 4290479711
-0.23770986 0.030948374 0.75600004 4289821781
-0.23670559 0.030989313 0.75700003 4289822297
-0.23600879 0.031071188 0.75900006 4289690711
-0.23530503 0.03115306 0.76100004 4289625408
-0.23428684 0.031193998 0.76200002 4290020166
-0.23357089 0.031275872 0.76400006 4290479963
-0.23284794 0.031357747 0.76600003 4290479963
-0.23181581 0.03139868 0.76700002 4290348897
-0.2310807 0.031480554 0.76900005 4290348897
-0.23033857 0.031562429 0.77100003 4290479711
-0.26712266 0.031539787 0.73900002 4287916089
-0.26583531 0.031539787 0.73900002 4288179005
-0.26454797 0.031539787 0.73900002 4288571975
-0.26326063 0.031539787 0.73900002 4288769611
-0.26197332 0.031539787 0.73900002 4288769872
-0.26068598 0.031539787 0.73900002 4289033301
-0.25939864 0.031539787 0.73900002 4288772191
-0.2581113 0.031539787 0.73900002 4288837984
-0.25682396 0.031539787 0.73900002 4288969052
-0.25553662 0.031539787 0.73900002 4289034845
-0.25493738 0.031625144 0.74100006 4289034341
-0.25364655 0.031625144 0.74100006 4288902755
-0.25235572 0.031625144 0.74100006 4288968787
-0.25106493 0.031625144 0.74100006 4288902994
-0.25044823 0.031710502 0.74300003 4289362000
-0.24948926 0.031753179 0.74400002 4289756758
-0.2488604 0.031838536 0.74600005 4290349408
-0.24789274 0.031881217 0.74700004 4290415201
-0.24659145 0.031881217 0.74700004 4289956477
-0.24594691 0.031966574 0.74900001 4289495926
-0.24464214 0.031966574 0.74900001 4288905054
-0.24333739 0.031966574 0.74900001 4287983952
-0.24267891 0.032051936 0.75100005 4288311075
-0.24137068 0.032051936 0.75100005 4290613830
-0.24038209 0.032094613 0.75200003 4291204465
-0.24034376 0.032265328 0.75600004 4290743914
-0.23902681 0.032265328 0.75600004 4290677356
-0.23802429 0.032308009 0.75700003 4290216805
-0.23670559 0.032308009 0.75700003 4289757271
-0.23600879 0.032393366 0.75900006 4289691222
-0.23530503 0.032478724 0.76100004 4289888578
-0.23428684 0.032521401 0.76200002 4290020164
-0.23357089 0.032606762 0.76400006 4290414420
-0.23284794 0.032692116 0.76600003 4290480213
-0.23181581 0.032734796 0.76700002 4290479711
-0.2310807 0.032820158 0.76900005 4290545504
-0.28099158 0.033404596 0.75200003 4286733678
-0.27968159 0.033404596 0.75200003 4287587890
-0.26326063 0.032827124 0.73900002 4289363797
-0.26197332 0.032827124 0.73900002 4289363547
-0.26068598 0.032827124 0.73900002 4289429340
-0.25939864 0.032827124 0.73900002 4289298285
-0.2581113 0.032827124 0.73900002 4289166443
-0.25751904 0.032915968 0.74100006 4289167460
-0.25622821 0.032915968 0.74100006 4289825390
-0.25493738 0.032915968 0.74100006 4289298294
-0.25364655 0.032915968 0.74100006 4289166708
-0.25337738 0.033049226 0.74400002 4289035347
-0.25208136 0.033049226 0.74400002 4288377161
-0.25145948 0.03313807 0.74600005 4289231945
-0.25049525 0.033182491 0.74700004 4289495117
-0.249194 0.033182491 0.74700004 4288837187
-0.24855644 0.033271331 0.74900001 4287718706
-0.24725166 0.033271331 0.74900001 4287256899
-0.24660364 0.033360176 0.75100005 4286730555
-0.24529542 0.033360176 0.75100005 4286598944
-0.24398716 0.033360176 0.75100005 4285677842
-0.24300206 0.033404596 0.75200003 4287255045
-0.24169207 0.033404596 0.75200003 4290610488
-0.24102141 0.033493433 0.75400001 4290874469
-0.2406617 0.033626702 0.75700003 4290808676
-0.23934299 0.033626702 0.75700003 4290743662
-0.23865317 0.033715542 0.75900006 4290414954
-0.23733099 0.033715542 0.75900006 4290217307
-0.23663068 0.033804383 0.76100004 4290085720
-0.23561424 0.033848803 0.76200002 4290019916
-0.23428684 0.033848803 0.76200002 4290019916
-0.23357089 0.033937652 0.76400006 4290414157
-0.23284794 0.034026489 0.76600003 4290414157
-0.23181581 0.034070909 0.76700002 4290479450
-0.2310807 0.034159753 0.76900005 4290610779
-0.28305238 0.034806907 0.75400001 4289035401
-0.28173891 0.034806907 0.75400001 4286864233
-0.27968159 0.03471458 0.75200003 4287456052
-0.27837163 0.03471458 0.75200003 4287916602
-0.27669322 0.034668416 0.75100005 4287520046
-0.26010066 0.034206789 0.74100006 4289495156
-0.25880983 0.034206789 0.74100006 4289232240
-0.25821406 0.034299113 0.74300003 4289101933
-0.25691977 0.034299113 0.74300003 4289167726
-0.25596949 0.034345273 0.74400002 4289036138
-0.25467345 0.034345273 0.74400002 4288641636
-0.25405854 0.034437601 0.74600005 4288377179
-0.25275901 0.034437601 0.74600005 4288114006
-0.25145948 0.034437601 0.74600005 4288310595
-0.25049525 0.034483764 0.74700004 4288573511
-0.24986118 0.034576092 0.74900001 4288310325
-0.24855644 0.034576092 0.74900001 4286468121
-0.24725166 0.034576092 0.74900001 4286729771
-0.24660364 0.034668416 0.75100005 4286598442
-0.24562201 0.03471458 0.75200003 4286664208
-0.24431203 0.03471458 0.75200003 4286400779
-0.24300206 0.03471458 0.75200003 4287911431
-0.24233487 0.034806907 0.75400001 4290740530
-0.24166073 0.034899231 0.75600004 4290480743
-0.2406617 0.034945395 0.75700003 4290414949
-0.23997535 0.035037722 0.75900006 4290677617
-0.23865317 0.035037722 0.75900006 4290480495
-0.23795635 0.035130046 0.76100004 4290151777
-0.23663068 0.035130046 0.76100004 4289954398
-0.23561424 0.03517621 0.76200002 4290085459
-0.23428684 0.03517621 0.76200002 4290085459
-0.23357089 0.035268538 0.76400006 4290216271
-0.23284794 0.035360862 0.76600003 4290348114
-0.2297193 0.035914816 0.77800006 4290676311
-0.22895108 0.036007144 0.78000003 4290742104
-0.28173891 0.036120374 0.75400001 4286274159
-0.28042543 0.036120374 0.75400001 4287061044
-0.27837163 0.036024563 0.75200003 4288179268
-0.27706164 0.036024563 0.75200003 4287980849
-0.27538496 0.03597666 0.75100005 4286730525
-0.27334681 0.035880849 0.74900001 4286860576
-0.27204207 0.035880849 0.74900001 4287058212
-0.27073729 0.035880849 0.74900001 4287322163
-0.25925666 0.035737135 0.74600005 4286466865
-0.25795713 0.035737135 0.74600005 4286269743
-0.2566576 0.035737135 0.74600005 4286203405
-0.25535807 0.035737135 0.74600005 4286203405
-0.25439912 0.035785038 0.74700004 4286598194
-0.2530978 0.035785038 0.74700004 4286071594
-0.25179654 0.035785038 0.74700004 4286597157
-0.25116593 0.035880849 0.74900001 4288044859
-0.24986118 0.035880849 0.74900001 4287586856
-0.24855644 0.035880849 0.74900001 4286533912
-0.24824201 0.036024563 0.75200003 4287520057
-0.246932 0.036024563 0.75200003 4288638795
-0.24562201 0.036024563 0.75200003 4289493822
-0.24431203 0.036024563 0.75200003 4289625408
-0.24364834 0.036120374 0.75400001 4289690711
-0.24233487 0.036120374 0.75400001 4290085468
-0.24166073 0.036216184 0.75600004 4290019421
-0.24129753 0.036359899 0.75900006 4289888092
-0.23997535 0.036359899 0.75900006 4290084965
-0.23928201 0.036455709 0.76100004 4290479722
-0.23826905 0.036503613 0.76200002 4290348897
-0.23694162 0.036503613 0.76200002 4290019675
-0.23561424 0.036503613 0.76200002 4290019927
-0.23490176 0.036599427 0.76400006 4290019927
-0.2341823 0.036695234 0.76600003 4290150478
-0.23284794 0.036695234 0.76600003 4290282320
-0.23166861 0.037365902 0.78000003 4290675809
-0.23030984 0.037365902 0.78000003 4290741586
-0.22924459 0.037413809 0.78100002 4290807379
-0.28173891 0.03743384 0.75400001 4286012017
-0.28042543 0.03743384 0.75400001 4287453221
-0.27911198 0.03743384 0.75400001 4288571703
-0.27706164 0.037334546 0.75200003 4288047167
-0.27538496 0.037284903 0.75100005 4286731307
-0.27407673 0.037284903 0.75100005 4286729771
-0.2727685 0.037284903 0.75100005 4286927407
-0.27146024 0.037284903 0.75100005 4287059254
-0.26943254 0.037185606 0.74900001 4287059254
-0.2681278 0.037185606 0.74900001 4286598703
-0.26682302 0.037185606 0.74900001 4286006566
-0.26551828 0.037185606 0.74900001 4285679641
-0.2642135 0.037185606 0.74900001 4286205985
-0.26290876 0.037185606 0.74900001 4286205735
-0.26160398 0.037185606 0.74900001 4285942306
-0.26029924 0.037185606 0.74900001 4285942560
-0.25830293 0.037086312 0.74700004 4285876511
-0.25700164 0.037086312 0.74700004 4285940992
-0.25570038 0.037086312 0.74700004 4286204160
-0.25508022 0.037185606 0.74900001 4286532633
-0.25377545 0.037185606 0.74900001 4286203668
-0.25348192 0.037334546 0.75200003 4286270464
-0.25217196 0.037334546 0.75200003 4287980817
-0.25086197 0.037334546 0.75200003 4287719471
-0.24955198 0.037334546 0.75200003 4287587886
-0.24890219 0.03743384 0.75400001 4288637518
-0.24758872 0.03743384 0.75400001 4289427291
-0.24627526 0.03743384 0.75400001 4289887059
-0.2449618 0.03743384 0.75400001 4290018901
-0.24364834 0.03743384 0.75400001 4290414700
-0.24297768 0.037533138 0.75600004 4289559391
-0.24198036 0.037582785 0.75700003 4288901156
-0.24129753 0.037682079 0.75900006 4289361707
-0.24060768 0.037781373 0.76100004 4289888607
-0.23959644 0.03783102 0.76200002 4290414951
-0.23826905 0.03783102 0.76200002 4290415215
-0.23694162 0.03783102 0.76200002 4289757285
-0.23623267 0.037930313 0.76400006 4289888342
-0.23551668 0.038029607 0.76600003 4289888342
-0.2341823 0.038029607 0.76600003 4290150219
-0.23284794 0.038029607 0.76600003 4290216012
-0.23302737 0.038724665 0.78000003 4290676074
-0.23166861 0.038724665 0.78000003 4290610025
-0.23030984 0.038724665 0.78000003 4290741586
-0.28042543 0.038747307 0.75400001 4286994760
-0.27911198 0.038747307 0.75400001 4287586897
-0.2777985 0.038747307 0.75400001 4287916351
-0.27575165 0.038644534 0.75200003 4286929455
-0.27444169 0.038644534 0.75200003 4286796863
-0.2727685 0.038593143 0.75100005 4286665534
-0.27146024 0.038593143 0.75100005 4287059769
-0.270152 0.038593143 0.75100005 4288046665
-0.26884377 0.038593143 0.75100005 4288112210
-0.26753554 0.038593143 0.75100005 4287783245
-0.26551828 0.038490366 0.74900001 4287717691
-0.2642135 0.038490366 0.74900001 4287914813
-0.26290876 0.038490366 0.74900001 4287587388
-0.26160398 0.038490366 0.74900001 4287455546
-0.26029924 0.038490366 0.74900001 4288047418
-0.25899449 0.038490366 0.74900001 4288113212
-0.25768974 0.038490366 0.74900001 4288177458
-0.25638497 0.038490366 0.74900001 4288045872
-0.25576136 0.038593143 0.75100005 4288771116
-0.25445309 0.038593143 0.75100005 4288968496
-0.25348192 0.038644534 0.75200003 4289166163
-0.25217196 0.038644534 0.75200003 4289692507
-0.25086197 0.038644534 0.75200003 4289365082
-0.24955198 0.038644534 0.75200003 4289365082
-0.24890219 0.038747307 0.75400001 4289232236
-0.24758872 0.038747307 0.75400001 4289034856
-0.24692854 0.038850091 0.75600004 4288965709
-0.24561156 0.038850091 0.75600004 4288965709
-0.24429463 0.038850091 0.75600004 4288703818
-0.24329907 0.038901478 0.75700003 4286729771
-0.24261969 0.039004255 0.75900006 4287319825
-0.24193335 0.039107032 0.76100004 4289885495
-0.24092385 0.039158419 0.76200002 4290151271
-0.24022532 0.039261203 0.76400006 4290348906
-0.2395198 0.039363977 0.76600003 4290415213
-0.23818542 0.039363977 0.76600003 4289691746
-0.23685107 0.039363977 0.76600003 4289822551
-0.23551668 0.039363977 0.76600003 4289822551
-0.23438612 0.040083423 0.78000003 4290806875
-0.23332611 0.040134814 0.78100002 4290873204
-0.23196562 0.040134814 0.78100002 4290609775
-0.23060511 0.040134814 0.78100002 4290871887
-0.27911198 0.040060777 0.75400001 4287323476
-0.2777985 0.040060777 0.75400001 4287784512
-0.27575165 0.039954517 0.75200003 4287258168
-0.27444169 0.039954517 0.75200003 4286730807
-0.2731317 0.039954517 0.75200003 4286467635
-0.27182171 0.039954517 0.75200003 4286928170
-0.27051172 0.039954517 0.75200003 4288178494
-0.26920176 0.039954517 0.75200003 4288902494
-0.26789176 0.039954517 0.75200003 4288770651
-0.26622728 0.039901387 0.75100005 4288837201
-0.26491904 0.039901387 0.75100005 4288639821
-0.26361078 0.039901387 0.75100005 4288638795
-0.26230258 0.039901387 0.75100005 4288572746
-0.26099432 0.039901387 0.75100005 4288769361
-0.25899449 0.039795119 0.74900001 4288703312
-0.25768974 0.039795119 0.74900001 4289360716
-0.25638497 0.039795119 0.74900001 4289623632
-0.25576136 0.039901387 0.75100005 4289690976
-0.25479192 0.039954517 0.75200003 4289427804
-0.25348192 0.039954517 0.75200003 4289626214
-0.25217196 0.039954517 0.75200003 4289757801
-0.25086197 0.039954517 0.75200003 4289627237
-0.25021568 0.040060777 0.75400001 4289166686
-0.24890219 0.040060777 0.75400001 4288969304
-0.24824549 0.040167041 0.75600004 4288706133
-0.24725515 0.040220171 0.75700003 4287915837
-0.24593647 0.040220171 0.75700003 4287850044
-0.24526405 0.040326435 0.75900006 4288179520
-0.24394187 0.040326435 0.75900006 4286468902
-0.24325901 0.040432695 0.76100004 4287386368
-0.24193335 0.040432695 0.76100004 4289886486
-0.24092385 0.040485825 0.76200002 4290347873
-0.24022532 0.040592089 0.76400006 4290611301
-0.2395198 0.040698349 0.76600003 4290283365
-0.23818542 0.040698349 0.76600003 4289690972
-0.23685107 0.040698349 0.76600003 4289887826
-0.23438612 0.041442186 0.78000003 4290741588
-0.23332611 0.041495316 0.78100002 4290938213
-0.23196562 0.041495316 0.78100002 4290806627
-0.2777985 0.041374244 0.75400001 4287323961
-0.27648503 0.041374244 0.75400001 4288245063
-0.27517155 0.041374244 0.75400001 4287258696
-0.2731317 0.0412645 0.75200003 4286206007
-0.27182171 0.0412645 0.75200003 4286731559
-0.27123117 0.041374244 0.75400001 4287521074
-0.2699177 0.041374244 0.75400001 4287389252
-0.26789176 0.0412645 0.75200003 4286862908
-0.26658177 0.0412645 0.75200003 4287585852
-0.26527181 0.0412645 0.75200003 4288309319
-0.26361078 0.041209627 0.75100005 4288243251
-0.26230258 0.041209627 0.75100005 4288572216
-0.26099432 0.041209627 0.75100005 4288310356
-0.25968608 0.041209627 0.75100005 4287849805
-0.25837782 0.041209627 0.75100005 4288243001
-0.25706959 0.041209627 0.75100005 4288637759
-0.25610191 0.0412645 0.75200003 4287584847
-0.25546953 0.041374244 0.75400001 4286597951
-0.25483024 0.041483991 0.75600004 4286927164
-0.25351331 0.041483991 0.75600004 4286993213
-0.25252992 0.041538864 0.75700003 4286860828
-0.25121126 0.041538864 0.75700003 4286400277
-0.24989255 0.041538864 0.75700003 4286794260
-0.24923059 0.041648615 0.75900006 4287912485
-0.24790841 0.041648615 0.75900006 4287584821
-0.24658623 0.041648615 0.75900006 4287124270
-0.24591033 0.041758355 0.76100004 4288639026
-0.24458468 0.041758355 0.76100004 4289757508
-0.24357867 0.041813228 0.76200002 4289757271
-0.24225125 0.041813228 0.76200002 4289888857
-0.24155621 0.041922979 0.76400006 4290217307
-0.24085416 0.042032722 0.76600003 4290546271
-0.2395198 0.042032722 0.76600003 4290479963
-0.23849636 0.042087596 0.76700002 4290019412
-0.2364957 0.042691201 0.77800006 4290018631
-0.23514043 0.042691201 0.77800006 4290281024
-0.23468661 0.042855818 0.78100002 4290412610
-0.23392364 0.042965565 0.78300005 4290543439
-0.23255965 0.042965565 0.78300005 4290609232
-0.27517155 0.042687714 0.75400001 4288048461
-0.2738581 0.042687714 0.75400001 4286732601
-0.27254462 0.042687714 0.75400001 4286731547
-0.27195063 0.042800944 0.75600004 4287455014
-0.2699177 0.042687714 0.75400001 4286995260
-0.26860425 0.042687714 0.75400001 4286468916
-0.26729074 0.042687714 0.75400001 4286796852
-0.26527181 0.042574484 0.75200003 4287323196
-0.26396179 0.042574484 0.75200003 4287519274
-0.2626518 0.042574484 0.75200003 4288177460
-0.26134184 0.042574484 0.75200003 4287456590
-0.26003185 0.042574484 0.75200003 4286206780
-0.25872186 0.042574484 0.75200003 4286598928
-0.25809646 0.042687714 0.75400001 4287256858
-0.25746414 0.042800944 0.75600004 4286665532
-0.25648603 0.042857558 0.75700003 4285941552
-0.25584149 0.042970791 0.75900006 4286204713
-0.25451931 0.042970791 0.75900006 4286402092
-0.25319713 0.042970791 0.75900006 4286401047
-0.25187495 0.042970791 0.75900006 4286137875
-0.25055274 0.042970791 0.75900006 4286663176
-0.2498873 0.043084022 0.76100004 4287781658
-0.24856164 0.043084022 0.76100004 4287914300
-0.247236 0.043084022 0.76100004 4287651127
-0.24623345 0.043140635 0.76200002 4289162820
-0.24490607 0.043140635 0.76200002 4290873437
-0.24421799 0.043253865 0.76400006 4290415201
-0.24288709 0.043253865 0.76400006 4290151773
-0.24218854 0.043367095 0.76600003 4290479963
-0.24116859 0.043423709 0.76700002 4290545756
-0.24045786 0.043536942 0.76900005 4290611283
-0.23723951 0.043933246 0.77600002 4290018115
-0.2364957 0.044046476 0.77800006 4290083909
-0.23574488 0.044159703 0.78000003 4290280772
-0.23468661 0.044216316 0.78100002 4290346565
-0.23392364 0.04432955 0.78300005 4290412108
-0.27458453 0.044117898 0.75600004 4288245063
-0.27326757 0.044117898 0.75600004 4287982648
-0.27195063 0.044117898 0.75600004 4288048441
-0.27063367 0.044117898 0.75600004 4287652942
-0.26860425 0.044001181 0.75400001 4287192391
-0.26729074 0.044001181 0.75400001 4287454796
-0.26597729 0.044001181 0.75400001 4287520589
-0.26536587 0.044117898 0.75600004 4287651146
-0.2640489 0.044117898 0.75600004 4288045904
-0.26273194 0.044117898 0.75600004 4287587651
-0.261415 0.044117898 0.75600004 4286468914
-0.26009807 0.044117898 0.75600004 4286599194
-0.25878108 0.044117898 0.75600004 4287059745
-0.25780469 0.044176254 0.75700003 4287125061
-0.25716367 0.044292971 0.75900006 4287059268
-0.25584149 0.044292971 0.75900006 4287256134
-0.25451931 0.044292971 0.75900006 4288506201
-0.25319713 0.044292971 0.75900006 4288770642
-0.25253862 0.044409681 0.76100004 4288704849
-0.25121298 0.044409681 0.76100004 4289032799
-0.25021568 0.044468038 0.76200002 4289295714
-0.24888827 0.044468038 0.76200002 4290020696
-0.24756087 0.044468038 0.76200002 4290415453
-0.24687977 0.044584755 0.76400006 4290414949
-0.24554886 0.044584755 0.76400006 4290283363
-0.24485728 0.044701468 0.76600003 4290479963
-0.24352293 0.044701468 0.76600003 4290414170
-0.24250473 0.044759821 0.76700002 4290610770
-0.24179746 0.044876538 0.76900005 4290676563
-0.24045786 0.044876538 0.76900005 4290741836
-0.24036208 0.045109969 0.77300006 4290347078
-0.2393247 0.045168322 0.77400005 4290281803
-0.23797639 0.045168322 0.77400005 4289952837
-0.23785098 0.045401752 0.77800006 4290018617
-0.23710364 0.045518465 0.78000003 4289821238
-0.23574488 0.045518465 0.78000003 4290082627
-0.23468661 0.045576818 0.78100002 4290345543
-0.23188636 0.046102032 0.79000002 4290215508
-0.23109373 0.046218749 0.79200006 4290150478
-0.23029417 0.046335462 0.79400003 4289887563
-0.26571688 0.045494948 0.75700003 4287914300
-0.26439816 0.045494948 0.75700003 4288177471
-0.26307946 0.045494948 0.75700003 4288048452
-0.2617608 0.045494948 0.75700003 4287127350
-0.26044211 0.045494948 0.75700003 4287519024
-0.25912338 0.045494948 0.75700003 4287782452
-0.25780469 0.045494948 0.75700003 4288439892
-0.25716367 0.045615148 0.75900006 4288110926
-0.25651562 0.045735344 0.76100004 4288437829
-0.25518996 0.045735344 0.76100004 4289885275
-0.25386429 0.045735344 0.76100004 4289690976
-0.25253862 0.045735344 0.76100004 4289559391
-0.25154307 0.045795444 0.76200002 4289887070
-0.25021568 0.045795444 0.76200002 4290084705
-0.24954154 0.045915641 0.76400006 4290282852
-0.24821064 0.045915641 0.76400006 4290545767
-0.24687977 0.045915641 0.76400006 4290348904
-0.24619167 0.046035841 0.76600003 4290151525
-0.24485728 0.046035841 0.76600003 4290413657
-0.24384083 0.046095937 0.76700002 4290413657
-0.24250473 0.046095937 0.76700002 4290806877
-0.24179746 0.046216138 0.76900005 4290938463
-0.24108323 0.046336334 0.77100003 4290872913
-0.24036208 0.046456534 0.77300006 4290675278
-0.2393247 0.046516631 0.77400005 4290478930
-0.23859131 0.046636827 0.77600002 4290149965
-0.23785098 0.046757028 0.77800006 4290215762
-0.23710364 0.046877228 0.78000003 4289623369
-0.23574488 0.046877228 0.78000003 4289621824
-0.23468661 0.04693732 0.78100002 4290345547
-0.23404469 0.047358017 0.78800005 4290412371
-0.23326252 0.047478214 0.79000002 4290282330
-0.23247342 0.047598414 0.79200006 4290085207
-0.23167732 0.047718611 0.79400003 4289887824
-0.23029417 0.047718611 0.79400003 4289887824
-0.22948763 0.047838811 0.79600006 4290083920
-0.26774108 0.046937324 0.75900006 4288441661
-0.2664189 0.046937324 0.75900006 4288836671
-0.26509675 0.046937324 0.75900006 4288968257
-0.26377454 0.046937324 0.75900006 4289033800
-0.26245236 0.046937324 0.75900006 4289099594
-0.26113018 0.046937324 0.75900006 4289100120
-0.259808 0.046937324 0.75900006 4289231706
-0.25848582 0.046937324 0.75900006 4289296998
-0.25784129 0.047061007 0.76100004 4289165411
-0.25651562 0.047061007 0.76100004 4289426523
-0.25518996 0.047061007 0.76100004 4289492316
-0.2541979 0.047122847 0.76200002 4289624406
-0.2528705 0.047122847 0.76200002 4289624406
-0.25154307 0.047122847 0.76200002 4289755222
-0.2508724 0.047246531 0.76400006 4289886809
-0.25019476 0.04737021 0.76600003 4290085207
-0.2488604 0.04737021 0.76600003 4290413916
-0.24752602 0.04737021 0.76600003 4290611059
-0.24651305 0.04743205 0.76700002 4290348143
-0.24517694 0.04743205 0.76700002 4290544977
-0.24447668 0.047555733 0.76900005 4290413134
-0.24376941 0.047679417 0.77100003 4290542937
-0.24242634 0.047679417 0.77100003 4290213973
-0.24170862 0.0478031 0.77300006 4289951305
-0.24036208 0.0478031 0.77300006 4289885512
-0.2393247 0.04786494 0.77400005 4289557576
-0.23920625 0.048112303 0.77800006 4289162818
-0.23846239 0.048235983 0.78000003 4289294156
-0.23710364 0.048235983 0.78000003 4289228363
-0.23604713 0.048297822 0.78100002 4289492303
-0.23511863 0.048668873 0.78700006 4289953619
-0.23404469 0.048730712 0.78800005 4289953619
-0.23326252 0.048854392 0.79000002 4289953619
-0.23188636 0.048854392 0.79000002 4289821777
-0.23167732 0.049101759 0.79400003 4290018127
-0.23087427 0.049225442 0.79600006 4290083920
-0.22948763 0.049225442 0.79600006 4290018377
-0.26712093 0.048386667 0.76100004 4288967503
-0.26579526 0.048386667 0.76100004 4289033297
-0.26446959 0.048386667 0.76100004 4289427273
-0.26314393 0.048386667 0.76100004 4289361480
-0.26181826 0.048386667 0.76100004 4289426256
-0.26049262 0.048386667 0.76100004 4289623634
-0.25916696 0.048386667 0.76100004 4289623130
-0.25818008 0.04845025 0.76200002 4289491801
-0.25685269 0.04845025 0.76200002 4289557076
-0.25552529 0.04845025 0.76200002 4289622869
-0.2541979 0.04845025 0.76200002 4289887324
-0.2535342 0.048577417 0.76400006 4289492566
-0.25220332 0.048577417 0.76400006 4289755474
-0.25152916 0.048704583 0.76600003 4289821267
-0.25019476 0.048704583 0.76600003 4290085459
-0.2488604 0.048704583 0.76600003 4290348375
-0.24752602 0.048704583 0.76600003 4290611047
-0.24651305 0.048768166 0.76700002 4290611047
-0.24581626 0.048895333 0.76900005 4290938463
-0.24511249 0.049022496 0.77100003 4290477912
-0.24440177 0.049149666 0.77300006 4290411606
-0.24305518 0.049149666 0.77300006 4290214227
-0.24170862 0.049149666 0.77300006 4289557830
-0.24067302 0.049213249 0.77400005 4289294658
-0.2393247 0.049213249 0.77400005 4289164103
-0.23920625 0.049467579 0.77800006 4288966724
-0.23846239 0.049594745 0.78000003 4289163081
-0.23740761 0.049658328 0.78100002 4289426510
-0.23604713 0.049658328 0.78100002 4289624656
-0.2358886 0.049912658 0.78500003 4289821779
-0.2354174 0.050103407 0.78800005 4289954650
-0.23404469 0.050103407 0.78800005 4289757271
-0.23326252 0.050230574 0.79000002 4289821779
-0.23188636 0.050230574 0.79000002 4289690449
-0.23167732 0.050484907 0.79400003 4289821006
-0.23087427 0.050612077 0.79600006 4289821006
-0.26614451 0.049777653 0.76200002 4288768844
-0.26481715 0.049777653 0.76200002 4289162568
-0.26348972 0.049777653 0.76200002 4289294410
-0.26181826 0.049712334 0.76100004 4289294919
-0.26049262 0.049712334 0.76100004 4289294919
-0.25916696 0.049712334 0.76100004 4289491281
-0.25818008 0.049777653 0.76200002 4289491281
-0.25752687 0.049908306 0.76400006 4289491281
-0.25619596 0.049908306 0.76400006 4289557074
-0.25486508 0.049908306 0.76400006 4289556812
-0.2541979 0.050038952 0.76600003 4289293384
-0.25286353 0.050038952 0.76600003 4289753676
-0.25152916 0.050038952 0.76600003 4289687882
-0.25052139 0.050104279 0.76700002 4289886781
-0.24918528 0.050104279 0.76700002 4290018367
-0.24784917 0.050104279 0.76700002 4290017613
-0.24779867 0.050365578 0.77100003 4289886027
-0.24645557 0.050365578 0.77100003 4289689166
-0.24574833 0.050496232 0.77300006 4289096773
-0.24440177 0.050496232 0.77300006 4288964662
-0.24336964 0.050561555 0.77400005 4288833076
