# .PCD v0.7 - Point Cloud Data file format
VERSION 0.7
FIELDS x y z rgba
SIZE 4 4 4 4
TYPE F F F U
COUNT 1 1 1 1
WIDTH 1021
HEIGHT 1
VIEWPOINT 0 0 0 1 0 0 0
POINTS 1021
DATA ascii
-0.032434303 -0.14557722 0.86600006 4287521343
-0.030925728 -0.14557722 0.86600006 4289363547
-0.029485095 -0.14591342 0.86800003 4289494824
-0.027973039 -0.14591342 0.86800003 4289955375
-0.026521955 -0.14624964 0.87000006 4289032254
-0.025063898 -0.14658584 0.87200004 4287124257
-0.023544874 -0.14658584 0.87200004 4287253791
-0.022152144 -0.14742634 0.87700003 4286661655
-0.02062441 -0.14742634 0.87700003 4287318830
-0.019140229 -0.14776257 0.87900007 4291793011
-0.01760901 -0.14776257 0.87900007 4291139426
-0.016114373 -0.14809875 0.88100004 4289955152
-0.06152048 -0.1450668 0.87200004 4285281551
-0.060001452 -0.1450668 0.87200004 4286133248
-0.058482431 -0.1450668 0.87200004 4287843598
-0.056832761 -0.14473408 0.87000006 4288111654
-0.055317219 -0.14473408 0.87000006 4288045861
-0.053801678 -0.14473408 0.87000006 4288046080
-0.052286137 -0.14473408 0.87000006 4288703745
-0.050653882 -0.14440137 0.86800003 4288049967
-0.049141824 -0.14440137 0.86800003 4286536985
-0.04762977 -0.14440137 0.86800003 4285419281
-0.046117712 -0.14440137 0.86800003 4284366593
-0.044605657 -0.14440137 0.86800003 4284629248
-0.043093599 -0.14440137 0.86800003 4284365824
-0.041581545 -0.14440137 0.86800003 4284101376
-0.040069487 -0.14440137 0.86800003 4284167168
-0.038557433 -0.14440137 0.86800003 4284232448
-0.037045375 -0.14440137 0.86800003 4285285133
-0.03553332 -0.14440137 0.86800003 4286337793
-0.034021262 -0.14440137 0.86800003 4288048411
-0.032509208 -0.14440137 0.86800003 4288902705
-0.031068573 -0.14473408 0.87000006 4289231413
-0.029620973 -0.1450668 0.87200004 4289493279
-0.028101945 -0.1450668 0.87200004 4290085416
-0.026674379 -0.1455659 0.87500006 4289164103
-0.025150128 -0.1455659 0.87500006 4286532127
-0.023679879 -0.14589861 0.87700003 4286793479
-0.022202663 -0.14623134 0.87900007 4286727686
-0.020671446 -0.14623134 0.87900007 4287318830
-0.019183777 -0.14656407 0.88100004 4292187769
-0.017649075 -0.14656407 0.88100004 4291534952
-0.075446904 -0.14700478 0.89300007 4288372564
-0.073725805 -0.14667554 0.89100003 4288837700
-0.072173685 -0.14667554 0.89100003 4288837700
-0.061873235 -0.14437088 0.87700003 4285414667
-0.060207885 -0.14404164 0.87500006 4286001424
-0.058482431 -0.14354779 0.87200004 4286264595
-0.056963407 -0.14354779 0.87200004 4287713797
-0.055317219 -0.14321855 0.87000006 4288832279
-0.053801678 -0.14321855 0.87000006 4288373504
-0.052286137 -0.14321855 0.87000006 4288439296
-0.050770596 -0.14321855 0.87000006 4288179477
-0.049141824 -0.14288931 0.86800003 4288705821
-0.04762977 -0.14288931 0.86800003 4287917632
-0.046117712 -0.14288931 0.86800003 4287654459
-0.044605657 -0.14288931 0.86800003 4287392256
-0.043093599 -0.14288931 0.86800003 4286273536
-0.041581545 -0.14288931 0.86800003 4286665221
-0.040161815 -0.14321855 0.87000006 4286599428
-0.038646273 -0.14321855 0.87000006 4287323157
-0.03721609 -0.14354779 0.87200004 4288310052
-0.035697069 -0.14354779 0.87200004 4288705544
-0.034178045 -0.14354779 0.87200004 4289824025
-0.03265902 -0.14354779 0.87200004 4289362211
-0.031139996 -0.14354779 0.87200004 4289098782
-0.029620973 -0.14354779 0.87200004 4289098271
-0.028101945 -0.14354779 0.87200004 4288703513
-0.026735349 -0.14437088 0.87700003 4288240671
-0.025207615 -0.14437088 0.87700003 4286793225
-0.023679879 -0.14437088 0.87700003 4286859033
-0.022202663 -0.14470012 0.87900007 4287056413
-0.020671446 -0.14470012 0.87900007 4288437314
-0.019183777 -0.14502935 0.88100004 4292450686
-0.017649075 -0.14502935 0.88100004 4291402306
-0.077174962 -0.14577493 0.89500004 4281991168
-0.075615875 -0.14577493 0.89500004 4288240975
-0.073891297 -0.14544918 0.89300007 4288576330
-0.072173685 -0.14512342 0.89100003 4288773452
-0.070621558 -0.14512342 0.89100003 4288969259
-0.062014338 -0.14316891 0.87900007 4285219101
-0.060345501 -0.14284314 0.87700003 4286065674
-0.058683634 -0.1425174 0.87500006 4286394383
-0.056963407 -0.14202876 0.87200004 4286919168
-0.055444382 -0.14202876 0.87200004 4288564246
-0.053801678 -0.14170301 0.87000006 4288635672
-0.052286137 -0.14170301 0.87000006 4288372243
-0.050770596 -0.14170301 0.87000006 4288109057
-0.049255054 -0.14170301 0.87000006 4288964623
-0.047739517 -0.14170301 0.87000006 4288703804
-0.046223976 -0.14170301 0.87000006 4288572218
-0.044708438 -0.14170301 0.87000006 4288441650
-0.043292187 -0.14202876 0.87200004 4288112428
-0.041773167 -0.14202876 0.87200004 4287322401
-0.040254142 -0.14202876 0.87200004 4287519524
-0.038735114 -0.14202876 0.87200004 4288503845
-0.03721609 -0.14202876 0.87200004 4289161775
-0.035697069 -0.14202876 0.87200004 4289229337
-0.034178045 -0.14202876 0.87200004 4289887268
-0.03265902 -0.14202876 0.87200004 4289493305
-0.031139996 -0.14202876 0.87200004 4289361718
-0.029620973 -0.14202876 0.87200004 4288968007
-0.028101945 -0.14202876 0.87200004 4287257390
-0.026735349 -0.14284314 0.87700003 4287057180
-0.025207615 -0.14284314 0.87700003 4286662422
-0.023733882 -0.14316891 0.87900007 4286660621
-0.022202663 -0.14316891 0.87900007 4287647773
-0.020671446 -0.14316891 0.87900007 4288899916
-0.019183777 -0.14349465 0.88100004 4292057723
-0.017649075 -0.14349465 0.88100004 4291336526
-0.075615875 -0.14421585 0.89500004 4286859845
-0.073891297 -0.14389358 0.89300007 4288706605
-0.07233569 -0.14389358 0.89300007 4289101363
-0.070621558 -0.1435713 0.89100003 4288903466
-0.063690141 -0.14195995 0.88100004 4290020414
-0.062155437 -0.14195995 0.88100004 4287586073
-0.060483117 -0.14163768 0.87900007 4286002482
-0.058951903 -0.14163768 0.87900007 4285871153
-0.057290029 -0.14131542 0.87700003 4286329887
-0.055635132 -0.14099315 0.87500006 4285869336
-0.054110881 -0.14099315 0.87500006 4287647232
-0.052406333 -0.14050974 0.87200004 4289028883
-0.050887309 -0.14050974 0.87200004 4288372765
-0.049368288 -0.14050974 0.87200004 4288240923
-0.04784926 -0.14050974 0.87200004 4288110618
-0.046330236 -0.14050974 0.87200004 4288044825
-0.044811212 -0.14050974 0.87200004 4288243472
-0.043292187 -0.14050974 0.87200004 4289164574
-0.041773167 -0.14050974 0.87200004 4288638513
-0.040254142 -0.14050974 0.87200004 4288506671
-0.038735114 -0.14050974 0.87200004 4288503050
-0.037344132 -0.14099315 0.87500006 4288305671
-0.035697069 -0.14050974 0.87200004 4289227520
-0.034178045 -0.14050974 0.87200004 4290477835
-0.032771379 -0.14099315 0.87500006 4289493557
-0.03124713 -0.14099315 0.87500006 4288243233
-0.029722881 -0.14099315 0.87500006 4287385659
-0.02819863 -0.14099315 0.87500006 4286266922
-0.026796319 -0.14163768 0.87900007 4286857516
-0.025265099 -0.14163768 0.87900007 4286857516
-0.023733882 -0.14163768 0.87900007 4286791689
-0.022253182 -0.14195995 0.88100004 4288963115
-0.02071848 -0.14195995 0.88100004 4288966751
-0.019249104 -0.14244336 0.88400006 4291795851
-0.017709173 -0.14244336 0.88400006 4291271501
-0.011732372 -0.14469925 0.89800006 4289825100
-0.010168055 -0.14469925 0.89800006 4290417237
-0.077433653 -0.14313494 0.89800006 4280090624
-0.075615875 -0.14265674 0.89500004 4286072902
-0.074056782 -0.14265674 0.89500004 4288048437
-0.07233569 -0.14233796 0.89300007 4289298503
-0.070780084 -0.14233796 0.89300007 4288969524
-0.069069438 -0.14201918 0.89100003 4288640560
-0.064051606 -0.14122221 0.88600004 4290153812
-0.062367093 -0.14090344 0.88400006 4288311608
-0.06062074 -0.14042525 0.88100004 4286729258
-0.059086036 -0.14042525 0.88100004 4285479447
-0.057420682 -0.14010647 0.87900007 4286068766
-0.055762298 -0.13978767 0.87700003 4285608215
-0.054110881 -0.13946889 0.87500006 4286657024
-0.05258663 -0.13946889 0.87500006 4288828438
-0.051062383 -0.13946889 0.87500006 4288241979
-0.049368288 -0.13899072 0.87200004 4287979064
-0.04784926 -0.13899072 0.87200004 4287913761
-0.046330236 -0.13899072 0.87200004 4287913761
-0.044811212 -0.13899072 0.87200004 4287847180
-0.043441132 -0.13946889 0.87500006 4287979023
-0.041916881 -0.13946889 0.87500006 4287847462
-0.04039263 -0.13946889 0.87500006 4287781669
-0.038868383 -0.13946889 0.87500006 4288304138
-0.037344132 -0.13946889 0.87500006 4289093654
-0.035819881 -0.13946889 0.87500006 4289095984
-0.03429563 -0.13946889 0.87500006 4289293363
-0.032846287 -0.13978767 0.87700003 4288637255
-0.031318549 -0.13978767 0.87700003 4287189809
-0.029790817 -0.13978767 0.87700003 4286463772
-0.028263083 -0.13978767 0.87700003 4286463772
-0.026796319 -0.14010647 0.87900007 4286986508
-0.025265099 -0.14010647 0.87900007 4287249681
-0.023787884 -0.14042525 0.88100004 4286792716
-0.022253182 -0.14042525 0.88100004 4290542917
-0.02071848 -0.14042525 0.88100004 4289627988
-0.019292653 -0.14122221 0.88600004 4291009641
-0.013296687 -0.14313494 0.89800006 4289626953
-0.011732372 -0.14313494 0.89800006 4290088271
-0.010190701 -0.14345372 0.90000004 4290417237
-0.077433653 -0.14157061 0.89800006 4280090624
-0.075869337 -0.14157061 0.89800006 4285809987
-0.07430502 -0.14157061 0.89800006 4288048172
-0.072497688 -0.14109766 0.89500004 4289627205
-0.070780084 -0.14078236 0.89300007 4289166656
-0.069224477 -0.14078236 0.89300007 4288771898
-0.065743089 -0.13999411 0.88800007 4290283863
-0.062508196 -0.13967881 0.88600004 4289691715
-0.060827166 -0.1393635 0.88400006 4288177208
-0.059086036 -0.13889055 0.88100004 4285348109
-0.057551332 -0.13889055 0.88100004 4286001937
-0.055889469 -0.13857526 0.87900007 4286265366
-0.054234561 -0.13825993 0.87700003 4286197272
-0.052706826 -0.13825993 0.87700003 4286131479
-0.051062383 -0.13794465 0.87500006 4286594330
-0.049538132 -0.13794465 0.87500006 4286923039
-0.048013881 -0.13794465 0.87500006 4286991122
-0.04648963 -0.13794465 0.87500006 4287780637
-0.044965383 -0.13794465 0.87500006 4287715342
-0.043441132 -0.13794465 0.87500006 4287715342
-0.041916881 -0.13794465 0.87500006 4288108042
-0.04039263 -0.13794465 0.87500006 4288173835
-0.038868383 -0.13794465 0.87500006 4287778827
-0.037429489 -0.13825993 0.87700003 4287713034
-0.035819881 -0.13794465 0.87500006 4287187481
-0.03429563 -0.13794465 0.87500006 4286595344
-0.032846287 -0.13825993 0.87700003 4286529035
-0.031318549 -0.13825993 0.87700003 4286463242
-0.029790817 -0.13825993 0.87700003 4286659885
-0.028263083 -0.13825993 0.87700003 4286857264
-0.026857287 -0.13889055 0.88100004 4287185938
-0.025322586 -0.13889055 0.88100004 4286922767
-0.023787884 -0.13889055 0.88100004 4287119639
-0.022328958 -0.1393635 0.88400006 4291067476
-0.020789031 -0.1393635 0.88400006 4290744655
-0.013296687 -0.14157061 0.89800006 4289627218
-0.011732372 -0.14157061 0.89800006 4290088019
-0.010190701 -0.14188592 0.90000004 4290548570
-0.0086420635 -0.14220122 0.90200007 4287591996
-0.077433653 -0.14000629 0.89800006 4280156160
-0.075869337 -0.14000629 0.89800006 4285744193
-0.07430502 -0.14000629 0.89800006 4287587890
-0.072740704 -0.14000629 0.89800006 4289627216
-0.07093861 -0.13953857 0.89500004 4289232962
-0.069379516 -0.13953857 0.89500004 4288706618
-0.06766887 -0.13922676 0.89300007 4289034048
-0.064196192 -0.13844721 0.88800007 4290413886
-0.062649302 -0.13844721 0.88800007 4290874437
-0.060827166 -0.13782357 0.88400006 4288837712
-0.059086036 -0.13735585 0.88100004 4285285146
-0.057551332 -0.13735585 0.88100004 4285870340
-0.055889469 -0.13704404 0.87900007 4286462477
-0.054358248 -0.13704404 0.87900007 4286199584
-0.052706826 -0.13673221 0.87700003 4285804826
-0.051179096 -0.13673221 0.87700003 4286001424
-0.049651358 -0.13673221 0.87700003 4285869838
-0.048123628 -0.13673221 0.87700003 4285936640
-0.04659589 -0.13673221 0.87700003 4286923520
-0.04506816 -0.13673221 0.87700003 4287123214
-0.043540422 -0.13673221 0.87700003 4287123214
-0.042012688 -0.13673221 0.87700003 4287646739
-0.040484957 -0.13673221 0.87700003 4287844119
-0.03895722 -0.13673221 0.87700003 4287515417
-0.037514847 -0.13704404 0.87900007 4286396936
-0.035901751 -0.13673221 0.87700003 4286134543
-0.034374017 -0.13673221 0.87700003 4285937164
-0.032921191 -0.13704404 0.87900007 4286199825
-0.031389974 -0.13704404 0.87900007 4286726169
-0.029858755 -0.13704404 0.87900007 4286923310
-0.028327538 -0.13704404 0.87900007 4287318067
-0.026948744 -0.13782357 0.88400006 4287121938
-0.025408816 -0.13782357 0.88400006 4286332678
-0.023868887 -0.13782357 0.88400006 4287185938
-0.022379475 -0.13813539 0.88600004 4291857241
-0.020836065 -0.13813539 0.88600004 4291008347
-0.014811357 -0.13953857 0.89500004 4289693261
-0.013296687 -0.14000629 0.89800006 4289759054
-0.011758502 -0.14031811 0.90000004 4290153812
-0.010213347 -0.14062993 0.90200007 4290614363
-0.075869337 -0.13844198 0.89800006 4285743678
-0.07430502 -0.13844198 0.89800006 4287323950
-0.072740704 -0.13844198 0.89800006 4289758291
-0.071176387 -0.13844198 0.89800006 4289298242
-0.069612071 -0.13844198 0.89800006 4288771898
-0.067820422 -0.13797948 0.89500004 4289099592
-0.066113263 -0.13767114 0.89300007 4289889107
-0.062649302 -0.13690032 0.88800007 4290744121
-0.060964782 -0.13659197 0.88600004 4289562175
-0.059287239 -0.13628365 0.88400006 4285680645
-0.057747304 -0.13628365 0.88400006 4285214474
-0.056016631 -0.13582115 0.88100004 4286003734
-0.054481927 -0.13582115 0.88100004 4286134309
-0.052827027 -0.13551281 0.87900007 4286068516
-0.051295809 -0.13551281 0.87900007 4286199319
-0.049651358 -0.13520446 0.87700003 4286001939
-0.048123628 -0.13520446 0.87700003 4286132744
-0.046702154 -0.13551281 0.87900007 4286724881
-0.045170937 -0.13551281 0.87900007 4286528535
-0.043639719 -0.13551281 0.87900007 4286133777
-0.042108502 -0.13551281 0.87900007 4286788630
-0.040577281 -0.13551281 0.87900007 4286985752
-0.039046064 -0.13551281 0.87900007 4286921485
-0.037514847 -0.13551281 0.87900007 4286987278
-0.03598363 -0.13551281 0.87900007 4286530334
-0.034452412 -0.13551281 0.87900007 4286530334
-0.032921191 -0.13551281 0.87900007 4286594342
-0.031389974 -0.13551281 0.87900007 4286660135
-0.029858755 -0.13551281 0.87900007 4286725165
-0.028391989 -0.13582115 0.88100004 4287119923
-0.026948744 -0.13628365 0.88400006 4286725888
-0.025408816 -0.13628365 0.88400006 4286397184
-0.023868887 -0.13628365 0.88400006 4287517225
-0.022379475 -0.13659197 0.88600004 4291859819
-0.019401528 -0.13736281 0.89100003 4290350410
-0.017889472 -0.13767114 0.89300007 4290877508
-0.016370445 -0.13797948 0.89500004 4290614079
-0.014861003 -0.13844198 0.89800006 4289955152
-0.013326301 -0.13875031 0.90000004 4290020946
-0.011784632 -0.13905865 0.90200007 4289956949
-0.010213347 -0.13905865 0.90200007 4290417500
-0.074636005 -0.13748737 0.90200007 4286929455
-0.072902709 -0.1371825 0.90000004 4289626712
-0.071334906 -0.1371825 0.90000004 4289231945
-0.069612071 -0.13687767 0.89800006 4288837187
-0.068047754 -0.13687767 0.89800006 4289231173
-0.066261336 -0.13642038 0.89500004 4289691724
-0.064557657 -0.13611554 0.89300007 4289823286
-0.062860951 -0.13581069 0.89100003 4290349631
-0.061102401 -0.13535342 0.88800007 4289235029
-0.059421364 -0.13504857 0.88600004 4285945379
-0.057877958 -0.13504857 0.88600004 4285675008
-0.056207381 -0.13474372 0.88400006 4285543680
-0.054481927 -0.13428643 0.88100004 4286002460
-0.052947223 -0.13428643 0.88100004 4285936666
-0.051295809 -0.1339816 0.87900007 4286066967
-0.049764592 -0.1339816 0.87900007 4286132760
-0.048233371 -0.1339816 0.87900007 4286330127
-0.046702154 -0.1339816 0.87900007 4286461714
-0.045170937 -0.1339816 0.87900007 4286461212
-0.043639719 -0.1339816 0.87900007 4286395419
-0.042108502 -0.1339816 0.87900007 4286788357
-0.040577281 -0.1339816 0.87900007 4286920200
-0.039046064 -0.1339816 0.87900007 4286854923
-0.037514847 -0.1339816 0.87900007 4287118094
-0.03598363 -0.1339816 0.87900007 4286725919
-0.034452412 -0.1339816 0.87900007 4286659870
-0.032921191 -0.1339816 0.87900007 4286853653
-0.031389974 -0.1339816 0.87900007 4286590481
-0.029926691 -0.13428643 0.88100004 4286656512
-0.028391989 -0.13428643 0.88100004 4287446016
-0.026948744 -0.13474372 0.88400006 4286530560
-0.025408816 -0.13474372 0.88400006 4287385600
-0.023922889 -0.13504857 0.88600004 4288177206
-0.022429995 -0.13535342 0.88800007 4291072354
-0.021000683 -0.13611554 0.89300007 4290679112
-0.019445077 -0.13611554 0.89300007 4290613318
-0.017889472 -0.13611554 0.89300007 4291205206
-0.016425321 -0.13687767 0.89800006 4290810448
-0.014894101 -0.1371825 0.90000004 4290020946
-0.013326301 -0.1371825 0.90000004 4289955152
-0.011784632 -0.13748737 0.90200007 4289891156
-0.010213347 -0.13748737 0.90200007 4290549086
-0.074636005 -0.13591608 0.90200007 4286469432
-0.073064722 -0.13591608 0.90200007 4289693289
-0.071334906 -0.13561472 0.90000004 4289364049
-0.06976711 -0.13561472 0.90000004 4288903498
-0.068047754 -0.13531335 0.89800006 4289100357
-0.066261336 -0.13486131 0.89500004 4289560908
-0.064557657 -0.13455994 0.89300007 4289691705
-0.063002057 -0.13455994 0.89300007 4289888828
-0.061308824 -0.13425857 0.89100003 4289365330
-0.059555504 -0.13380653 0.88800007 4288773193
-0.058008607 -0.13380653 0.88800007 4286992959
-0.056334544 -0.13350515 0.88600004 4286269493
-0.05479113 -0.13350515 0.88600004 4286002732
-0.053127524 -0.13320379 0.88400006 4285739816
-0.051412523 -0.13275173 0.88100004 4285605648
-0.049877822 -0.13275173 0.88100004 4285671441
-0.048343118 -0.13275173 0.88100004 4285867780
-0.046808414 -0.13275173 0.88100004 4285933573
-0.045273714 -0.13275173 0.88100004 4286130184
-0.043739013 -0.13275173 0.88100004 4286130184
-0.042108502 -0.13245039 0.87900007 4286326016
-0.040577281 -0.13245039 0.87900007 4286457600
-0.039134905 -0.13275173 0.88100004 4286326016
-0.037600204 -0.13275173 0.88100004 4286654720
-0.0360655 -0.13275173 0.88100004 4286130947
-0.034530796 -0.13275173 0.88100004 4286065154
-0.032996099 -0.13275173 0.88100004 4286523423
-0.031461395 -0.13275173 0.88100004 4287444525
-0.029926691 -0.13275173 0.88100004 4287910144
-0.028488673 -0.13320379 0.88400006 4289818385
-0.027009714 -0.13350515 0.88600004 4290546451
-0.025466301 -0.13350515 0.88600004 4291664932
-0.02397689 -0.13380653 0.88800007 4291139424
-0.022505771 -0.13425857 0.89100003 4290678873
-0.021047717 -0.13486131 0.89500004 4290612807
-0.019488627 -0.13486131 0.89500004 4290809930
-0.017929537 -0.13486131 0.89500004 4291008315
-0.016425321 -0.13531335 0.89800006 4290810679
-0.014894101 -0.13561472 0.90000004 4289955404
-0.013326301 -0.13561472 0.90000004 4289889611
-0.011784632 -0.13591608 0.90200007 4289891408
-0.010213347 -0.13591608 0.90200007 4290549338
-0.071493432 -0.1343448 0.90200007 4289102146
-0.06976711 -0.13404691 0.90000004 4288641595
-0.068199307 -0.13404691 0.90000004 4288838456
-0.066483438 -0.13374904 0.89800006 4289364800
-0.064702243 -0.13330221 0.89500004 4289299005
-0.063143149 -0.13330221 0.89500004 4289299005
-0.061446443 -0.13300434 0.89300007 4289627207
-0.059756704 -0.13270645 0.89100003 4289232449
-0.058008607 -0.13225962 0.88800007 4289034550
-0.05646171 -0.13225962 0.88800007 4287192602
-0.05479113 -0.13196175 0.88600004 4287387161
-0.053127524 -0.13166387 0.88400006 4286334473
-0.051587597 -0.13166387 0.88400006 4285674240
-0.049877822 -0.13121703 0.88100004 4285410816
-0.048343118 -0.13121703 0.88100004 4285473792
-0.046808414 -0.13121703 0.88100004 4285408000
-0.045273714 -0.13121703 0.88100004 4285734912
-0.043739013 -0.13121703 0.88100004 4285800960
-0.042204309 -0.13121703 0.88100004 4285603328
-0.040669605 -0.13121703 0.88100004 4285734912
-0.039134905 -0.13121703 0.88100004 4285931264
-0.037728239 -0.13166387 0.88400006 4286326016
-0.036188316 -0.13166387 0.88400006 4286195968
-0.034648385 -0.13166387 0.88400006 4286985216
-0.032996099 -0.13121703 0.88100004 4287514880
-0.031461395 -0.13121703 0.88100004 4287514880
-0.0300286 -0.13166387 0.88400006 4289357330
-0.028488673 -0.13166387 0.88400006 4291199534
-0.027070682 -0.13225962 0.88800007 4291071821
-0.025523787 -0.13225962 0.88800007 4291992923
-0.024057893 -0.13270645 0.89100003 4291862900
-0.02255629 -0.13300434 0.89300007 4290283867
-0.021118268 -0.13374904 0.89800006 4289953839
-0.019488627 -0.13330221 0.89500004 4291006527
-0.017929537 -0.13330221 0.89500004 4290876758
-0.016461903 -0.13404691 0.90000004 4290744916
-0.014894101 -0.13404691 0.90000004 4289955404
-0.013355916 -0.1343448 0.90200007 4289823818
-0.011823826 -0.13479161 0.90500003 4289759304
-0.073307723 -0.13321511 0.90500003 4289951109
-0.071493432 -0.13277352 0.90200007 4289364015
-0.069922149 -0.13277352 0.90200007 4289232429
-0.068199307 -0.13247912 0.90000004 4289100105
-0.066483438 -0.13218471 0.89800006 4289429069
-0.064919122 -0.13218471 0.89800006 4289430075
-0.063354805 -0.13218471 0.89800006 4289101111
-0.061584059 -0.13174312 0.89500004 4289430075
-0.059756704 -0.13115433 0.89100003 4289627455
-0.058204584 -0.13115433 0.89100003 4289693250
-0.05646171 -0.13071273 0.88800007 4290219594
-0.054914813 -0.13071273 0.88800007 4289957212
-0.05324772 -0.13041833 0.88600004 4289957212
-0.051587597 -0.13012393 0.88400006 4289627455
-0.050047666 -0.13012393 0.88400006 4289166904
-0.048507739 -0.13012393 0.88400006 4289230132
-0.046967812 -0.13012393 0.88400006 4288769581
-0.045427881 -0.13012393 0.88400006 4288900152
-0.043887954 -0.13012393 0.88400006 4289031481
-0.042348024 -0.13012393 0.88400006 4288900665
-0.0408081 -0.13012393 0.88400006 4288703286
-0.03926817 -0.13012393 0.88400006 4289230121
-0.037813596 -0.13041833 0.88600004 4289624623
-0.036270186 -0.13041833 0.88600004 4289691705
-0.034648385 -0.13012393 0.88400006 4290941516
-0.033108454 -0.13012393 0.88400006 4290482512
-0.031568527 -0.13012393 0.88400006 4290416718
-0.030096537 -0.13041833 0.88600004 4290481204
-0.028617579 -0.13071273 0.88800007 4290481204
-0.027162138 -0.13115433 0.89100003 4290084914
-0.025610017 -0.13115433 0.89100003 4290084914
-0.024111897 -0.13144872 0.89300007 4290019914
-0.022606809 -0.13174312 0.89500004 4289822279
-0.021118268 -0.13218471 0.89800006 4289756465
-0.019553952 -0.13218471 0.89800006 4291006276
-0.017989635 -0.13218471 0.89800006 4291138911
-0.016461903 -0.13247912 0.90000004 4291007324
-0.014927199 -0.13277352 0.90200007 4290283854
-0.013400336 -0.13321511 0.90500003 4290152268
-0.011823826 -0.13321511 0.90500003 4290088269
-0.07173121 -0.1316386 0.90500003 4288968996
-0.069922149 -0.13120224 0.90200007 4289232167
-0.068350866 -0.13120224 0.90200007 4289034802
-0.066631503 -0.13091131 0.90000004 4289495353
-0.065063708 -0.13091131 0.90000004 4289560656
-0.063354805 -0.13062039 0.89800006 4289429069
-0.061790489 -0.13062039 0.89800006 4289035066
-0.059890836 -0.12989312 0.89300007 4289035066
-0.058204584 -0.12960221 0.89100003 4288837941
-0.05646171 -0.12916583 0.88800007 4289693250
-0.054914813 -0.12916583 0.88800007 4289694043
-0.053367916 -0.12916583 0.88800007 4289957214
-0.05170431 -0.12887491 0.88600004 4290219353
-0.050160896 -0.12887491 0.88600004 4289956438
-0.048617482 -0.12887491 0.88600004 4290153312
-0.047074072 -0.12887491 0.88600004 4289824348
-0.045530658 -0.12887491 0.88600004 4289954902
-0.043987248 -0.12887491 0.88600004 4289889109
-0.042443834 -0.12887491 0.88600004 4289888855
-0.04090042 -0.12887491 0.88600004 4289494353
-0.03935701 -0.12887491 0.88600004 4289625408
-0.037898958 -0.12916583 0.88800007 4289625408
-0.036352061 -0.12916583 0.88800007 4290020679
-0.034805164 -0.12916583 0.88800007 4290744403
-0.033258267 -0.12916583 0.88800007 4290089564
-0.031711373 -0.12916583 0.88800007 4289694806
-0.030164476 -0.12916583 0.88800007 4289167417
-0.028714262 -0.12960221 0.89100003 4289167417
-0.02722311 -0.12989312 0.89300007 4289100327
-0.025667502 -0.12989312 0.89300007 4289297963
-0.022682585 -0.13062039 0.89800006 4289691717
-0.021165302 -0.13091131 0.90000004 4289691705
-0.019597501 -0.13091131 0.90000004 4291467860
-0.018029701 -0.13091131 0.90000004 4291469409
-0.016498484 -0.13120224 0.90200007 4290877271
-0.014976846 -0.1316386 0.90500003 4290414670
-0.013400336 -0.1316386 0.90500003 4290283084
-0.011849957 -0.13192952 0.90700006 4290152002
-0.073631734 -0.13063695 0.90900004 4287590491
-0.071889736 -0.13034953 0.90700006 4288573458
-0.070154704 -0.13006209 0.90500003 4289691683
-0.068350866 -0.12963095 0.90200007 4289428297
-0.066631503 -0.12934351 0.90000004 4290349399
-0.065063708 -0.12934351 0.90000004 4290021198
-0.063495904 -0.12934351 0.90000004 4289691976
-0.061790489 -0.1290561 0.89800006 4289232460
-0.059890836 -0.12833752 0.89300007 4288837702
-0.058335233 -0.12833752 0.89300007 4288640558
-0.056652457 -0.12805007 0.89100003 4288772400
-0.055100337 -0.12805007 0.89100003 4288771655
-0.053367916 -0.12761894 0.88800007 4288640069
-0.051821023 -0.12761894 0.88800007 4288771396
-0.050274126 -0.12761894 0.88800007 4288639554
-0.048727229 -0.12761894 0.88800007 4288901951
-0.047074072 -0.1273315 0.88600004 4288967744
-0.045530658 -0.1273315 0.88600004 4288836408
-0.044086542 -0.12761894 0.88800007 4288836408
-0.042443834 -0.1273315 0.88600004 4288836158
-0.04090042 -0.1273315 0.88600004 4288836158
-0.039445851 -0.12761894 0.88800007 4288770101
-0.037898958 -0.12761894 0.88800007 4288770101
-0.036352061 -0.12761894 0.88800007 4288770862
-0.034805164 -0.12761894 0.88800007 4288968498
-0.033258267 -0.12761894 0.88800007 4288968772
-0.031711373 -0.12761894 0.88800007 4288837187
-0.030266382 -0.12805007 0.89100003 4288969009
-0.028714262 -0.12805007 0.89100003 4289297974
-0.02722311 -0.12833752 0.89300007 4289100618
-0.025724988 -0.12862493 0.89500004 4289298253
-0.024246901 -0.1290561 0.89800006 4289693513
-0.022733102 -0.12934351 0.90000004 4289561671
-0.021165302 -0.12934351 0.90000004 4290020946
-0.019641053 -0.12963095 0.90200007 4291336805
-0.018069768 -0.12963095 0.90200007 4291272003
-0.016553357 -0.13006209 0.90500003 4290811452
-0.015009945 -0.13034953 0.90700006 4290546258
-0.01342995 -0.13034953 0.90700006 4290282830
-0.011876086 -0.13063695 0.90900004 4289888826
-0.073874742 -0.12947939 0.91200006 4286999176
-0.072048254 -0.12905347 0.90900004 4288243712
-0.070309743 -0.12876952 0.90700006 4289625365
-0.068578191 -0.12848558 0.90500003 4289558570
-0.066779576 -0.12805967 0.90200007 4290676795
-0.065208293 -0.12805967 0.90200007 4290152268
-0.063495904 -0.12777571 0.90000004 4290020425
-0.061928108 -0.12777571 0.90000004 4289364551
-0.058335233 -0.1267819 0.89300007 4288903748
-0.056652457 -0.12649795 0.89100003 4288640319
-0.055100337 -0.12649795 0.89100003 4288771128
-0.053548217 -0.12649795 0.89100003 4288836921
-0.051996093 -0.12649795 0.89100003 4288770374
-0.05044397 -0.12649795 0.89100003 4288639045
-0.048727229 -0.12607205 0.88800007 4288574015
-0.047180332 -0.12607205 0.88800007 4288574015
-0.045633439 -0.12607205 0.88800007 4288508471
-0.044086542 -0.12607205 0.88800007 4288574265
-0.042539645 -0.12607205 0.88800007 4288376636
-0.040992748 -0.12607205 0.88800007 4288508221
-0.039445851 -0.12607205 0.88800007 4288442947
-0.038026992 -0.12649795 0.89100003 4288377153
-0.036474872 -0.12649795 0.89100003 4288771128
-0.034805164 -0.12607205 0.88800007 4288836921
-0.033258267 -0.12607205 0.88800007 4288836656
-0.031818505 -0.12649795 0.89100003 4289165620
-0.030266382 -0.12649795 0.89100003 4289101111
-0.028714262 -0.12649795 0.89100003 4289101111
-0.027284078 -0.12706585 0.89500004 4288970045
-0.025811218 -0.12749177 0.89800006 4289627718
-0.024300903 -0.12777571 0.90000004 4289628750
-0.022733102 -0.12777571 0.90000004 4289365834
-0.021212338 -0.12805967 0.90200007 4289890393
-0.019641053 -0.12805967 0.90200007 4291008617
-0.018069768 -0.12805967 0.90200007 4291272266
-0.016553357 -0.12848558 0.90500003 4290877508
-0.015009945 -0.12876952 0.90700006 4290481230
-0.01342995 -0.12876952 0.90700006 4290218059
-0.011876086 -0.12905347 0.90900004 4289757480
-0.07228604 -0.12789069 0.91200006 4288111624
-0.070464775 -0.12746999 0.90900004 4289624863
-0.068729743 -0.12718953 0.90700006 4289427765
-0.067001686 -0.12690906 0.90500003 4290217025
-0.065208293 -0.12648839 0.90200007 4290152506
-0.063637011 -0.12648839 0.90200007 4290349629
-0.061928108 -0.12620792 0.90000004 4289495367
-0.060226172 -0.12592745 0.89800006 4289495367
-0.058661859 -0.12592745 0.89800006 4289101644
-0.056906793 -0.12550676 0.89500004 4288969802
-0.0553477 -0.12550676 0.89500004 4289101626
-0.053668413 -0.1252263 0.89300007 4289430592
-0.051996093 -0.12494583 0.89100003 4288837199
-0.05044397 -0.12494583 0.89100003 4288705612
-0.04889185 -0.12494583 0.89100003 4288771657
-0.047339726 -0.12494583 0.89100003 4288771657
-0.045787603 -0.12494583 0.89100003 4288640071
-0.044235483 -0.12494583 0.89100003 4288640071
-0.042683359 -0.12494583 0.89100003 4288574015
-0.041131239 -0.12494583 0.89100003 4288705601
-0.039579116 -0.12494583 0.89100003 4288640587
-0.038026992 -0.12494583 0.89100003 4288574794
-0.036474872 -0.12494583 0.89100003 4288837191
-0.034922749 -0.12494583 0.89100003 4289626451
-0.033370625 -0.12494583 0.89100003 4289430073
-0.031818505 -0.12494583 0.89100003 4289298744
-0.03040226 -0.12550676 0.89500004 4289495367
-0.028843168 -0.12550676 0.89500004 4289561160
-0.027375534 -0.12592745 0.89800006 4289364547
-0.025868703 -0.12620792 0.90000004 4289825097
-0.024300903 -0.12620792 0.90000004 4289628488
-0.022783622 -0.12648839 0.90200007 4289562695
-0.021212338 -0.12648839 0.90200007 4289824346
-0.019706376 -0.12690906 0.90500003 4290745448
-0.018169934 -0.12718953 0.90700006 4290943051
-0.01662652 -0.12746999 0.90900004 4290943051
-0.015043042 -0.12746999 0.90900004 4290481746
-0.013459565 -0.12746999 0.90900004 4290350160
-0.07228604 -0.12630199 0.91200006 4288571139
-0.070464775 -0.12588651 0.90900004 4289755670
-0.068881296 -0.12588651 0.90900004 4289296173
-0.067149758 -0.12560955 0.90700006 4290020153
-0.065425172 -0.12533255 0.90500003 4290020927
-0.063848659 -0.12533255 0.90500003 4290086720
-0.062065724 -0.1249171 0.90200007 4289364551
-0.060360305 -0.12464011 0.90000004 4289364551
-0.058661859 -0.12436314 0.89800006 4289167435
-0.057097539 -0.12436314 0.89800006 4288970056
-0.055533223 -0.12436314 0.89800006 4289036610
-0.05378861 -0.12394767 0.89500004 4289168453
-0.05211281 -0.1236707 0.89300007 4288838214
-0.05044397 -0.12339371 0.89100003 4288706884
-0.04889185 -0.12339371 0.89100003 4288837700
-0.047339726 -0.12339371 0.89100003 4288903750
-0.045787603 -0.12339371 0.89100003 4288903496
-0.044235483 -0.12339371 0.89100003 4288771909
-0.042683359 -0.12339371 0.89100003 4288574505
-0.041131239 -0.12339371 0.89100003 4288969007
-0.039579116 -0.12339371 0.89100003 4288903498
-0.038026992 -0.12339371 0.89100003 4288705862
-0.036556747 -0.1236707 0.89300007 4288837187
-0.03500114 -0.1236707 0.89300007 4289231945
-0.033445533 -0.1236707 0.89300007 4289495866
-0.031889927 -0.1236707 0.89300007 4289561660
-0.030504167 -0.12436314 0.89800006 4289691215
-0.028939849 -0.12436314 0.89800006 4289428043
-0.027436504 -0.12464011 0.90000004 4289559865
-0.025868703 -0.12464011 0.90000004 4289691451
-0.024354905 -0.1249171 0.90200007 4289429562
-0.022783622 -0.1249171 0.90200007 4289824064
-0.021282887 -0.12533255 0.90500003 4289758804
-0.019706376 -0.12533255 0.90500003 4290679906
-0.018169934 -0.12560955 0.90700006 4290942029
-0.01662652 -0.12588651 0.90900004 4291073871
-0.015043042 -0.12588651 0.90900004 4290482252
-0.013503985 -0.12630199 0.91200006 4290021701
-0.072048254 -0.12430304 0.90900004 4288112640
-0.070464775 -0.12430304 0.90900004 4289823512
-0.068881296 -0.12430304 0.90900004 4289232458
-0.067149758 -0.12402955 0.90700006 4289561423
-0.065569758 -0.12402955 0.90700006 4289823803
-0.063848659 -0.12375605 0.90500003 4289889596
-0.06227215 -0.12375605 0.90500003 4289495367
-0.060494442 -0.12334581 0.90200007 4289429573
-0.058792505 -0.12307231 0.90000004 4289166665
-0.057224706 -0.12307231 0.90000004 4288377149
-0.055533223 -0.12279882 0.89800006 4288837700
-0.05378861 -0.12238857 0.89500004 4289364045
-0.05222952 -0.12238857 0.89500004 4288903466
-0.050557204 -0.12211508 0.89300007 4288969259
-0.049001593 -0.12211508 0.89300007 4288838454
-0.047339726 -0.12184159 0.89100003 4288904247
-0.045787603 -0.12184159 0.89100003 4288904497
-0.044334777 -0.12211508 0.89300007 4288707118
-0.042779174 -0.12211508 0.89300007 4288639524
-0.041223563 -0.12211508 0.89300007 4289429297
-0.039756797 -0.12238857 0.89500004 4288836158
-0.038197711 -0.12238857 0.89500004 4288309558
-0.036761429 -0.12279882 0.89800006 4288833587
-0.035197116 -0.12279882 0.89800006 4289359931
-0.033632796 -0.12279882 0.89800006 4289428277
-0.03206848 -0.12279882 0.89800006 4290612807
-0.030504167 -0.12279882 0.89800006 4289757008
-0.028939849 -0.12279882 0.89800006 4289296457
-0.027436504 -0.12307231 0.90000004 4289362481
-0.025926189 -0.12334581 0.90200007 4289560117
-0.024354905 -0.12334581 0.90200007 4289626955
-0.022783622 -0.12334581 0.90200007 4289889870
-0.021282887 -0.12375605 0.90500003 4290152025
-0.019749926 -0.12402955 0.90700006 4290810211
-0.018169934 -0.12402955 0.90700006 4291271751
-0.01662652 -0.12430304 0.90900004 4291469129
-0.015043042 -0.12430304 0.90900004 4290548559
-0.013503985 -0.12471328 0.91200006 4289956165
-0.072048254 -0.12271956 0.90900004 4287850505
-0.070464775 -0.12271956 0.90900004 4289495074
-0.068881296 -0.12271956 0.90900004 4289233214
-0.067297824 -0.12271956 0.90900004 4289627716
-0.065569758 -0.12244955 0.90700006 4289889598
-0.063989766 -0.12244955 0.90700006 4290086720
-0.06227215 -0.12217954 0.90500003 4289561160
-0.060695644 -0.12217954 0.90500003 4289495367
-0.059119128 -0.12217954 0.90500003 4289297470
-0.057224706 -0.12150451 0.90000004 4288508210
-0.055656906 -0.12150451 0.90000004 4289098030
-0.05396891 -0.1212345 0.89800006 4289558581
-0.05222952 -0.12082949 0.89500004 4288837162
-0.05067043 -0.12082949 0.89500004 4288771112
-0.049275961 -0.1212345 0.89800006 4288507427
-0.04755225 -0.12082949 0.89500004 4288770599
-0.04599316 -0.12082949 0.89500004 4289166906
-0.044434071 -0.12082949 0.89500004 4289035063
-0.043018695 -0.1212345 0.89800006 4288047114
-0.041454379 -0.1212345 0.89800006 4288507665
-0.039890066 -0.1212345 0.89800006 4288833312
-0.038325746 -0.1212345 0.89800006 4288767519
-0.036761429 -0.1212345 0.89800006 4288898335
-0.035197116 -0.1212345 0.89800006 4289490728
-0.033632796 -0.1212345 0.89800006 4289492525
-0.03206848 -0.1212345 0.89800006 4290479420
-0.030572103 -0.12150451 0.90000004 4289888326
-0.029004304 -0.12150451 0.90000004 4289559361
-0.027497472 -0.12177453 0.90200007 4289494322
-0.025926189 -0.12177453 0.90200007 4290020666
-0.024354905 -0.12177453 0.90200007 4289825100
-0.022859396 -0.12217954 0.90500003 4289759306
-0.021282887 -0.12217954 0.90500003 4290152529
-0.019749926 -0.12244955 0.90700006 4291205217
-0.018209999 -0.12271956 0.90900004 4291271501
-0.01662652 -0.12271956 0.90900004 4291468879
-0.01509269 -0.12312458 0.91200006 4290942799
-0.07228604 -0.12153587 0.91200006 4288244507
-0.070697337 -0.12153587 0.91200006 4289560367
-0.069108628 -0.12153587 0.91200006 4289167185
-0.067297824 -0.12113608 0.90900004 4289627736
-0.065714344 -0.12113608 0.90900004 4290021179
-0.063989766 -0.12086956 0.90700006 4290152765
-0.062409773 -0.12086956 0.90700006 4289627207
-0.060829777 -0.12086956 0.90700006 4289495365
-0.059119128 -0.12060303 0.90500003 4289035595
-0.057542622 -0.12060303 0.90500003 4288641093
-0.055780593 -0.12020324 0.90200007 4288837191
-0.054089107 -0.11993672 0.90000004 4289165900
-0.052404594 -0.11967019 0.89800006 4289231927
-0.050840277 -0.11967019 0.89800006 4289231927
-0.049275961 -0.11967019 0.89800006 4288770626
-0.047711644 -0.11967019 0.89800006 4288507454
-0.046147328 -0.11967019 0.89800006 4289101111
-0.044583011 -0.11967019 0.89800006 4289956419
-0.043018695 -0.11967019 0.89800006 4289100346
-0.041454379 -0.11967019 0.89800006 4289034552
-0.039890066 -0.11967019 0.89800006 4289034550
-0.038325746 -0.11967019 0.89800006 4289034550
-0.036761429 -0.11967019 0.89800006 4289032506
-0.035275504 -0.11993672 0.90000004 4289163835
-0.033707704 -0.11993672 0.90000004 4289230146
-0.032139905 -0.11993672 0.90000004 4289953869
-0.030572103 -0.11993672 0.90000004 4289429821
-0.029004304 -0.11993672 0.90000004 4289429821
-0.027497472 -0.12020324 0.90200007 4289495614
-0.025926189 -0.12020324 0.90200007 4289956165
-0.024354905 -0.12020324 0.90200007 4289890626
-0.022859396 -0.12060303 0.90500003 4290022213
-0.021329923 -0.12086956 0.90700006 4290218574
-0.019793477 -0.12113608 0.90900004 4291271262
-0.018209999 -0.12113608 0.90900004 4291271230
-0.016681394 -0.12153587 0.91200006 4291205437
-0.01509269 -0.12153587 0.91200006 4290810700
-0.07228604 -0.11994717 0.91200006 4288572707
-0.070852369 -0.12021021 0.91400003 4289493809
-0.069108628 -0.11994717 0.91200006 4289100357
-0.067519926 -0.11994717 0.91200006 4289758543
-0.065714344 -0.1195526 0.90900004 4289889598
-0.064130865 -0.1195526 0.90900004 4290086720
-0.062547386 -0.1195526 0.90900004 4289759043
-0.060829777 -0.11928957 0.90700006 4289890372
-0.059249781 -0.11928957 0.90700006 4289167685
-0.057669789 -0.11928957 0.90700006 4288246583
-0.055966113 -0.11902651 0.90500003 4288771644
-0.0543896 -0.11902651 0.90500003 4289166402
-0.052521307 -0.11836892 0.90000004 4289100849
-0.050953507 -0.11836892 0.90000004 4289232179
-0.049275961 -0.11810587 0.89800006 4289034562
-0.047711644 -0.11810587 0.89800006 4288837439
-0.046147328 -0.11810587 0.89800006 4289034802
-0.044583011 -0.11810587 0.89800006 4289363767
-0.043018695 -0.11810587 0.89800006 4289231947
-0.041454379 -0.11810587 0.89800006 4289100105
-0.039978903 -0.11836892 0.90000004 4289035066
-0.038411103 -0.11836892 0.90000004 4288969272
-0.036843304 -0.11836892 0.90000004 4288771376
-0.035275504 -0.11836892 0.90000004 4288969011
-0.033707704 -0.11836892 0.90000004 4289363515
-0.032139905 -0.11836892 0.90000004 4289429308
-0.030572103 -0.11836892 0.90000004 4289298753
-0.029068759 -0.11863196 0.90200007 4289298753
-0.027497472 -0.11863196 0.90200007 4289561410
-0.026012419 -0.11902651 0.90500003 4289759045
-0.024435908 -0.11902651 0.90500003 4289693250
-0.022909915 -0.11928957 0.90700006 4290022215
-0.021376956 -0.1195526 0.90900004 4290284365
-0.019793477 -0.1195526 0.90900004 4291271260
-0.0182701 -0.11994717 0.91200006 4291402823
-0.016681394 -0.11994717 0.91200006 4291402823
-0.072444558 -0.11861802 0.91400003 4288508456
-0.069260187 -0.11861802 0.91400003 4289363799
-0.067667998 -0.11861802 0.91400003 4289758300
-0.065931223 -0.11835847 0.91200006 4290086974
-0.064130865 -0.11796913 0.90900004 4290284354
-0.062547386 -0.11796913 0.90900004 4289890622
-0.06096391 -0.11796913 0.90900004 4289956671
-0.059249781 -0.11770956 0.90700006 4288969802
-0.057669789 -0.11770956 0.90700006 4287456563
-0.056089792 -0.11770956 0.90700006 4289100098
-0.0543896 -0.11745001 0.90500003 4290415701
-0.05281309 -0.11745001 0.90500003 4290020655
-0.051066738 -0.11706068 0.90200007 4289691433
-0.049385704 -0.11680111 0.90000004 4289100357
-0.047817905 -0.11680111 0.90000004 4289034564
-0.046250105 -0.11680111 0.90000004 4289034550
-0.044682305 -0.11680111 0.90000004 4289231929
-0.043114506 -0.11680111 0.90000004 4289558870
-0.041546702 -0.11680111 0.90000004 4289230162
-0.039978903 -0.11680111 0.90000004 4289362234
-0.038411103 -0.11680111 0.90000004 4289362234
-0.036843304 -0.11680111 0.90000004 4289361716
-0.035275504 -0.11680111 0.90000004 4290019903
-0.033707704 -0.11680111 0.90000004 4289034052
-0.032211326 -0.11706068 0.90200007 4288639295
-0.030640041 -0.11706068 0.90200007 4288970054
-0.029165437 -0.11745001 0.90500003 4289167689
-0.027588928 -0.11745001 0.90500003 4289495614
-0.026012419 -0.11745001 0.90500003 4289561664
-0.024489911 -0.11770956 0.90700006 4289693259
-0.022960434 -0.11796913 0.90900004 4290417239
-0.021376956 -0.11796913 0.90900004 4290482252
-0.019858802 -0.11835847 0.91200006 4291205719
-0.0182701 -0.11835847 0.91200006 4291402571
-0.016681394 -0.11835847 0.91200006 4291665486
-0.066075809 -0.11702583 0.91400003 4290086722
-0.064342521 -0.11676976 0.91200006 4290350151
-0.062547386 -0.11638564 0.90900004 4289760071
-0.06096391 -0.11638564 0.90900004 4289628486
-0.059249781 -0.11612958 0.90700006 4288839238
-0.057669789 -0.11612958 0.90700006 4288641602
-0.056089792 -0.11612958 0.90700006 4289560117
-0.0545098 -0.11612958 0.90700006 4290349377
-0.05281309 -0.11587349 0.90500003 4290085957
-0.051236577 -0.11587349 0.90500003 4289625406
-0.049495451 -0.11548939 0.90200007 4289427773
-0.047924168 -0.11548939 0.90200007 4289164857
-0.046352882 -0.11548939 0.90200007 4288968996
-0.044781603 -0.11548939 0.90200007 4289626925
-0.043210316 -0.11548939 0.90200007 4289626955
-0.04163903 -0.11548939 0.90200007 4288968768
-0.040067747 -0.11548939 0.90200007 4289361207
-0.038496461 -0.11548939 0.90200007 4289361207
-0.036925182 -0.11548939 0.90200007 4289623341
-0.035353895 -0.11548939 0.90200007 4289294376
-0.033782613 -0.11548939 0.90200007 4288835111
-0.032211326 -0.11548939 0.90200007 4288900904
-0.030741949 -0.11587349 0.90500003 4288970041
-0.029165437 -0.11587349 0.90500003 4289562177
-0.027588928 -0.11587349 0.90500003 4289561923
-0.026069904 -0.11612958 0.90700006 4289627716
-0.024543911 -0.11638564 0.90900004 4289759306
-0.022960434 -0.11638564 0.90900004 4290219857
-0.021447508 -0.11676976 0.91200006 4290284365
-0.019902352 -0.11702583 0.91400003 4291008345
-0.018310165 -0.11702583 0.91400003 4291401817
-0.062753819 -0.11518105 0.91200006 4289956419
-0.061165113 -0.11518105 0.91200006 4289759041
-0.059380431 -0.11480217 0.90900004 4289167699
-0.057796951 -0.11480217 0.90900004 4288904527
-0.056089792 -0.11454958 0.90700006 4289362733
-0.0545098 -0.11454958 0.90700006 4289691955
-0.052929807 -0.11454958 0.90700006 4289691705
-0.051349815 -0.11454958 0.90700006 4289231154
-0.049660072 -0.11429699 0.90500003 4289230648
-0.048083559 -0.11429699 0.90500003 4289099062
-0.046507049 -0.11429699 0.90500003 4289165327
-0.04493054 -0.11429699 0.90500003 4289691672
-0.043210316 -0.1139181 0.90200007 4289625640
-0.04163903 -0.1139181 0.90200007 4289165089
-0.040201008 -0.11429699 0.90500003 4289361207
-0.038624499 -0.11429699 0.90500003 4289229365
-0.037047986 -0.11429699 0.90500003 4289491240
-0.03547148 -0.11429699 0.90500003 4289228324
-0.033894967 -0.11429699 0.90500003 4288835906
-0.032318458 -0.11429699 0.90500003 4289362250
-0.030741949 -0.11429699 0.90500003 4289102146
-0.029229892 -0.11454958 0.90700006 4289562697
-0.0276499 -0.11454958 0.90700006 4289627720
-0.024624914 -0.11518105 0.91200006 4289825615
-0.023036212 -0.11518105 0.91200006 4290417752
-0.021494541 -0.11543363 0.91400003 4290481749
-0.019967677 -0.11581253 0.91700006 4291008093
-0.018370263 -0.11581253 0.91700006 4291204454
-0.016772849 -0.11581253 0.91700006 4291006818
-0.061165113 -0.11359236 0.91200006 4289497161
-0.059380431 -0.11321868 0.90900004 4289497165
-0.057796951 -0.11321868 0.90900004 4289102407
-0.056213472 -0.11321868 0.90900004 4289296173
-0.05463 -0.11321868 0.90900004 4289822773
-0.052929807 -0.11296958 0.90700006 4289494865
-0.051349815 -0.11296958 0.90700006 4289231693
-0.049769815 -0.11296958 0.90700006 4289428297
-0.048189823 -0.11296958 0.90700006 4289296455
-0.04660983 -0.11296958 0.90700006 4289559079
-0.045029838 -0.11296958 0.90700006 4289822508
-0.043354031 -0.11272048 0.90500003 4289559865
-0.041777518 -0.11272048 0.90500003 4289625658
-0.040289853 -0.11296958 0.90700006 4289887311
-0.038624499 -0.11272048 0.90500003 4290018897
-0.037047986 -0.11272048 0.90500003 4290085709
-0.035549868 -0.11296958 0.90700006 4289427523
-0.033969875 -0.11296958 0.90700006 4288968007
-0.032389883 -0.11296958 0.90700006 4289428558
-0.030809887 -0.11296958 0.90700006 4289167435
-0.029294347 -0.11321868 0.90900004 4289562193
-0.027710868 -0.11321868 0.90900004 4289365580
-0.024678918 -0.11384146 0.91400003 4289760592
-0.023162507 -0.11421512 0.91700006 4290089301
-0.021565091 -0.11421512 0.91700006 4290482262
-0.020011226 -0.11446422 0.91900003 4290942813
-0.018410329 -0.11446422 0.91900003 4291203924
-0.01680943 -0.11446422 0.91900003 4291269717
-0.059576403 -0.11200365 0.91200006 4289365843
-0.057987705 -0.11200365 0.91200006 4289365843
-0.056213472 -0.11163521 0.90900004 4289627468
-0.05463 -0.11163521 0.90900004 4289759054
-0.053046521 -0.11163521 0.90900004 4289627486
-0.051463041 -0.11163521 0.90900004 4289429851
-0.049769815 -0.11138959 0.90700006 4289429842
-0.048189823 -0.11138959 0.90700006 4289298255
-0.04660983 -0.11138959 0.90700006 4289298494
-0.045029838 -0.11138959 0.90700006 4289232701
-0.043449841 -0.11138959 0.90700006 4289231945
-0.041869845 -0.11138959 0.90700006 4289297738
-0.040289853 -0.11138959 0.90700006 4289559122
-0.03870986 -0.11138959 0.90700006 4289559122
-0.037129864 -0.11138959 0.90700006 4289362250
-0.035549868 -0.11138959 0.90700006 4289296457
-0.033969875 -0.11138959 0.90700006 4289100109
-0.0324613 -0.11163521 0.90900004 4289494867
-0.030877823 -0.11163521 0.90900004 4289167185
-0.029391028 -0.11200365 0.91200006 4289627736
-0.027802324 -0.11200365 0.91200006 4289496659
-0.026357334 -0.1126177 0.91700006 4289825881
-0.02475992 -0.1126177 0.91700006 4289825615
-0.023162507 -0.1126177 0.91700006 4289825615
-0.021612126 -0.11286332 0.91900003 4290415701
-0.020011226 -0.11286332 0.91900003 4291336803
-0.018410329 -0.11286332 0.91900003 4291468614
-0.01680943 -0.11286332 0.91900003 4291731785
-0.059707057 -0.11065708 0.91400003 4289562956
-0.058114864 -0.11065708 0.91400003 4289562956
-0.056399003 -0.11041494 0.91200006 4289365580
-0.054810297 -0.11041494 0.91200006 4289562958
-0.053046521 -0.11005174 0.90900004 4289562202
-0.051463041 -0.11005174 0.90900004 4289562202
-0.049879562 -0.11005174 0.90900004 4289233240
-0.048296083 -0.11005174 0.90900004 4289167447
-0.046712603 -0.11005174 0.90900004 4289298769
-0.045129128 -0.11005174 0.90900004 4289298769
-0.043545648 -0.11005174 0.90900004 4289101642
-0.041869845 -0.10980959 0.90700006 4289101642
-0.040289853 -0.10980959 0.90700006 4289232208
-0.03870986 -0.10980959 0.90700006 4289100622
-0.037129864 -0.10980959 0.90700006 4289034312
-0.035628259 -0.11005174 0.90900004 4289100105
-0.03404478 -0.11005174 0.90900004 4288969552
-0.0324613 -0.11005174 0.90900004 4289101138
-0.030877823 -0.11005174 0.90900004 4288904531
-0.029391028 -0.11041494 0.91200006 4289496411
-0.027802324 -0.11041494 0.91200006 4289365330
-0.026357334 -0.11102028 0.91700006 4289365330
-0.02475992 -0.11102028 0.91700006 4289495866
-0.023213023 -0.11126243 0.91900003 4289890624
-0.021612126 -0.11126243 0.91900003 4290153031
-0.020076552 -0.11162563 0.92200005 4291403354
-0.018470429 -0.11162563 0.92200005 4291338572
-0.016864303 -0.11162563 0.92200005 4291141450
-0.059903029 -0.10942287 0.91700006 4289628999
-0.058114864 -0.10906488 0.91400003 4289628999
-0.056522682 -0.10906488 0.91400003 4289365330
-0.054810297 -0.10882623 0.91200006 4289496659
-0.053221591 -0.10882623 0.91200006 4289365843
-0.051632885 -0.10882623 0.91200006 4289497686
-0.050044183 -0.10882623 0.91200006 4289167449
-0.048455477 -0.10882623 0.91200006 4289035606
-0.046712603 -0.10846826 0.90900004 4289167185
-0.045129128 -0.10846826 0.90900004 4289167185
-0.043545648 -0.10846826 0.90900004 4289101644
-0.041962173 -0.10846826 0.90900004 4289298767
-0.040378693 -0.10846826 0.90900004 4288969552
-0.038795214 -0.10846826 0.90900004 4288837966
-0.037211739 -0.10846826 0.90900004 4288968772
-0.035628259 -0.10846826 0.90900004 4289034566
-0.03404478 -0.10846826 0.90900004 4288903248
-0.0324613 -0.10846826 0.90900004 4288969041
-0.03097973 -0.10882623 0.91200006 4289035608
-0.029455481 -0.10906488 0.91400003 4289496159
-0.027863294 -0.10906488 0.91400003 4289365332
-0.026414821 -0.10966153 0.91900003 4289825883
-0.02481392 -0.10966153 0.91900003 4290220105
-0.023213023 -0.10966153 0.91900003 4290417741
-0.021682676 -0.11001951 0.92200005 4290679875
-0.020076552 -0.11001951 0.92200005 4291403854
-0.018470429 -0.11001951 0.92200005 4291009080
-0.060033683 -0.10806062 0.91900003 4289759806
-0.058305617 -0.10782546 0.91700006 4289825599
-0.056708202 -0.10782546 0.91700006 4289496659
-0.05493049 -0.1074727 0.91400003 4289496659
-0.053338304 -0.1074727 0.91400003 4289497165
