# .PCD v0.7 - Point Cloud Data file format
VERSION 0.7
FIELDS x y z rgba
SIZE 4 4 4 4
TYPE F F F U
COUNT 1 1 1 1
WIDTH 1044
HEIGHT 1
VIEWPOINT 0 0 0 1 0 0 0
POINTS 1044
DATA ascii
-0.25580925 -0.16884859 0.83200002 4287325999
-0.2543599 -0.16884859 0.83200002 4287325493
-0.25291055 -0.16884859 0.83200002 4287259700
-0.25146121 -0.16884859 0.83200002 4287588403
-0.25001186 -0.16884859 0.83200002 4287983161
-0.24856251 -0.16884859 0.83200002 4287786307
-0.24711317 -0.16884859 0.83200002 4287918149
-0.24566382 -0.16884859 0.83200002 4286798383
-0.24421448 -0.16884859 0.83200002 4284824593
-0.24276514 -0.16884859 0.83200002 4285018395
-0.24189588 -0.16925448 0.83400005 4284294415
-0.24044307 -0.16925448 0.83400005 4284885507
-0.23956335 -0.16966036 0.83600003 4285412108
-0.23867668 -0.17006625 0.83800006 4285411615
-0.23721687 -0.17006625 0.83800006 4285609250
-0.23631974 -0.17047213 0.84000003 4285675557
-0.23569526 -0.17108096 0.84300005 4285807143
-0.23422675 -0.17108096 0.84300005 4286071076
-0.23275822 -0.17108096 0.84300005 4286136869
-0.23183845 -0.17148685 0.84500003 4286070842
-0.23036647 -0.17148685 0.84500003 4285807669
-0.22997798 -0.17229863 0.84900004 4286003754
-0.22849903 -0.17229863 0.84900004 4285937961
-0.22755486 -0.1727045 0.85100001 4286068264
-0.22660373 -0.1731104 0.85300004 4286134057
-0.22564563 -0.17351629 0.85500002 4286795564
-0.22468056 -0.17392218 0.85700005 4287980095
-0.22370853 -0.17432804 0.85900003 4287128100
-0.22221215 -0.17432804 0.85900003 4287062307
-0.22071578 -0.17432804 0.85900003 4287654444
-0.27451482 -0.16820405 0.83600003 4284822043
-0.2724053 -0.16780165 0.83400005 4284559651
-0.27095246 -0.16780165 0.83400005 4284559651
-0.26949963 -0.16780165 0.83400005 4284295450
-0.26804683 -0.16780165 0.83400005 4283505935
-0.26659399 -0.16780165 0.83400005 4284094724
-0.26514113 -0.16780165 0.83400005 4283831552
-0.2636883 -0.16780165 0.83400005 4284622080
-0.26223546 -0.16780165 0.83400005 4286135565
-0.26015729 -0.16739924 0.83200002 4286336301
-0.25870794 -0.16739924 0.83200002 4287125561
-0.25725859 -0.16739924 0.83200002 4286798651
-0.25580925 -0.16739924 0.83200002 4287193152
-0.2543599 -0.16739924 0.83200002 4287653696
-0.25291055 -0.16739924 0.83200002 4287653696
-0.25146121 -0.16739924 0.83200002 4287851339
-0.25001186 -0.16739924 0.83200002 4288048461
-0.24856251 -0.16739924 0.83200002 4287786577
-0.24711317 -0.16739924 0.83200002 4287588942
-0.24566382 -0.16739924 0.83200002 4285681967
-0.24421448 -0.16739924 0.83200002 4283116039
-0.24334872 -0.16780165 0.83400005 4284620816
-0.24189588 -0.16780165 0.83400005 4285147160
-0.24101965 -0.16820405 0.83600003 4285345813
-0.24013647 -0.16860646 0.83800006 4285608728
-0.23867668 -0.16860646 0.83800006 4285411615
-0.23778301 -0.16900885 0.84000003 4285937959
-0.23631974 -0.16900885 0.84000003 4286004004
-0.23569526 -0.16961247 0.84300005 4286267176
-0.23422675 -0.16961247 0.84300005 4286202149
-0.23275822 -0.16961247 0.84300005 4286136356
-0.23183845 -0.17001486 0.84500003 4285743147
-0.23036647 -0.17001486 0.84500003 4285677353
-0.22997798 -0.17081967 0.84900004 4285807395
-0.22849903 -0.17081967 0.84900004 4285807395
-0.22755486 -0.17122208 0.85100001 4286068766
-0.22713503 -0.17202687 0.85500002 4286068766
-0.22564563 -0.17202687 0.85500002 4286599457
-0.22468056 -0.17242928 0.85700005 4287718195
-0.22370853 -0.17283167 0.85900003 4287193643
-0.22221215 -0.17283167 0.85900003 4287193643
-0.22148661 -0.17343529 0.86200005 4287719471
-0.28469944 -0.1693407 0.84900004 4286070603
-0.2730585 -0.16674773 0.83600003 4284691238
-0.27160221 -0.16674773 0.83600003 4284559651
-0.26949963 -0.16634883 0.83400005 4284493343
-0.26804683 -0.16634883 0.83400005 4284164378
-0.26659399 -0.16634883 0.83400005 4283966236
-0.26514113 -0.16634883 0.83400005 4283768600
-0.2636883 -0.16634883 0.83400005 4283834116
-0.26223546 -0.16634883 0.83400005 4283834116
-0.26078266 -0.16634883 0.83400005 4284292616
-0.25932983 -0.16634883 0.83400005 4284292616
-0.25725859 -0.1659499 0.83200002 4284623104
-0.25580925 -0.1659499 0.83200002 4285083654
-0.2543599 -0.1659499 0.83200002 4285348608
-0.25291055 -0.1659499 0.83200002 4285940480
-0.25146121 -0.1659499 0.83200002 4285414152
-0.25001186 -0.1659499 0.83200002 4285150980
-0.24856251 -0.1659499 0.83200002 4284951316
-0.2477072 -0.16634883 0.83400005 4284490765
-0.24625437 -0.16634883 0.83400005 4284556556
-0.24480155 -0.16634883 0.83400005 4284556556
-0.24334872 -0.16634883 0.83400005 4284688158
-0.24247596 -0.16674773 0.83600003 4284951329
-0.24159627 -0.16714665 0.83800006 4285213470
-0.24070959 -0.16754557 0.84000003 4285674021
-0.23924631 -0.16754557 0.84000003 4285543201
-0.23778301 -0.16754557 0.84000003 4285740580
-0.23631974 -0.16754557 0.84000003 4286003234
-0.23569526 -0.16814396 0.84300005 4286069027
-0.23422675 -0.16814396 0.84300005 4286004004
-0.23331045 -0.16854288 0.84500003 4285938211
-0.23183845 -0.16854288 0.84500003 4285741852
-0.23091172 -0.1689418 0.84700006 4285807645
-0.22997798 -0.1693407 0.84900004 4285938463
-0.22903731 -0.16973962 0.85100001 4285872670
-0.22808966 -0.17013854 0.85300004 4286001424
-0.22713503 -0.17053746 0.85500002 4286067217
-0.22564563 -0.17053746 0.85500002 4286862114
-0.22520491 -0.17133531 0.85900003 4288177973
-0.22370853 -0.17133531 0.85900003 4287127848
-0.22221215 -0.17133531 0.85900003 4286996262
-0.22148661 -0.17193368 0.86200005 4287718445
-0.28685254 -0.16825718 0.85100001 4281335808
-0.28469944 -0.16786174 0.84900004 4285940019
-0.2832205 -0.16786174 0.84900004 4285287726
-0.2730585 -0.16529143 0.83600003 4284823593
-0.27160221 -0.16529143 0.83600003 4284823593
-0.27014589 -0.16529143 0.83600003 4284363040
-0.26804683 -0.164896 0.83400005 4283902489
-0.26659399 -0.164896 0.83400005 4284098069
-0.26514113 -0.164896 0.83400005 4283900691
-0.2636883 -0.164896 0.83400005 4283965967
-0.26223546 -0.164896 0.83400005 4283702796
-0.26078266 -0.164896 0.83400005 4283833866
-0.25932983 -0.164896 0.83400005 4283636488
-0.25787699 -0.164896 0.83400005 4283768321
-0.25642416 -0.164896 0.83400005 4283571200
-0.25497133 -0.164896 0.83400005 4284095744
-0.25351852 -0.164896 0.83400005 4284293120
-0.25206569 -0.164896 0.83400005 4284293632
-0.25061285 -0.164896 0.83400005 4284030464
-0.24916002 -0.164896 0.83400005 4284226823
-0.2477072 -0.164896 0.83400005 4284621581
-0.24625437 -0.164896 0.83400005 4284556819
-0.24538858 -0.16529143 0.83600003 4284622612
-0.24451585 -0.16568686 0.83800006 4284754201
-0.24305606 -0.16568686 0.83800006 4284754201
-0.24159627 -0.16568686 0.83800006 4285081869
-0.24070959 -0.16608229 0.84000003 4285740055
-0.23924631 -0.16608229 0.84000003 4285740318
-0.23778301 -0.16608229 0.84000003 4285806112
-0.23716377 -0.16667545 0.84300005 4286002984
-0.23569526 -0.16667545 0.84300005 4286068777
-0.23478244 -0.16707088 0.84500003 4286069027
-0.23331045 -0.16707088 0.84500003 4286134820
-0.23238719 -0.16746633 0.84700006 4285808158
-0.23145694 -0.16786174 0.84900004 4285808158
-0.23051976 -0.16825718 0.85100001 4286004256
-0.2295756 -0.16865262 0.85300004 4285938463
-0.22862446 -0.16904806 0.85500002 4286002460
-0.22713503 -0.16904806 0.85500002 4285936666
-0.22617348 -0.16944349 0.85700005 4287058723
-0.22520491 -0.16983892 0.85900003 4288309046
-0.22370853 -0.16983892 0.85900003 4287127848
-0.22298822 -0.17043208 0.86200005 4286996262
-0.28685254 -0.16677473 0.85100001 4280483840
-0.28537011 -0.16677473 0.85100001 4284166440
-0.28388768 -0.16677473 0.85100001 4285615390
-0.28174153 -0.16638279 0.84900004 4286075941
-0.28026259 -0.16638279 0.84900004 4285876765
-0.27225199 -0.16422708 0.83800006 4284692001
-0.27079219 -0.16422708 0.83800006 4284625695
-0.2686896 -0.16383511 0.83600003 4284296986
-0.26723328 -0.16383511 0.83600003 4284098347
-0.26577696 -0.16383511 0.83600003 4284032553
-0.26432067 -0.16383511 0.83600003 4283900954
-0.26286435 -0.16383511 0.83600003 4283900954
-0.26140803 -0.16383511 0.83600003 4283835161
-0.25932983 -0.16344316 0.83400005 4283835161
-0.25787699 -0.16344316 0.83400005 4283964962
-0.25642416 -0.16344316 0.83400005 4283899168
-0.25497133 -0.16344316 0.83400005 4284227073
-0.25351852 -0.16344316 0.83400005 4284358915
-0.25267017 -0.16383511 0.83600003 4284491017
-0.25121385 -0.16383511 0.83600003 4284491017
-0.24975754 -0.16383511 0.83600003 4284687406
-0.24889526 -0.16422708 0.83800006 4285147957
-0.24743547 -0.16422708 0.83800006 4284885800
-0.24597564 -0.16422708 0.83800006 4284688421
-0.24451585 -0.16422708 0.83800006 4284688158
-0.24363613 -0.16461901 0.84000003 4284490778
-0.24217287 -0.16461901 0.84000003 4284884760
-0.24070959 -0.16461901 0.84000003 4285542433
-0.24010076 -0.16520695 0.84300005 4285346062
-0.23863225 -0.16520695 0.84300005 4285543185
-0.23716377 -0.16520695 0.84300005 4285542699
-0.23625441 -0.16559888 0.84500003 4285805871
-0.23478244 -0.16559888 0.84500003 4285807143
-0.23386267 -0.16599084 0.84700006 4285807143
-0.23293589 -0.16638279 0.84900004 4285807143
-0.23145694 -0.16638279 0.84900004 4285741350
-0.23051976 -0.16677473 0.85100001 4286069027
-0.23011386 -0.16755864 0.85500002 4286003234
-0.22915927 -0.1679506 0.85700005 4286002984
-0.22766636 -0.1679506 0.85700005 4286397999
-0.22617348 -0.1679506 0.85700005 4286928422
-0.22520491 -0.16834255 0.85900003 4288770626
-0.22448982 -0.16893047 0.86200005 4287522610
-0.22350559 -0.16932242 0.86400002 4287193645
-0.28388768 -0.16529229 0.85100001 4284695326
-0.28240523 -0.16529229 0.85100001 4286274101
-0.28026259 -0.16490383 0.84900004 4285614888
-0.2781269 -0.16451538 0.84700006 4284693786
-0.27079219 -0.16276728 0.83800006 4284559651
-0.26933238 -0.16276728 0.83800006 4284428065
-0.2678726 -0.16276728 0.83800006 4284231454
-0.26577696 -0.1623788 0.83600003 4284165405
-0.26432067 -0.1623788 0.83600003 4284033305
-0.26286435 -0.1623788 0.83600003 4283638548
-0.26140803 -0.1623788 0.83600003 4283833866
-0.25995171 -0.1623788 0.83600003 4283833866
-0.25849539 -0.1623788 0.83600003 4284029184
-0.2570391 -0.1623788 0.83600003 4284292608
-0.25558278 -0.1623788 0.83600003 4284556544
-0.25412646 -0.1623788 0.83600003 4285017088
-0.25267017 -0.1623788 0.83600003 4285216258
-0.25181484 -0.16276728 0.83800006 4285545222
-0.25035504 -0.16276728 0.83800006 4285609246
-0.24889526 -0.16276728 0.83800006 4285609246
-0.24802598 -0.16315573 0.84000003 4285678387
-0.2465627 -0.16315573 0.84000003 4285744180
-0.24509944 -0.16315573 0.84000003 4285941806
-0.24450628 -0.16373844 0.84300005 4285218084
-0.24303778 -0.16373844 0.84300005 4285281030
-0.24156927 -0.16373844 0.84300005 4285544459
-0.24010076 -0.16373844 0.84300005 4285806611
-0.23919839 -0.1641269 0.84500003 4285609232
-0.23772641 -0.1641269 0.84500003 4285083152
-0.23625441 -0.1641269 0.84500003 4285543703
-0.23533814 -0.16451538 0.84700006 4285676066
-0.23441488 -0.16490383 0.84900004 4285676066
-0.23293589 -0.16490383 0.84900004 4285938472
-0.2320022 -0.16529229 0.85100001 4285807143
-0.23106152 -0.16568077 0.85300004 4286004256
-0.23011386 -0.16606924 0.85500002 4285872670
-0.22915927 -0.1664577 0.85700005 4285740066
-0.22819765 -0.16684616 0.85900003 4286332204
-0.22670129 -0.16684616 0.85900003 4286862645
-0.22599143 -0.16742887 0.86200005 4288639056
-0.22448982 -0.16742887 0.86200005 4287457587
-0.22402298 -0.1682058 0.86600006 4287259951
-0.28537011 -0.16380985 0.85100001 4280746767
-0.28388768 -0.16380985 0.85100001 4283969300
-0.28240523 -0.16380985 0.85100001 4287127107
-0.28092277 -0.16380985 0.85100001 4286271500
-0.27878362 -0.16342488 0.84900004 4285218560
-0.27665141 -0.16303989 0.84700006 4284955432
-0.26997519 -0.16169247 0.84000003 4284559651
-0.2678726 -0.16130748 0.83800006 4284165405
-0.26641279 -0.16130748 0.83800006 4284165405
-0.26495302 -0.16130748 0.83800006 4284033055
-0.26349324 -0.16130748 0.83800006 4283704091
-0.2620334 -0.16130748 0.83800006 4284360755
-0.26057363 -0.16130748 0.83800006 4285808201
-0.25849539 -0.1609225 0.83600003 4286007068
-0.2570391 -0.1609225 0.83600003 4286204447
-0.25558278 -0.1609225 0.83600003 4286205705
-0.25412646 -0.1609225 0.83600003 4286797843
-0.25327462 -0.16130748 0.83800006 4286600209
-0.25181484 -0.16130748 0.83800006 4286732051
-0.25095257 -0.16169247 0.84000003 4286533151
-0.24948926 -0.16169247 0.84000003 4286533151
-0.24802598 -0.16169247 0.84000003 4286402357
-0.2465627 -0.16169247 0.84000003 4287915597
-0.24509944 -0.16169247 0.84000003 4287456842
-0.24450628 -0.16226994 0.84300005 4287456842
-0.24303778 -0.16226994 0.84300005 4287390006
-0.24156927 -0.16226994 0.84300005 4287587386
-0.24067038 -0.16265492 0.84500003 4287323448
-0.23919839 -0.16265492 0.84500003 4287191606
-0.23772641 -0.16265492 0.84500003 4286665766
-0.23681362 -0.16303989 0.84700006 4285481492
-0.23589383 -0.16342488 0.84900004 4285677342
-0.23441488 -0.16342488 0.84900004 4285479707
-0.23348463 -0.16380985 0.85100001 4285741100
-0.23254745 -0.16419485 0.85300004 4286004015
-0.23160326 -0.16457982 0.85500002 4286069799
-0.23065215 -0.16496481 0.85700005 4286004006
-0.22915927 -0.16496481 0.85700005 4285806643
-0.22819765 -0.16534978 0.85900003 4286530110
-0.22670129 -0.16534978 0.85900003 4286862393
-0.22599143 -0.16592726 0.86200005 4288770390
-0.22501066 -0.16631223 0.86400002 4287982894
-0.2832205 -0.16194592 0.84900004 4283704064
-0.28174153 -0.16194592 0.84900004 4287191347
-0.28026259 -0.16194592 0.84900004 4286533694
-0.27878362 -0.16194592 0.84900004 4285414956
-0.27730465 -0.16194592 0.84900004 4285021738
-0.27093938 -0.16080143 0.84300005 4284363544
-0.26947087 -0.16080143 0.84300005 4284493595
-0.26704863 -0.16022918 0.84000003 4284295960
-0.26558536 -0.16022918 0.84000003 4284295948
-0.26412207 -0.16022918 0.84000003 4284427791
-0.26265877 -0.16022918 0.84000003 4285085451
-0.26119551 -0.16022918 0.84000003 4286467104
-0.25911382 -0.15984769 0.83800006 4286468652
-0.25765404 -0.15984769 0.83800006 4286205481
-0.25619423 -0.15984769 0.83800006 4286600222
-0.25473443 -0.15984769 0.83800006 4286731809
-0.2538791 -0.16022918 0.84000003 4286665754
-0.25241584 -0.16022918 0.84000003 4286731547
-0.25095257 -0.16022918 0.84000003 4286796318
-0.25038031 -0.16080143 0.84300005 4286401561
-0.24891178 -0.16080143 0.84300005 4286598172
-0.24744327 -0.16080143 0.84300005 4287979825
-0.24597479 -0.16080143 0.84300005 4287456565
-0.24450628 -0.16080143 0.84300005 4287522358
-0.24361436 -0.16118293 0.84500003 4287456301
-0.24271551 -0.16156442 0.84700006 4287456301
-0.24124004 -0.16156442 0.84700006 4287520822
-0.23976456 -0.16156442 0.84700006 4287389493
-0.23828909 -0.16156442 0.84700006 4287127087
-0.23681362 -0.16156442 0.84700006 4286403107
-0.23589383 -0.16194592 0.84900004 4286006566
-0.23496707 -0.16232741 0.85100001 4285480222
-0.23348463 -0.16232741 0.85100001 4285673767
-0.23254745 -0.16270891 0.85300004 4286134318
-0.23160326 -0.16309041 0.85500002 4286136106
-0.23065215 -0.16347192 0.85700005 4285938726
-0.22969405 -0.16385341 0.85900003 4285806643
-0.22819765 -0.16385341 0.85900003 4286398523
-0.22670129 -0.16385341 0.85900003 4286993209
-0.22599143 -0.16442566 0.86200005 4288967255
-0.28174153 -0.16046695 0.84900004 4287450710
-0.28026259 -0.16046695 0.84900004 4286665543
-0.27944034 -0.16084497 0.85100001 4285744441
-0.27795789 -0.16084497 0.85100001 4285347887
-0.27582568 -0.16046695 0.84900004 4285282094
-0.27370048 -0.16008894 0.84700006 4284758046
-0.27158219 -0.15971093 0.84500003 4284495131
-0.27011019 -0.15971093 0.84500003 4284625695
-0.26800236 -0.15933293 0.84300005 4285086246
-0.26653388 -0.15933293 0.84300005 4286009103
-0.26506537 -0.15933293 0.84300005 4286667290
-0.26359686 -0.15933293 0.84300005 4286403863
-0.26212835 -0.15933293 0.84300005 4286601243
-0.25973222 -0.1587659 0.84000003 4286469919
-0.25826895 -0.1587659 0.84000003 4285811990
-0.25680569 -0.1587659 0.84000003 4286205735
-0.25534239 -0.1587659 0.84000003 4286402857
-0.2538791 -0.1587659 0.84000003 4286403348
-0.25241584 -0.1587659 0.84000003 4286469141
-0.25184882 -0.15933293 0.84300005 4286599959
-0.25038031 -0.15933293 0.84300005 4286599959
-0.24891178 -0.15933293 0.84300005 4286731046
-0.24744327 -0.15933293 0.84300005 4287257390
-0.24655835 -0.15971093 0.84500003 4287127587
-0.24508636 -0.15971093 0.84500003 4287061794
-0.24361436 -0.15971093 0.84500003 4287127841
-0.24271551 -0.16008894 0.84700006 4287062048
-0.24124004 -0.16008894 0.84700006 4287389743
-0.24033071 -0.16046695 0.84900004 4287652659
-0.23885176 -0.16046695 0.84900004 4287587890
-0.2373728 -0.16046695 0.84900004 4288377149
-0.23589383 -0.16046695 0.84900004 4287915317
-0.23496707 -0.16084497 0.85100001 4286731044
-0.23403336 -0.16122299 0.85300004 4286532149
-0.23254745 -0.16122299 0.85300004 4285676840
-0.23160326 -0.16160099 0.85500002 4286069547
-0.23119041 -0.16235702 0.85900003 4286069547
-0.22969405 -0.16235702 0.85900003 4286070072
-0.22819765 -0.16235702 0.85900003 4286662209
-0.22749302 -0.16292405 0.86200005 4287190854
-0.22651576 -0.16330206 0.86400002 4289296486
-0.28121895 -0.15786441 0.84300005 4281729024
-0.28174153 -0.158988 0.84900004 4287255104
-0.28026259 -0.158988 0.84900004 4286669389
-0.27944034 -0.15936252 0.85100001 4286143044
-0.27795789 -0.15936252 0.85100001 4284564276
-0.27647546 -0.15936252 0.85100001 4284103725
-0.27434674 -0.158988 0.84900004 4284889382
-0.27222499 -0.15861347 0.84700006 4284626210
-0.27074951 -0.15861347 0.84700006 4284691238
-0.26927406 -0.15861347 0.84700006 4286138684
-0.26716623 -0.15823893 0.84500003 4285813548
-0.26569423 -0.15823893 0.84500003 4286274099
-0.26422223 -0.15823893 0.84500003 4286208295
-0.26212835 -0.15786441 0.84300005 4286208295
-0.26065984 -0.15786441 0.84300005 4286207791
-0.25919133 -0.15786441 0.84300005 4286207791
-0.25772282 -0.15786441 0.84300005 4286075693
-0.25625435 -0.15786441 0.84300005 4286141486
-0.25478584 -0.15786441 0.84300005 4286338338
-0.25331733 -0.15786441 0.84300005 4286469668
-0.25184882 -0.15786441 0.84300005 4286666034
-0.25038031 -0.15786441 0.84300005 4286666034
-0.24950233 -0.15823893 0.84500003 4287060523
-0.24803035 -0.15823893 0.84500003 4287521074
-0.24655835 -0.15823893 0.84500003 4287193654
-0.24566646 -0.15861347 0.84700006 4286996532
-0.24419099 -0.15861347 0.84700006 4287324463
-0.24328862 -0.158988 0.84900004 4287324463
-0.24180967 -0.158988 0.84900004 4287521845
-0.24033071 -0.158988 0.84900004 4287718967
-0.23885176 -0.158988 0.84900004 4287849774
-0.2373728 -0.158988 0.84900004 4288310325
-0.23644951 -0.15936252 0.85100001 4288310089
-0.23496707 -0.15936252 0.85100001 4287783745
-0.23403336 -0.15973707 0.85300004 4286598715
-0.23254745 -0.15973707 0.85300004 4285348904
-0.23160326 -0.16011158 0.85500002 4286200102
-0.23119041 -0.16086066 0.85900003 4286331431
-0.23049623 -0.16142246 0.86200005 4285938211
-0.22899462 -0.16142246 0.86200005 4286990899
-0.22802085 -0.16179697 0.86400002 4287585353
-0.22704011 -0.16217151 0.86600006 4289361507
-0.22381304 -0.16423142 0.87700003 4287654459
-0.28268746 -0.1563959 0.84300005 4278779904
-0.28121895 -0.1563959 0.84300005 4280942592
-0.28026259 -0.15750904 0.84900004 4286864664
-0.27926439 -0.15862218 0.85500002 4286007600
-0.27712521 -0.15825114 0.85300004 4284954911
-0.274993 -0.15788008 0.85100001 4284561198
-0.27286777 -0.15750904 0.84900004 4284298027
-0.27138883 -0.15750904 0.84900004 4284756792
-0.26927406 -0.157138 0.84700006 4286730839
-0.26716623 -0.15676695 0.84500003 4286338334
-0.26569423 -0.15676695 0.84500003 4286140955
-0.26422223 -0.15676695 0.84500003 4286075952
-0.26275024 -0.15676695 0.84500003 4286142002
-0.26127824 -0.15676695 0.84500003 4286208295
-0.25919133 -0.1563959 0.84300005 4287063604
-0.25772282 -0.1563959 0.84300005 4286142522
-0.25625435 -0.1563959 0.84300005 4285879093
-0.25539029 -0.15676695 0.84500003 4285746979
-0.25391832 -0.15676695 0.84500003 4285549599
-0.25244632 -0.15676695 0.84500003 4285352999
-0.25097433 -0.15676695 0.84500003 4285221670
-0.24950233 -0.15676695 0.84500003 4285944596
-0.24861741 -0.157138 0.84700006 4286273304
-0.24714193 -0.157138 0.84700006 4285680937
-0.24566646 -0.157138 0.84700006 4285286180
-0.24419099 -0.157138 0.84700006 4286009896
-0.24328862 -0.15750904 0.84900004 4286668083
-0.24180967 -0.15750904 0.84900004 4287324211
-0.24033071 -0.15750904 0.84900004 4288376899
-0.23885176 -0.15750904 0.84900004 4288178475
-0.2373728 -0.15750904 0.84900004 4287915304
-0.23644951 -0.15788008 0.85100001 4288047418
-0.23551929 -0.15825114 0.85300004 4288310591
-0.23403336 -0.15825114 0.85300004 4287258418
-0.2330927 -0.15862218 0.85500002 4285942558
-0.23214504 -0.15899323 0.85700005 4286138936
-0.23199783 -0.15992084 0.86200005 4286204729
-0.23103103 -0.16029188 0.86400002 4286597157
-0.22952595 -0.16029188 0.86400002 4287650101
-0.22802085 -0.16029188 0.86400002 4287849038
-0.22704011 -0.16066293 0.86600006 4289099105
-0.22635117 -0.16233265 0.87500006 4287653946
-0.22534077 -0.16270369 0.87700003 4287719999
-0.22381304 -0.16270369 0.87700003 4287654205
-0.28121895 -0.1549274 0.84300005 4279435264
-0.28075382 -0.15713276 0.85500002 4287521091
-0.27926439 -0.15713276 0.85500002 4286338877
-0.27777499 -0.15713276 0.85500002 4284759845
-0.2756393 -0.15676522 0.85300004 4284429097
-0.27351058 -0.15639764 0.85100001 4284034339
-0.27202815 -0.15639764 0.85100001 4284559651
-0.26990986 -0.15603009 0.84900004 4286665028
-0.26779857 -0.15566252 0.84700006 4286601508
-0.26632309 -0.15566252 0.84700006 4286535459
-0.26484764 -0.15566252 0.84700006 4286337586
-0.26337215 -0.15566252 0.84700006 4286468916
-0.26127824 -0.15529497 0.84500003 4286339881
-0.25980625 -0.15529497 0.84500003 4286537259
-0.25833425 -0.15529497 0.84500003 4285945668
-0.25686228 -0.15529497 0.84500003 4285682495
-0.25539029 -0.15529497 0.84500003 4285223217
-0.25391832 -0.15529497 0.84500003 4284959788
-0.25244632 -0.15529497 0.84500003 4284237614
-0.25097433 -0.15529497 0.84500003 4284303407
-0.25009289 -0.15566252 0.84700006 4284697132
-0.24861741 -0.15566252 0.84700006 4284697132
-0.24772549 -0.15603009 0.84900004 4284565030
-0.24624653 -0.15603009 0.84900004 4284499237
-0.24476758 -0.15603009 0.84900004 4284631075
-0.24328862 -0.15603009 0.84900004 4284565282
-0.24180967 -0.15603009 0.84900004 4286599957
-0.24089685 -0.15639764 0.85100001 4287915817
-0.23941441 -0.15639764 0.85100001 4288572479
-0.23793195 -0.15639764 0.85100001 4288375101
-0.23700523 -0.15676522 0.85300004 4288112458
-0.23551929 -0.15676522 0.85300004 4288310093
-0.2345821 -0.15713276 0.85500002 4287852104
-0.23363794 -0.15750034 0.85700005 4286207280
-0.2326868 -0.15786789 0.85900003 4286007336
-0.23253612 -0.15878679 0.86400002 4286204459
-0.23103103 -0.15878679 0.86400002 4286860063
-0.22952595 -0.15878679 0.86400002 4287649579
-0.22854868 -0.15915437 0.86600006 4288047435
-0.22704011 -0.15915437 0.86600006 4288968537
-0.22686854 -0.16117595 0.87700003 4287589698
-0.22534077 -0.16117595 0.87700003 4287851587
-0.22381304 -0.16117595 0.87700003 4287720001
-0.27991766 -0.15600744 0.85700005 4286732810
-0.27842477 -0.15600744 0.85700005 4285680128
-0.27628559 -0.15564336 0.85500002 4284625724
-0.27415338 -0.15527928 0.85300004 4284099380
-0.27266747 -0.15527928 0.85300004 4284493858
-0.27054566 -0.15491521 0.85100001 4286533442
-0.26906323 -0.15491521 0.85100001 4286600222
-0.26758081 -0.15491521 0.85100001 4286600222
-0.26547298 -0.15455113 0.84900004 4286534709
-0.26337215 -0.15418705 0.84700006 4286732088
-0.26189667 -0.15418705 0.84700006 4285550894
-0.26042122 -0.15418705 0.84700006 4284432670
-0.25894573 -0.15418705 0.84700006 4284104231
-0.25747025 -0.15418705 0.84700006 4283972389
-0.25599477 -0.15418705 0.84700006 4284102435
-0.25451931 -0.15418705 0.84700006 4283970592
-0.25304383 -0.15418705 0.84700006 4283708206
-0.25156835 -0.15418705 0.84700006 4283642413
-0.2506834 -0.15455113 0.84900004 4283838241
-0.24920444 -0.15455113 0.84900004 4283904034
-0.24772549 -0.15455113 0.84900004 4283970592
-0.24624653 -0.15455113 0.84900004 4284102435
-0.24534416 -0.15491521 0.85100001 4284102692
-0.24386173 -0.15491521 0.85100001 4283445018
-0.24294892 -0.15527928 0.85300004 4284429839
-0.24089685 -0.15491521 0.85100001 4286666545
-0.23941441 -0.15491521 0.85100001 4287718467
-0.23793195 -0.15491521 0.85100001 4288968791
-0.23756091 -0.15564336 0.85500002 4288573259
-0.23662372 -0.15600744 0.85700005 4287849792
-0.23513083 -0.15600744 0.85700005 4287916089
-0.23418318 -0.15637152 0.85900003 4287850040
-0.23349944 -0.15691763 0.86200005 4287061044
-0.23253612 -0.15728171 0.86400002 4286534444
-0.23156585 -0.15764581 0.86600006 4286467133
-0.23005725 -0.15764581 0.86600006 4287059270
-0.22854868 -0.15764581 0.86600006 4287850042
-0.22756445 -0.15800986 0.86800003 4289100109
-0.22787541 -0.15928414 0.87500006 4288180040
-0.22686854 -0.15964822 0.87700003 4287785283
-0.22534077 -0.15964822 0.87700003 4287719999
-0.22381304 -0.15964822 0.87700003 4287719999
-0.28141055 -0.15451455 0.85700005 4286866240
-0.27991766 -0.15451455 0.85700005 4286602817
-0.27842477 -0.15451455 0.85700005 4285681971
-0.27693188 -0.15451455 0.85700005 4285677617
-0.27479616 -0.15415394 0.85500002 4284493343
-0.27330676 -0.15415394 0.85500002 4284820759
-0.27118152 -0.15379336 0.85300004 4286728756
-0.26969558 -0.15379336 0.85300004 4286599972
-0.26820967 -0.15379336 0.85300004 4287060523
-0.26609835 -0.15343276 0.85100001 4286733126
-0.26399404 -0.15307218 0.84900004 4286667077
-0.26251507 -0.15307218 0.84900004 4285157669
-0.26103613 -0.15307218 0.84900004 4283052293
-0.26016858 -0.15343276 0.85100001 4283511329
-0.25868613 -0.15343276 0.85100001 4283511329
-0.25659925 -0.15307218 0.84900004 4283904286
-0.25512028 -0.15307218 0.84900004 4284299044
-0.25364131 -0.15307218 0.84900004 4284036136
-0.25216237 -0.15307218 0.84900004 4283641378
-0.25127396 -0.15343276 0.85100001 4283969300
-0.2497915 -0.15343276 0.85100001 4284232472
-0.24830905 -0.15343276 0.85100001 4283971348
-0.2468266 -0.15343276 0.85100001 4284102935
-0.24534416 -0.15343276 0.85100001 4284301342
-0.24443486 -0.15379336 0.85300004 4283840791
-0.24294892 -0.15379336 0.85300004 4284168448
-0.24146299 -0.15379336 0.85300004 4285944859
-0.24053974 -0.15415394 0.85500002 4286864433
-0.23905033 -0.15415394 0.85500002 4288574794
-0.23811664 -0.15451455 0.85700005 4288573263
-0.23717594 -0.15487513 0.85900003 4287783747
-0.23567957 -0.15487513 0.85900003 4287914804
-0.23500107 -0.15541603 0.86200005 4288375355
-0.23404121 -0.15577662 0.86400002 4287651896
-0.23253612 -0.15577662 0.86400002 4286204449
-0.23156585 -0.15613721 0.86600006 4286531625
-0.23005725 -0.15613721 0.86600006 4287058225
-0.22907649 -0.15649782 0.86800003 4287587890
-0.22756445 -0.15649782 0.86800003 4289100872
-0.22787541 -0.1577599 0.87500006 4287852874
-0.22686854 -0.15812048 0.87700003 4287523653
-0.22534077 -0.15812048 0.87700003 4287719999
-0.22432348 -0.15848109 0.87900007 4287719999
-0.28141055 -0.15302165 0.85700005 4287387749
-0.27991766 -0.15302165 0.85700005 4287127891
-0.27842477 -0.15302165 0.85700005 4286535754
-0.27693188 -0.15302165 0.85700005 4286139953
-0.27479616 -0.15266454 0.85500002 4284692507
-0.27330676 -0.15266454 0.85500002 4284822585
-0.27118152 -0.15230744 0.85300004 4286204238
-0.26969558 -0.15230744 0.85300004 4286468893
-0.26883852 -0.15266454 0.85500002 4286929444
-0.26672375 -0.15230744 0.85300004 4286733126
-0.26461592 -0.15195031 0.85100001 4286733126
-0.26313347 -0.15195031 0.85100001 4285485101
-0.26165104 -0.15195031 0.85100001 4283445774
-0.26016858 -0.15195031 0.85100001 4283446324
-0.25868613 -0.15195031 0.85100001 4283578167
-0.2572037 -0.15195031 0.85100001 4283906083
-0.25572127 -0.15195031 0.85100001 4284037669
-0.25423881 -0.15195031 0.85100001 4284037669
-0.25275639 -0.15195031 0.85100001 4283708960
-0.25186449 -0.15230744 0.85300004 4283840289
-0.25037858 -0.15230744 0.85300004 4284498220
-0.24889262 -0.15230744 0.85300004 4284367388
-0.24740671 -0.15230744 0.85300004 4284367388
-0.24592078 -0.15230744 0.85300004 4284367136
-0.24443486 -0.15230744 0.85300004 4284367136
-0.24294892 -0.15230744 0.85300004 4284366634
-0.24202915 -0.15266454 0.85500002 4285485371
-0.24053974 -0.15266454 0.85500002 4286665532
-0.23960951 -0.15302165 0.85700005 4287915599
-0.2386723 -0.15337875 0.85900003 4288112698
-0.23717594 -0.15337875 0.85900003 4287849270
-0.23650268 -0.15391442 0.86200005 4288113200
-0.23554629 -0.15427154 0.86400002 4288442165
-0.23458298 -0.15462865 0.86600006 4287323950
-0.23307441 -0.15462865 0.86600006 4285942297
-0.23210062 -0.15498576 0.86800003 4286334782
-0.23058857 -0.15498576 0.86800003 4287387213
-0.22907649 -0.15498576 0.86800003 4288113716
-0.22808881 -0.15534286 0.87000006 4289232197
-0.22787541 -0.15623565 0.87500006 4287917636
-0.22686854 -0.15659274 0.87700003 4287654207
-0.22534077 -0.15659274 0.87700003 4287719999
-0.22432348 -0.15694986 0.87900007 4287719999
-0.28057089 -0.15188238 0.85900003 4286800462
-0.27907452 -0.15188238 0.85900003 4286537289
-0.27693188 -0.15152876 0.85700005 4286206791
-0.27543899 -0.15152876 0.85700005 4284298794
-0.27394608 -0.15152876 0.85700005 4284754707
-0.27245319 -0.15152876 0.85700005 4286465068
-0.2709603 -0.15152876 0.85700005 4286074147
-0.26883852 -0.15117513 0.85500002 4286403111
-0.26734912 -0.15117513 0.85500002 4286535477
-0.26523784 -0.15082151 0.85300004 4286798649
-0.26375189 -0.15082151 0.85300004 4285485351
-0.26226595 -0.15082151 0.85300004 4283446024
-0.26078004 -0.15082151 0.85300004 4283576883
-0.25929412 -0.15082151 0.85300004 4283576883
-0.25780821 -0.15082151 0.85300004 4283774231
-0.25632226 -0.15082151 0.85300004 4284103196
-0.25483632 -0.15082151 0.85300004 4283906083
-0.25335041 -0.15082151 0.85300004 4283511325
-0.25186449 -0.15082151 0.85300004 4283578135
-0.25037858 -0.15082151 0.85300004 4284170272
-0.24889262 -0.15082151 0.85300004 4284367388
-0.24740671 -0.15082151 0.85300004 4284367388
-0.24592078 -0.15082151 0.85300004 4284367136
-0.24443486 -0.15082151 0.85300004 4284038171
-0.24351855 -0.15117513 0.85500002 4284169243
-0.24259531 -0.15152876 0.85700005 4285814069
-0.2411024 -0.15152876 0.85700005 4286535229
-0.24016869 -0.15188238 0.85900003 4287851089
-0.2386723 -0.15188238 0.85900003 4288112710
-0.23800427 -0.15241282 0.86200005 4287915587
-0.23705138 -0.15276644 0.86400002 4288113716
-0.23554629 -0.15276644 0.86400002 4288311095
-0.23458298 -0.15312007 0.86600006 4287389743
-0.23307441 -0.15312007 0.86600006 4285547539
-0.23210062 -0.15347371 0.86800003 4286332704
-0.23058857 -0.15347371 0.86800003 4287780406
-0.22907649 -0.15347371 0.86800003 4288245063
-0.22861314 -0.15418094 0.87200004 4289231958
-0.22787541 -0.1547114 0.87500006 4287394120
-0.22686854 -0.15506501 0.87700003 4287130691
-0.22534077 -0.15506501 0.87700003 4287786307
-0.22432348 -0.15541865 0.87900007 4287786307
-0.28057089 -0.15038601 0.85900003 4286929705
-0.27907452 -0.15038601 0.85900003 4287850807
-0.27757815 -0.15038601 0.85900003 4286996504
-0.27608177 -0.15038601 0.85900003 4285022464
-0.27394608 -0.15003586 0.85700005 4285019148
-0.27245319 -0.15003586 0.85700005 4285282064
-0.2709603 -0.15003586 0.85700005 4285679391
-0.26946738 -0.15003586 0.85700005 4285942306
-0.26734912 -0.14968573 0.85500002 4286338334
-0.26585972 -0.14968573 0.85500002 4286798885
-0.26437029 -0.14968573 0.85500002 4285749281
-0.26288089 -0.14968573 0.85500002 4284367628
-0.26139149 -0.14968573 0.85500002 4283511872
-0.25990209 -0.14968573 0.85500002 4283380029
-0.25841266 -0.14968573 0.85500002 4283773452
-0.25692326 -0.14968573 0.85500002 4283970831
-0.25543386 -0.14968573 0.85500002 4284036891
-0.25394443 -0.14968573 0.85500002 4283905049
-0.25245503 -0.14968573 0.85500002 4283840539
-0.2509656 -0.14968573 0.85500002 4284038175
-0.24947621 -0.14968573 0.85500002 4284366093
-0.24798678 -0.14968573 0.85500002 4284497679
-0.24649738 -0.14968573 0.85500002 4284169243
-0.24500798 -0.14968573 0.85500002 4283971865
-0.2440882 -0.15003586 0.85700005 4284299796
-0.24259531 -0.15003586 0.85700005 4286273586
-0.2411024 -0.15003586 0.85700005 4286994508
-0.24016869 -0.15038601 0.85900003 4288507747
-0.23950587 -0.15091121 0.86200005 4288311890
-0.23855646 -0.15126136 0.86400002 4288048461
-0.23705138 -0.15126136 0.86400002 4288113716
-0.23609154 -0.15161151 0.86600006 4287784751
-0.23458298 -0.15161151 0.86600006 4287257642
-0.23307441 -0.15161151 0.86600006 4285349645
-0.23210062 -0.15196164 0.86800003 4286069547
-0.23058857 -0.15196164 0.86800003 4287780165
-0.22960433 -0.15231179 0.87000006 4288836165
-0.22861314 -0.15266192 0.87200004 4289823316
-0.22787541 -0.15318714 0.87500006 4288640071
-0.22686854 -0.15353729 0.87700003 4287850555
-0.22534077 -0.15353729 0.87700003 4287786048
-0.22432348 -0.15388744 0.87900007 4287786048
-0.28057089 -0.14888963 0.85900003 4286073645
-0.27907452 -0.14888963 0.85900003 4287784262
-0.27757815 -0.14888963 0.85900003 4287062084
-0.27608177 -0.14888963 0.85900003 4285614638
-0.2745854 -0.14888963 0.85900003 4285609750
-0.27308899 -0.14888963 0.85900003 4285412115
-0.27159265 -0.14888963 0.85900003 4285809925
-0.26946738 -0.14854297 0.85700005 4286533905
-0.26797453 -0.14854297 0.85700005 4286468893
-0.26648161 -0.14854297 0.85700005 4286929444
-0.26437029 -0.14819631 0.85500002 4285881392
-0.26288089 -0.14819631 0.85500002 4284697118
-0.26139149 -0.14819631 0.85500002 4283775528
-0.26051003 -0.14854297 0.85700005 4283314977
-0.25901714 -0.14854297 0.85700005 4284164892
-0.25752425 -0.14854297 0.85700005 4284296734
-0.25543386 -0.14819631 0.85500002 4284166940
-0.25394443 -0.14819631 0.85500002 4284232989
-0.25245503 -0.14819631 0.85500002 4284102685
-0.2509656 -0.14819631 0.85500002 4284168478
-0.24947621 -0.14819631 0.85500002 4284103688
-0.24798678 -0.14819631 0.85500002 4284103688
-0.24649738 -0.14819631 0.85500002 4284299546
-0.24500798 -0.14819631 0.85500002 4284299546
-0.2440882 -0.14854297 0.85700005 4284431645
-0.24259531 -0.14854297 0.85700005 4286273849
-0.24166507 -0.14888963 0.85900003 4286864201
-0.24100748 -0.14940962 0.86200005 4288377696
-0.23950587 -0.14940962 0.86200005 4288246858
-0.23855646 -0.14975627 0.86400002 4287786307
-0.23760012 -0.15010294 0.86600006 4288048700
-0.23609154 -0.15010294 0.86600006 4287719991
-0.23458298 -0.15010294 0.86600006 4287389223
-0.23361267 -0.15044959 0.86800003 4284889346
-0.23210062 -0.15044959 0.86800003 4285804563
-0.23111987 -0.15079626 0.87000006 4288173111
-0.22960433 -0.15079626 0.87000006 4289163853
-0.22861314 -0.15114291 0.87200004 4290347871
-0.22787541 -0.1516629 0.87500006 4288771407
-0.22686854 -0.15200955 0.87700003 4287850305
-0.22534077 -0.15200955 0.87700003 4287653953
-0.22432348 -0.15235622 0.87900007 4287785796
-0.22272953 -0.15443616 0.89100003 4288641354
-0.22167389 -0.15478282 0.89300007 4289101905
-0.27907452 -0.14739324 0.85900003 4287785321
-0.27854759 -0.14790802 0.86200005 4287392040
-0.27704597 -0.14790802 0.86200005 4286470938
-0.2745854 -0.14739324 0.85900003 4286073645
-0.27308899 -0.14739324 0.85900003 4284954907
-0.27159265 -0.14739324 0.85900003 4285153324
-0.27009624 -0.14739324 0.85900003 4286403391
-0.26797453 -0.14705008 0.85700005 4286468900
-0.26648161 -0.14705008 0.85700005 4286534950
-0.26437029 -0.14670689 0.85500002 4286405428
-0.26288089 -0.14670689 0.85500002 4286602551
-0.26200292 -0.14705008 0.85700005 4284960318
-0.26051003 -0.14705008 0.85700005 4283907629
-0.25901714 -0.14705008 0.85700005 4284037430
-0.25752425 -0.14705008 0.85700005 4283774515
-0.25603136 -0.14705008 0.85700005 4284168228
-0.25453848 -0.14705008 0.85700005 4283970592
-0.25304556 -0.14705008 0.85700005 4283773718
-0.25155267 -0.14705008 0.85700005 4283510545
-0.25005978 -0.14705008 0.85700005 4283642372
-0.24856688 -0.14705008 0.85700005 4284300046
-0.24707399 -0.14705008 0.85700005 4284300829
-0.24558108 -0.14705008 0.85700005 4284892967
-0.24465783 -0.14739324 0.85900003 4284826673
-0.24316145 -0.14739324 0.85900003 4286010691
-0.24250908 -0.14790802 0.86200005 4286797634
-0.24156663 -0.14825119 0.86400002 4288902753
-0.24006155 -0.14825119 0.86400002 4288311599
-0.23855646 -0.14825119 0.86400002 4287587619
-0.23760012 -0.14859435 0.86600006 4287916591
-0.23609154 -0.14859435 0.86600006 4287653163
-0.23458298 -0.14859435 0.86600006 4287323153
-0.23361267 -0.14893752 0.86800003 4284823040
-0.23263542 -0.14928071 0.87000006 4285673767
-0.23111987 -0.14928071 0.87000006 4288108365
-0.23013215 -0.14962389 0.87200004 4289689929
-0.22939967 -0.15013865 0.87500006 4291400804
-0.22787541 -0.15013865 0.87500006 4289823286
-0.22686854 -0.15048182 0.87700003 4288046876
-0.22534077 -0.15048182 0.87700003 4287851339
-0.22483388 -0.15116817 0.88100004 4287785546
-0.22428167 -0.15288404 0.89100003 4288311358
-0.22272953 -0.15288404 0.89100003 4288443195
-0.22167389 -0.15322722 0.89300007 4289430090
-0.22011828 -0.15322722 0.89300007 4287396417
-0.27854759 -0.14640641 0.86200005 4287588410
-0.27704597 -0.14640641 0.86200005 4287259702
-0.27554435 -0.14640641 0.86200005 4286207039
-0.27404276 -0.14640641 0.86200005 4284562470
-0.27159265 -0.14589687 0.85900003 4284559901
-0.27009624 -0.14589687 0.85900003 4286073141
-0.26859987 -0.14589687 0.85900003 4286600241
-0.26710352 -0.14589687 0.85900003 4286534448
-0.26498872 -0.14555718 0.85700005 4286863147
-0.26349583 -0.14555718 0.85700005 4287389491
-0.26200292 -0.14555718 0.85700005 4286406480
-0.26051003 -0.14555718 0.85700005 4285222463
-0.25901714 -0.14555718 0.85700005 4283974717
-0.25752425 -0.14555718 0.85700005 4284172353
-0.25603136 -0.14555718 0.85700005 4284037932
-0.25453848 -0.14555718 0.85700005 4283511588
-0.25304556 -0.14555718 0.85700005 4283313171
-0.25155267 -0.14555718 0.85700005 4283313171
-0.25005978 -0.14555718 0.85700005 4283575557
-0.24856688 -0.14555718 0.85700005 4284101901
-0.24707399 -0.14555718 0.85700005 4284364837
-0.24615422 -0.14589687 0.85900003 4285023023
-0.24465783 -0.14589687 0.85900003 4284760367
-0.24401069 -0.14640641 0.86200005 4285944385
-0.24250908 -0.14640641 0.86200005 4286731559
-0.24156663 -0.1467461 0.86400002 4288573763
-0.24061728 -0.14708579 0.86600006 4288442165
-0.23910868 -0.14708579 0.86600006 4287981614
-0.23814885 -0.14742547 0.86800003 4288113212
-0.2366368 -0.14742547 0.86800003 4287126317
-0.23512472 -0.14742547 0.86800003 4286861600
-0.23415096 -0.14776517 0.87000006 4284953603
-0.23263542 -0.14776517 0.87000006 4285673760
-0.23165119 -0.14810486 0.87200004 4288831568
-0.23013215 -0.14810486 0.87200004 4289297238
-0.22939967 -0.14861439 0.87500006 4291270771
-0.22787541 -0.14861439 0.87500006 4289431400
-0.22686854 -0.14895408 0.87700003 4287589196
-0.22534077 -0.14895408 0.87700003 4287851591
-0.22483388 -0.14963347 0.88100004 4287851591
-0.22428167 -0.15133192 0.89100003 4288377151
-0.22322948 -0.1516716 0.89300007 4288443708
-0.22167389 -0.1516716 0.89300007 4289167687
-0.22061126 -0.15201129 0.89500004 4287789405
-0.27919385 -0.14524101 0.86400002 4287654459
-0.27768877 -0.14524101 0.86400002 4287786046
-0.27682298 -0.14557722 0.86600006 4286801720
-0.27531442 -0.14557722 0.86600006 4284761880
-0.27317351 -0.14524101 0.86400002 4284691238
-0.27103955 -0.14490481 0.86200005 4284757031
-0.26953796 -0.14490481 0.86200005 4286072096
-0.26710352 -0.14440049 0.85900003 4286795818
-0.26560712 -0.14440049 0.85900003 4286731811
-0.26411074 -0.14440049 0.85900003 4288113464
-0.26261437 -0.14440049 0.85900003 4287391801
-0.26111799 -0.14440049 0.85900003 4286536492
-0.25962159 -0.14440049 0.85900003 4284960318
-0.25812525 -0.14440049 0.85900003 4284105265
-0.25662887 -0.14440049 0.85900003 4283840319
-0.25453848 -0.14406429 0.85700005 4283313975
-0.25304556 -0.14406429 0.85700005 4283510314
-0.25155267 -0.14406429 0.85700005 4283378471
-0.25064334 -0.14440049 0.85900003 4283640596
-0.24914695 -0.14440049 0.85900003 4283838232
-0.24765058 -0.14440049 0.85900003 4284101427
-0.24615422 -0.14440049 0.85900003 4285022529
-0.24551229 -0.14490481 0.86200005 4285090111
-0.24457683 -0.14524101 0.86400002 4286405971
-0.2436344 -0.14557722 0.86600006 4287389743
-0.24212584 -0.14557722 0.86600006 4288179003
-0.24117294 -0.14591342 0.86800003 4288113200
-0.23966089 -0.14591342 0.86800003 4288442165
-0.23814885 -0.14591342 0.86800003 4287982659
-0.2366368 -0.14591342 0.86800003 4286140455
-0.23512472 -0.14591342 0.86800003 4285939744
-0.23415096 -0.14624964 0.87000006 4284952849
-0.23317021 -0.14658584 0.87200004 4285870108
-0.23165119 -0.14658584 0.87200004 4289028172
-0.23013215 -0.14658584 0.87200004 4289624656
-0.22939967 -0.14709015 0.87500006 4291729776
-0.22839627 -0.14742634 0.87700003 4290482260
-0.22686854 -0.14742634 0.87700003 4288047918
-0.22534077 -0.14742634 0.87700003 4287719999
-0.22483388 -0.14809875 0.88100004 4287917634
-0.22428167 -0.1497798 0.89100003 4288114245
-0.22322948 -0.150116 0.89300007 4288377403
-0.22167389 -0.150116 0.89300007 4289561421
-0.22011828 -0.150116 0.89300007 4288052814
-0.27833158 -0.14406864 0.86600006 4287458107
-0.27682298 -0.14406864 0.86600006 4286934334
-0.27531442 -0.14406864 0.86600006 4285750061
-0.27380586 -0.14406864 0.86600006 4284627491
-0.27166843 -0.14373592 0.86400002 4284495905
-0.2701633 -0.14373592 0.86400002 4285740055
-0.26803634 -0.1434032 0.86200005 4286924073
-0.26653475 -0.1434032 0.86200005 4286665252
-0.26411074 -0.1429041 0.85900003 4287652148
-0.26261437 -0.1429041 0.85900003 4287326026
-0.26111799 -0.1429041 0.85900003 4286733889
-0.25962159 -0.1429041 0.85900003 4285880640
-0.25812525 -0.1429041 0.85900003 4284498987
-0.25662887 -0.1429041 0.85900003 4283710237
-0.25513247 -0.1429041 0.85900003 4282854928
-0.25363609 -0.1429041 0.85900003 4283574803
-0.25213972 -0.1429041 0.85900003 4283377681
-0.25064334 -0.1429041 0.85900003 4283442701
-0.24914695 -0.1429041 0.85900003 4283706130
-0.2485155 -0.1434032 0.86200005 4283641618
-0.247587 -0.14373592 0.86400002 4284562720
-0.24665155 -0.14406864 0.86600006 4285221150
-0.24514298 -0.14406864 0.86600006 4287458111
-0.2436344 -0.14406864 0.86600006 4287786557
-0.24268502 -0.14440137 0.86800003 4287523641
-0.24117294 -0.14440137 0.86800003 4287916339
-0.23966089 -0.14440137 0.86800003 4288508219
-0.23869757 -0.14473408 0.87000006 4287588153
-0.23718205 -0.14473408 0.87000006 4284824847
-0.2356665 -0.14473408 0.87000006 4285478164
-0.23468922 -0.1450668 0.87200004 4285346322
-0.23317021 -0.1450668 0.87200004 4286001437
-0.23244816 -0.1455659 0.87500006 4289093965
-0.23092392 -0.1455659 0.87500006 4289427793
-0.22939967 -0.1455659 0.87500006 4291204204
-0.22839627 -0.14589861 0.87700003 4290351709
-0.22686854 -0.14589861 0.87700003 4287917112
-0.22585469 -0.14623134 0.87900007 4287982407
-0.22483388 -0.14656407 0.88100004 4288048200
-0.2247851 -0.1485604 0.89300007 4288376386
-0.22322948 -0.1485604 0.89300007 4288180542
-0.22167389 -0.1485604 0.89300007 4289167437
-0.22011828 -0.1485604 0.89300007 4288184915
-0.27897438 -0.14288931 0.86800003 4287457055
-0.2774623 -0.14288931 0.86800003 4287325995
-0.27595025 -0.14288931 0.86800003 4287589166
-0.2744382 -0.14288931 0.86800003 4286205746
-0.27229726 -0.14256008 0.86600006 4284231956
-0.2707887 -0.14256008 0.86600006 4285083949
-0.26865822 -0.14223082 0.86400002 4285610293
-0.26715314 -0.14223082 0.86400002 4286270478
-0.26564807 -0.14223082 0.86400002 4286731029
-0.26353154 -0.1419016 0.86200005 4286666034
-0.26202992 -0.1419016 0.86200005 4287060792
-0.26052833 -0.1419016 0.86200005 4286405926
-0.25812525 -0.14140773 0.85900003 4286340133
-0.25662887 -0.14140773 0.85900003 4285682984
-0.25513247 -0.14140773 0.85900003 4285288226
-0.25452191 -0.1419016 0.86200005 4284892719
-0.25302032 -0.1419016 0.86200005 4284366374
-0.2515187 -0.1419016 0.86200005 4284693034
-0.25001711 -0.1419016 0.86200005 4285219379
-0.24909209 -0.14223082 0.86400002 4285943851
-0.247587 -0.14223082 0.86400002 4286931002
-0.24665155 -0.14256008 0.86600006 4287457051
-0.24514298 -0.14256008 0.86600006 4288312360
-0.24419707 -0.14288931 0.86800003 4287719467
-0.2432442 -0.14321855 0.87000006 4286996000
-0.24172866 -0.14321855 0.87000006 4287454755
-0.24021311 -0.14321855 0.87000006 4287191326
-0.23924631 -0.14354779 0.87200004 4286927872
-0.23772727 -0.14354779 0.87200004 4285348608
-0.23620826 -0.14354779 0.87200004 4285675557
-0.23549667 -0.14404164 0.87500006 4285280799
-0.23397242 -0.14404164 0.87500006 4285804315
-0.23244816 -0.14404164 0.87500006 4289225294
-0.23145173 -0.14437088 0.87700003 4289559376
-0.22992399 -0.14437088 0.87700003 4290677858
-0.22891712 -0.14470012 0.87900007 4289891628
-0.22738591 -0.14470012 0.87900007 4288970526
-0.2247851 -0.14700478 0.89300007 4288244809
-0.22322948 -0.14700478 0.89300007 4288311108
-0.22217035 -0.14733402 0.89500004 4289100368
-0.22061126 -0.14733402 0.89500004 4288446029
-0.27897438 -0.14137726 0.86800003 4287851057
-0.2774623 -0.14137726 0.86800003 4287981362
-0.27595025 -0.14137726 0.86800003 4288441913
-0.2744382 -0.14137726 0.86800003 4287127109
-0.27292615 -0.14137726 0.86800003 4284034839
-0.27141407 -0.14137726 0.86800003 4284885019
-0.26928014 -0.1410515 0.86600006 4285740328
-0.26777157 -0.1410515 0.86600006 4285677342
-0.26626301 -0.1410515 0.86600006 4286269222
-0.26414296 -0.14072575 0.86400002 4286402848
-0.26263788 -0.14072575 0.86400002 4286797606
-0.26052833 -0.14039999 0.86200005 4286929957
-0.25902671 -0.14039999 0.86200005 4287061544
-0.25662887 -0.13991137 0.85900003 4286733355
-0.25513247 -0.13991137 0.85900003 4286404391
-0.25452191 -0.14039999 0.86200005 4285812274
-0.25302032 -0.14039999 0.86200005 4285614638
-0.25210226 -0.14072575 0.86400002 4285679641
-0.25117728 -0.1410515 0.86600006 4286140192
-0.2496687 -0.1410515 0.86600006 4287192110
-0.24816014 -0.1410515 0.86600006 4287718454
-0.24665155 -0.1410515 0.86600006 4288178223
-0.24570912 -0.14137726 0.86800003 4287849259
-0.24419707 -0.14137726 0.86800003 4287520800
-0.2432442 -0.14170301 0.87000006 4287717922
-0.24172866 -0.14170301 0.87000006 4287586604
-0.24021311 -0.14170301 0.87000006 4286533916
-0.23924631 -0.14202876 0.87200004 4286334752
-0.23772727 -0.14202876 0.87200004 4285479443
-0.23702091 -0.1425174 0.87500006 4285938211
-0.23549667 -0.1425174 0.87500006 4285148695
-0.23397242 -0.1425174 0.87500006 4285606420
-0.23297946 -0.14284314 0.87700003 4289751123
-0.23145173 -0.14284314 0.87700003 4289494867
-0.23044834 -0.14316891 0.87900007 4290349919
-0.22891712 -0.14316891 0.87900007 4289695297
-0.22790328 -0.14349465 0.88100004 4289103159
-0.22713941 -0.14398329 0.88400006 4288048982
-0.2247851 -0.14544918 0.89300007 4288441157
-0.22372945 -0.14577493 0.89500004 4288442695
-0.27810162 -0.14018747 0.87000006 4287850807
-0.27658609 -0.14018747 0.87000006 4288048187
-0.27507055 -0.14018747 0.87000006 4287522104
-0.27355501 -0.14018747 0.87000006 4285679900
-0.27203947 -0.14018747 0.87000006 4285346842
-0.26928014 -0.13954292 0.86600006 4284754705
-0.26777157 -0.13954292 0.86600006 4285346592
-0.26626301 -0.13954292 0.86600006 4285543714
-0.26475444 -0.13954292 0.86600006 4286269963
-0.26263788 -0.13922065 0.86400002 4286796307
-0.26113281 -0.13922065 0.86400002 4287060228
-0.25902671 -0.13889839 0.86200005 4287192071
-0.25752512 -0.13889839 0.86200005 4286928922
-0.25602353 -0.13889839 0.86200005 4287126557
-0.25511244 -0.13922065 0.86400002 4286929735
-0.25360733 -0.13922065 0.86400002 4286863942
-0.25210226 -0.13922065 0.86400002 4286864162
-0.25117728 -0.13954292 0.86600006 4286864162
-0.2496687 -0.13954292 0.86600006 4287190813
-0.24816014 -0.13954292 0.86600006 4287256606
-0.24722117 -0.13986519 0.86800003 4287651353
-0.24570912 -0.13986519 0.86800003 4287782682
-0.24419707 -0.13986519 0.86800003 4287455770
-0.2432442 -0.14018747 0.87000006 4287192598
-0.24172866 -0.14018747 0.87000006 4286796561
-0.24076533 -0.14050974 0.87200004 4284954368
-0.23924631 -0.14050974 0.87200004 4285740066
-0.23854516 -0.14099315 0.87500006 4286002982
-0.23702091 -0.14099315 0.87500006 4285806112
-0.23603493 -0.14131542 0.87700003 4285213718
-0.23450719 -0.14131542 0.87700003 4285803543
-0.23297946 -0.14131542 0.87700003 4290277723
-0.23145173 -0.14131542 0.87700003 4289890893
-0.23044834 -0.14163768 0.87900007 4289956686
-0.22943796 -0.14195995 0.88100004 4289628999
