# .PCD v0.7 - Point Cloud Data file format
VERSION 0.7
FIELDS x y z
SIZE 4 4 4
TYPE F F F
COUNT 1 1 1
WIDTH 538
HEIGHT 1
VIEWPOINT 0 0 0 1 0 0 0
POINTS 538
DATA ascii
0.019651633 0.0089094341 -0.0019628555
0.02721555 0.0086194016 -0.0011711855
0.035357609 0.0074044131 -0.0010345457
0.044791672 0.0069258655 -0.00095665897
0.054194819 0.0077124508 -0.0010224015
0.061311491 0.0086227935 -0.0010714106
0.0091412216 0.019344747 -0.0011140704
0.017430866 0.01705052 -0.0011239081
0.024666663 0.014269521 -0.00085315452
0.034433581 0.013486698 -0.00043528961
0.045124535 0.014059967 -0.0002742043
0.055467647 0.013365307 -0.00050933566
0.064732559 0.015068433 -0.00085291342
0.071558796 0.017905816 -0.0011143212
0.0087038968 0.027485447 -0.0012660959
0.014486033 0.024722565 -0.000904485
0.024723962 0.024575628 -0.00024228774
0.035000544 0.024720263 -0.00017364339
0.04496786 0.024905844 -0.00016522963
0.054846354 0.024868879 -0.00017295315
0.065846309 0.024011821 -0.00032012985
0.073639899 0.025267472 -0.00083742582
0.080433786 0.029942811 -0.0034497976
0.0081391856 0.035451721 -0.0011707972
0.013263937 0.034606501 -0.00062506454
0.024920214 0.035148554 -0.00018923949
0.035086356 0.034830011 -0.00018180722
0.044921305 0.035148256 -0.00015767317
0.055040088 0.034968361 -0.00017507948
0.064949028 0.035013452 -0.00014654055
0.075633749 0.034833658 -0.00066399574
0.080692999 0.036678106 -0.0014610527
0.0079840748 0.044760317 -0.0011765945
0.013126134 0.045150328 -0.00057664339
0.025011772 0.045149837 -0.00018259254
0.034858156 0.044992976 -0.0001741353
0.044915419 0.045081407 -0.00016366622
0.054895349 0.045069057 -0.00018508965
0.065028824 0.044979401 -0.00016200086
0.075873844 0.044992179 -0.00064473349
0.080887854 0.044154149 -0.0013686223
0.0085780155 0.053450946 -0.0012707261
0.013851381 0.05533541 -0.00082732947
0.024858322 0.055153295 -0.00019058603
0.034967534 0.055095591 -0.00018630366
0.044964768 0.054898273 -0.00015818236
0.054938685 0.055198342 -0.00017852444
0.065280385 0.055257812 -0.000192313
0.074386843 0.05495381 -0.00079817564
0.080466308 0.051560819 -0.0018477738
0.0087271137 0.061709225 -0.0010102143
0.016592028 0.063791655 -0.0011274905
0.024012128 0.066212282 -0.0006539122
0.034941755 0.065435022 -0.00023266289
0.0449812 0.06521704 -0.00016814505
0.055441998 0.065922841 -0.00026604047
0.065420613 0.065516427 -0.00075626717
0.072128341 0.063010626 -0.0010343565
0.018643036 0.07122349 -0.0014790207
0.026177349 0.07246273 -0.0011343876
0.03503735 0.074342139 -0.00096610328
0.044969961 0.075108781 -0.00087984325
0.054716818 0.073714897 -0.00096445548
0.062855847 0.071827844 -0.0010909252
0.036419041 0.080732018 -0.0017351091
0.044963311 0.080488481 -0.0015120388
0.052776575 0.080648884 -0.0034388602
0.027453544 0.0087594129 0.0021649248
0.035589833 0.0077997358 0.002159246
0.044956807 0.0074062371 0.0021620297
0.054237295 0.0080182822 0.0021626253
0.061876256 0.008928176 0.0021291417
0.0098395348 0.019534945 0.00082448125
0.017695291 0.017474193 0.0020803805
0.025474681 0.015648086 0.0022935404
0.035024982 0.015066126 0.002979676
0.044987839 0.015005296 0.0033271951
0.054953285 0.015123325 0.0029368212
0.064261489 0.015905961 0.0023261921
0.071690999 0.017912338 0.0021864229
0.0090485634 0.027789274 0.0020579665
0.015926389 0.025530735 0.0022217564
0.024947664 0.024977539 0.0035230406
0.034834869 0.024781592 0.0047762678
0.045007236 0.024611359 0.0048074224
0.055122931 0.024762394 0.0047008693
0.064949833 0.025034327 0.0033696538
0.07346195 0.025719959 0.0022871287
0.080751657 0.028174549 0.0024290574
0.0084134238 0.035689496 0.0020546245
0.015240082 0.035053451 0.0026050254
0.024849135 0.034950145 0.0045810598
0.034503728 0.034666002 0.0042260964
0.045080367 0.034802515 0.0029807063
0.055517357 0.034692001 0.004402258
0.065097578 0.034979954 0.0043885168
0.074434191 0.035092834 0.0025654684
0.080991425 0.036030877 0.0021196262
0.0083415722 0.044555556 0.0019911064
0.01523314 0.044960637 0.0026707593
0.024830434 0.044986513 0.0046669166
0.034491602 0.045206677 0.0038151604
0.045045048 0.04503962 0.0025991874
0.055519693 0.045136813 0.0041193045
0.065110877 0.045011573 0.0045132651
0.074541733 0.045004651 0.0026522481
0.081027836 0.044368315 0.0020763604
0.0087084314 0.053189836 0.0021160569
0.01556757 0.054711275 0.002309294
0.024921253 0.054990385 0.0039396696
0.034760855 0.055292133 0.0048619783
0.045054462 0.055475045 0.0045166314
0.055314232 0.05528044 0.0048713321
0.065009229 0.05499253 0.0037289788
0.073835388 0.054565072 0.0023367971
0.080835156 0.052206926 0.002155435
0.0088483989 0.060822442 0.0013593237
0.017096138 0.063371822 0.002082244
0.025162362 0.0647249 0.0025600062
0.034964219 0.065010697 0.0036040144
0.044967879 0.065043196 0.0039817514
0.054965153 0.064962707 0.003518536
0.064655177 0.064586312 0.0025562565
0.072302453 0.062876843 0.0021766149
0.018915791 0.071513668 0.0014914861
0.026512399 0.07215555 0.0020936986
0.03530642 0.073445693 0.00222011
0.044969667 0.07386446 0.002311728
0.054481577 0.073223993 0.002238478
0.062716439 0.071866922 0.0021022428
0.070548423 0.071047716 0.0019563437
0.038418703 0.080974631 0.001477321
0.043617863 0.080630258 0.002302222
0.028942121 0.028799757 0.010251177
0.036622792 0.027658394 0.010994947
0.04488587 0.027267808 0.011206664
0.052933414 0.028126907 0.010778716
0.028134378 0.036104951 0.010895569
0.03588935 0.035557054 0.012178037
0.044827715 0.035535883 0.013866843
0.054008394 0.035605151 0.011883066
0.061031971 0.036939763 0.010440275
0.028155524 0.044518992 0.010926683
0.035755891 0.044678707 0.012520259
0.044632096 0.044265945 0.015311556
0.054120235 0.044738591 0.012190654
0.060932923 0.043642402 0.010615649
0.028670309 0.052438177 0.010611793
0.03633637 0.053314004 0.011339667
0.04498753 0.053636566 0.011728304
0.0533261 0.052908655 0.011112472
0.060621094 0.050674677 0.010241821
0.038095474 0.06048524 0.010377213
0.044349819 0.060586315 0.010316591
0.039608885 0.039407026 0.02444585
0.043733042 0.039060466 0.025108963
0.039416037 0.041917786 0.025184648
0.043801129 0.042191271 0.025000699
0.039409231 0.039339755 0.035453357
0.043777347 0.038959987 0.035056442
0.039370701 0.042064577 0.034935288
0.043822795 0.042222146 0.03503152
0.039697956 0.039591536 0.04528483
0.04377576 0.039030917 0.045062337
0.039478108 0.042032477 0.045099352
0.043829925 0.042263944 0.045016296
0.039469432 0.039555747 0.053974468
0.043785673 0.039012749 0.055034082
0.039379563 0.041993253 0.05521727
0.043800741 0.042248335 0.054995194
0.039546337 0.03958445 0.064480245
0.043816704 0.038968183 0.065077402
0.039417475 0.041982055 0.064941071
0.043783933 0.04225124 0.064997151
0.039544594 0.039627664 0.075189233
0.043829244 0.0390191 0.075017653
0.039512154 0.041951153 0.075104624
0.043859303 0.042242087 0.074966334
0.039571062 0.039653022 0.084796973
0.043967422 0.03906953 0.084750421
0.039437227 0.041885559 0.08502607
0.043827552 0.042279709 0.08480718
0.028958 0.029034367 0.099587575
0.035860028 0.027653433 0.099052407
0.044333976 0.027427655 0.098853998
0.052620478 0.027957054 0.099268347
0.027282719 0.036187332 0.098887466
0.03526805 0.035474867 0.098095618
0.044326559 0.036923014 0.096430928
0.053742159 0.035576891 0.098425828
0.061285943 0.037585422 0.09934745
0.02695824 0.0446762 0.098617502
0.035732869 0.044682376 0.097768091
0.044140778 0.043091889 0.095382065
0.05411746 0.044909645 0.098231688
0.061268065 0.04445307 0.099349923
0.027677834 0.052629691 0.099241041
0.035344806 0.054169528 0.098429717
0.04446733 0.054359458 0.09828835
0.0533319 0.053485889 0.098819643
0.061193347 0.050355375 0.099709392
0.037371594 0.061291277 0.099656157
0.045595467 0.06134579 0.099501662
0.052150916 0.060389023 0.099573098
0.038309515 0.0097583532 0.10947677
0.043644458 0.009353972 0.10964798
0.050481468 0.009912461 0.10942155
0.019529372 0.019149341 0.10941794
0.026624762 0.017734881 0.10818314
0.035487883 0.016873626 0.10744317
0.044789806 0.016783413 0.10730608
0.053870331 0.017309844 0.10774009
0.061956156 0.018274449 0.10889657
0.017469577 0.026711816 0.10808075
0.025676155 0.025599893 0.10644106
0.034936558 0.024710936 0.10499252
0.045077153 0.024599681 0.10473122
0.054888081 0.025133209 0.10587645
0.063322514 0.026299736 0.10743649
0.0710878 0.028294094 0.10912175
0.0088391192 0.038044654 0.10981159
0.016703887 0.03547892 0.10712699
0.024685889 0.034861431 0.10502928
0.03466082 0.034628727 0.10246926
0.045187641 0.034378428 0.10214981
0.055314608 0.034791078 0.10362037
0.064312659 0.035233825 0.10647985
0.071856454 0.035881303 0.10844856
0.008902248 0.044472188 0.10961932
0.016543509 0.044818278 0.10692725
0.024665192 0.045066331 0.10448238
0.034321122 0.045219246 0.10202777
0.045308314 0.045284677 0.10174936
0.055483229 0.045092314 0.10308155
0.064600892 0.044990808 0.1061826
0.071949303 0.044737462 0.10819627
0.0090606809 0.05111932 0.10977507
0.016898444 0.054038752 0.107489
0.025038704 0.054932784 0.1056413
0.034837611 0.055264641 0.10343036
0.045100134 0.055389065 0.10310699
0.055223841 0.055221885 0.10457917
0.063869804 0.054428533 0.10687678
0.071524478 0.053268898 0.10876653
0.018085357 0.062185973 0.10865898
0.026080512 0.063589446 0.10722313
0.035134096 0.064386278 0.10617322
0.044948712 0.064684026 0.10604731
0.054427218 0.06389904 0.10682441
0.062851481 0.06280496 0.10792786
0.070974469 0.060279597 0.10944036
0.0279742 0.070886068 0.10915054
0.03564743 0.071804829 0.10838971
0.044677377 0.072008461 0.1081814
0.053199805 0.071550451 0.10875575
0.060432136 0.070598334 0.1087856
0.019461408 0.0090842247 0.11936365
0.026812255 0.0084362691 0.11787008
0.035452403 0.0078380527 0.11676353
0.044741001 0.0077119204 0.11673867
0.053870331 0.0081900619 0.11729874
0.061995521 0.0089556919 0.11837328
0.0095404387 0.018943883 0.11945066
0.017025469 0.01710508 0.11690244
0.025192181 0.015372046 0.11534794
0.034749441 0.013829017 0.11416299
0.045140594 0.013516092 0.11386161
0.055137139 0.01458078 0.11473915
0.06384261 0.016501008 0.11632027
0.071509533 0.018115573 0.11810292
0.0082038501 0.02673506 0.11734474
0.015367921 0.025111534 0.11531494
0.023367805 0.02340267 0.11251193
0.032797806 0.020993244 0.11081775
0.046266459 0.020530075 0.1105441
0.057102453 0.022002475 0.11152321
0.065852009 0.024356438 0.11414268
0.072727919 0.02609781 0.11667878
0.080479026 0.028203338 0.11983153
0.0074318582 0.035392556 0.11655577
0.013883323 0.034773745 0.11407162
0.021211231 0.03239207 0.11093815
0.067572899 0.034212831 0.11210034
0.074084148 0.035113975 0.11576071
0.080687575 0.035922088 0.1189976
0.0072664605 0.044822272 0.11637992
0.013436902 0.045130968 0.11377344
0.02056109 0.046437226 0.11060579
0.068156466 0.045290072 0.11177563
0.074477389 0.044954658 0.11548407
0.080764033 0.044678267 0.11848959
0.0077052228 0.054000948 0.11685123
0.014500256 0.055161472 0.11454601
0.02214665 0.057352975 0.11149493
0.058852825 0.058974657 0.11082409
0.06676697 0.05592595 0.11284157
0.073500305 0.054552272 0.11616743
0.080708981 0.052234001 0.11954074
0.008798874 0.062058292 0.11810511
0.016162895 0.064114325 0.11602198
0.024298895 0.066010043 0.1139566
0.034260381 0.067574777 0.11206073
0.045362964 0.068140194 0.11172288
0.055984277 0.066863857 0.11286908
0.06486696 0.064950228 0.11525398
0.072171338 0.062936492 0.11723146
0.017923016 0.071820892 0.11795633
0.025974857 0.073102064 0.11637916
0.035067812 0.074327521 0.11545318
0.044963516 0.074658468 0.1153287
0.054586075 0.073641092 0.11607918
0.062897421 0.07231088 0.11722459
0.07107462 0.070882984 0.11860843
0.028180785 0.080285937 0.11925452
0.036144383 0.080676921 0.11892011
0.044626806 0.080841169 0.11850118
0.053093888 0.080742314 0.11894208
0.037457179 -0.00039417404 0.12847106
0.04422478 -0.00046402134 0.12770878
0.052530997 -0.00050004327 0.12930076
0.017988686 0.0084027071 0.12643205
0.025758917 0.0072234306 0.12575099
0.034977853 0.0056451033 0.12505002
0.044956919 0.0052281749 0.12495218
0.054609288 0.0065509328 0.12544964
0.062911242 0.0081252446 0.12626486
0.070769243 0.0092987716 0.12808965
0.0083633848 0.017974203 0.12652493
0.015564377 0.015509777 0.1252498
0.023590449 0.012533432 0.12379242
0.033166062 0.010950725 0.12156847
0.045953263 0.010634439 0.12101171
0.056889214 0.011466144 0.12245178
0.0656339 0.014168913 0.12467267
0.072467342 0.017033432 0.12614588
0.080085188 0.019340336 0.12834269
-4.7534704e-05 0.029462397 0.12747195
0.0069641927 0.025757097 0.12567328
0.012497633 0.023615699 0.12383182
0.068726547 0.021671336 0.12173722
0.07520166 0.024855146 0.12498727
0.081063613 0.027515987 0.12695874
-0.0004807715 0.036179781 0.12805915
0.0054143579 0.03496933 0.12498311
0.010858246 0.033070967 0.12156749
0.077597864 0.034584936 0.12424089
0.081640407 0.035539169 0.12637492
-0.00058650621 0.044367246 0.12744777
0.0050084605 0.044979576 0.12479152
0.010628522 0.046067033 0.12090971
0.07801307 0.045202892 0.12388357
0.081823535 0.044692911 0.12626186
-0.00034982915 0.052113686 0.12875092
0.0060472689 0.054713517 0.12530659
0.01148996 0.056757905 0.12244253
0.069411486 0.059466071 0.12042551
0.076727472 0.055318702 0.12454086
0.081370585 0.053721182 0.12653022
0.0075994674 0.063383915 0.12593369
0.013996001 0.065701969 0.12456654
0.021693783 0.068644531 0.12191962
0.059557378 0.06988515 0.12035051
0.067479014 0.067367144 0.12336531
0.073869206 0.064248167 0.12548584
0.080837198 0.062067218 0.12798119
0.0090646958 0.071221426 0.12775998
0.016597893 0.072882123 0.12584008
0.024716571 0.075419664 0.12484615
0.034506653 0.077695288 0.12415482
0.045266695 0.078068845 0.12376481
0.055433176 0.076798871 0.12450251
0.064354509 0.073866777 0.12550136
0.071701519 0.07158073 0.12659431
0.019176388 0.080502383 0.12798719
0.02698799 0.081320569 0.1263697
0.035494298 0.082065523 0.12610246
0.044701103 0.08205945 0.1260611
0.053774435 0.081616953 0.12629026
0.062061604 0.080887929 0.12733853
0.028104609 -0.00059832435 0.13622101
0.035700612 -0.0011164835 0.13574967
0.044606958 -0.0011921281 0.13556091
0.053029861 -0.0007535906 0.13584392
0.0095875263 0.0097292289 0.13712138
0.017123422 0.0078147585 0.13555892
0.025091331 0.0059643555 0.1351642
0.034791145 0.0034373724 0.13497125
0.045028824 0.0028874255 0.13495772
0.055146191 0.004594679 0.13500533
0.063645154 0.0073489412 0.13544007
0.071405672 0.00885488 0.13559584
0.0077690748 0.017001117 0.1354721
0.014382121 0.014354027 0.13495849
0.021513242 0.011017794 0.13359752
0.059700359 0.010141715 0.13021602
0.067070447 0.012341013 0.13450572
0.07343591 0.016132234 0.13535093
0.08064539 0.018997137 0.13607836
-0.00065716973 0.028201634 0.13621925
0.0057670856 0.025058033 0.13513727
0.011121673 0.021478213 0.13362391
0.077313982 0.024165157 0.13483767
0.081511274 0.02678524 0.13564904
-0.0012080368 0.035678081 0.13551475
0.0033882123 0.034768842 0.13493635
0.07913132 0.03340432 0.13342248
0.082435407 0.035187114 0.13538995
-0.0013822318 0.044681601 0.1355616
0.0029065332 0.045052119 0.13491783
0.079350568 0.04582322 0.13256113
0.082828559 0.04487633 0.13523351
-0.00092097389 0.053249162 0.13584737
0.0043128952 0.05520073 0.13493761
0.010157466 0.059342638 0.13105792
0.078521632 0.056446359 0.13429776
0.082024172 0.054176684 0.13555162
-2.4974346e-05 0.060393095 0.13944536
0.006802131 0.063975714 0.13527578
0.012308778 0.067081071 0.13448936
0.069174781 0.069101967 0.13269708
0.075422063 0.065269992 0.13502392
0.080978774 0.06220201 0.13604841
0.0086567858 0.071791127 0.13582426
0.015782842 0.073861174 0.13525623
0.024148125 0.077408783 0.13475589
0.033332288 0.079215571 0.13347401
0.046249721 0.079477832 0.13276561
0.05651309 0.078543834 0.13430086
0.065284349 0.07543695 0.13501665
0.072194368 0.072274953 0.13551605
0.018498451 0.08113493 0.13593946
0.026228853 0.082043439 0.13552181
0.035098776 0.08279711 0.13527101
0.044896867 0.083107106 0.13515094
0.054211494 0.08224941 0.13542533
0.062379502 0.081259876 0.13581263
0.028147599 -0.00057092047 0.14402838
0.035536718 -0.0010649187 0.14417431
0.04451067 -0.0011657795 0.14443067
0.052350067 -0.00075973949 0.14394759
0.01707281 0.0077922335 0.1446391
0.025054002 0.0058133225 0.14472121
0.034817453 0.00324621 0.14480703
0.045039788 0.0026961614 0.14483392
0.055117056 0.004381476 0.14485975
0.063657559 0.0074156197 0.14458637
0.071090519 0.0090902084 0.14412957
0.0077763363 0.017097112 0.14469931
0.014286866 0.014198457 0.1447674
0.021160154 0.010754068 0.14542629
0.067288406 0.012178048 0.14519276
0.073415294 0.016082758 0.1446736
0.080536775 0.019285768 0.14364778
-0.00062190043 0.028292084 0.14438522
0.0056080357 0.025009606 0.14467436
0.010891856 0.021224597 0.14550711
0.077555642 0.024060549 0.14494838
0.081337191 0.026883533 0.14427038
-0.0010803711 0.035536293 0.14462358
0.0031620846 0.034793694 0.14475852
0.079365313 0.032895599 0.14571743
0.08235047 0.035140794 0.14467557
-0.0013271412 0.0447799 0.14476135
0.0026559553 0.045044959 0.14476539
0.079755969 0.047472008 0.14656472
0.082793109 0.044882827 0.1447154
-0.00083328254 0.053053971 0.14448462
0.0040667662 0.055209123 0.1447306
0.07870172 0.056608375 0.14516556
0.08190389 0.054178506 0.14459164
-5.7697296e-05 0.060540497 0.14115003
0.0067178397 0.064037032 0.14464229
0.012133763 0.067265935 0.14493789
0.069371037 0.069357239 0.14549194
0.075611219 0.065267809 0.14482434
0.080794886 0.061800212 0.14396167
0.0086349938 0.071726345 0.14437006
0.01568098 0.073987134 0.14471503
0.024030128 0.077554591 0.14484762
0.032897115 0.079434693 0.14544766
0.047383614 0.07967753 0.14603992
0.056785528 0.078700788 0.14505301
0.065336064 0.075612985 0.14488594
0.072110243 0.072168268 0.14435403
0.018454993 0.080956884 0.14449048
0.026162194 0.082041971 0.14464442
0.035137478 0.082925655 0.14465144
0.044899549 0.083278708 0.14472675
0.054270584 0.082236804 0.14467542
0.062156759 0.081224427 0.14403243
0.035344996 -0.00051743165 0.15051162
0.043315455 -0.00090514624 0.15040904
0.017411379 0.0083899247 0.15069123
0.025413806 0.0061899498 0.15084159
0.035191666 0.003884492 0.15098903
0.044984665 0.003034519 0.1509705
0.054886252 0.0050681285 0.1511309
0.063060492 0.0080905613 0.15104984
0.0083429534 0.01707159 0.1505928
0.01498342 0.01431209 0.15082049
0.021896739 0.011146482 0.15100518
0.067118309 0.012277608 0.15115453
0.072990619 0.016781431 0.1510679
0.0051121577 0.025485819 0.15067735
0.010924137 0.021775642 0.15131772
0.077287167 0.024247646 0.15109099
0.080785707 0.027930299 0.15117906
-0.00069643394 0.034657229 0.15066028
0.0039237174 0.034193184 0.15092027
0.079250731 0.033301976 0.15095493
0.081903532 0.035338357 0.15109152
-0.0011961445 0.044921827 0.15068403
0.0032004835 0.044730421 0.15109646
0.079661213 0.045003396 0.1508082
0.082382478 0.044843625 0.15109131
-0.00043920678 0.052627124 0.15055263
0.0046362989 0.055108692 0.15071507
0.078593351 0.05634116 0.15111919
0.081422918 0.05377489 0.15118818
0.0068013752 0.063916802 0.15075165
0.013022653 0.066762015 0.15088014
0.069372408 0.069216274 0.15158074
0.075238422 0.064868927 0.15106732
0.08034724 0.061061408 0.15090281
0.0088343564 0.071308114 0.15045623
0.015737249 0.073575512 0.15080522
0.02434486 0.07726264 0.15098517
0.034176242 0.079098985 0.15095106
0.047360532 0.079698443 0.15059678
0.056693826 0.078688674 0.15127161
0.065368429 0.07498993 0.15112473
0.071619362 0.071321391 0.1511685
0.019319177 0.080140859 0.15004122
0.026631327 0.081487417 0.15082753
0.035072636 0.082273133 0.15096985
0.045021664 0.082400888 0.15101288
0.054168031 0.081397779 0.15088272
0.060704868 0.080445528 0.15029514
