# .PCD v0.7 - Point Cloud Data file format
VERSION 0.7
FIELDS x y z
SIZE 4 4 4
TYPE F F F
COUNT 1 1 1
WIDTH 1354
HEIGHT 1
VIEWPOINT 0 0 0 1 0 0 0
POINTS 1354
DATA ascii
0.09494552 -0.11529153 -0.26304704
0.10398462 -0.11319893 -0.2630547
0.11109354 -0.11135226 -0.26157239
-0.21319805 -0.10230019 -0.26255596
-0.20470564 -0.10536868 -0.26395047
-0.19474554 -0.10509092 -0.26526073
-0.18665218 -0.10628708 -0.2655313
-0.17626043 -0.106977 -0.26808953
0.069307148 -0.1090076 -0.26972541
0.077191859 -0.10849112 -0.26840425
0.08507859 -0.10756686 -0.26601598
0.09594994 -0.10620908 -0.26612476
0.10463495 -0.10471894 -0.26443493
0.11390412 -0.10349882 -0.26313886
0.12077147 -0.10110741 -0.26029739
-0.22378659 -0.093035638 -0.26281872
-0.21473549 -0.095330037 -0.2650277
-0.20530058 -0.095400013 -0.26613489
-0.19511178 -0.096286878 -0.2661536
-0.18759951 -0.097526215 -0.26906577
0.088522255 -0.098756179 -0.26736677
0.095218278 -0.096349306 -0.26755464
0.1059633 -0.096252538 -0.26674947
0.11511055 -0.094732054 -0.26476088
0.12425279 -0.093616836 -0.26424569
0.13348186 -0.094250403 -0.26073927
-0.23301168 -0.083746865 -0.26286706
-0.22575018 -0.085699618 -0.26486421
-0.21628778 -0.086125784 -0.26546609
-0.20708683 -0.086467192 -0.26704296
0.097038954 -0.089309305 -0.26978916
0.10651138 -0.082678974 -0.26903087
0.11553066 -0.086288199 -0.26709363
0.12480712 -0.085591353 -0.26570255
0.1330999 -0.085424334 -0.2634469
-0.24393423 -0.073111288 -0.26232368
-0.23485659 -0.074554496 -0.26553354
-0.22617531 -0.07597553 -0.26585791
-0.21676558 -0.077428803 -0.26731783
0.11885005 -0.077516764 -0.26553431
0.12658216 -0.076064058 -0.26632681
0.13536572 -0.076327935 -0.26458338
0.14412732 -0.074237846 -0.26135853
-0.25151429 -0.062226862 -0.26335239
-0.24461879 -0.064212315 -0.26404089
-0.23516659 -0.066001058 -0.26541236
-0.22640026 -0.062941976 -0.26773834
0.12986386 -0.066241391 -0.26773894
0.13535519 -0.065830514 -0.26512784
0.14472859 -0.065644257 -0.2657527
0.15301724 -0.063968495 -0.26284695
-0.26420105 -0.052689418 -0.26031327
-0.2536816 -0.054248739 -0.26358292
-0.24564546 -0.055620007 -0.26528963
-0.23622394 -0.055032711 -0.26652631
-0.2286762 -0.05670264 -0.26802358
0.13634256 -0.057591286 -0.26775047
0.14557104 -0.055635836 -0.26531336
0.15445553 -0.054276042 -0.26455137
0.16142252 -0.054624185 -0.26183063
-0.27351397 -0.040312737 -0.26116836
-0.26320586 -0.044121604 -0.263706
-0.25483954 -0.044428349 -0.26489827
-0.24586591 -0.045381643 -0.26568538
-0.2377532 -0.044612445 -0.26849791
0.13834789 -0.048995584 -0.26823038
0.14532097 -0.046014726 -0.26684111
0.15515171 -0.045821447 -0.26591071
0.16448706 -0.043715328 -0.26351196
0.17146301 -0.044917464 -0.26098192
-0.27205068 -0.03366895 -0.26259235
-0.26435226 -0.034693018 -0.26449472
-0.25574622 -0.034796651 -0.26588786
-0.24522074 -0.036505468 -0.26811442
0.14744577 -0.03985779 -0.2681655
0.15569581 -0.035624888 -0.26627657
0.1658292 -0.034975149 -0.2656737
0.17393577 -0.034581643 -0.26253977
0.18038434 -0.030019335 -0.26135993
-0.27363163 -0.024540039 -0.2631667
-0.26592028 -0.025282321 -0.26518026
-0.25656226 -0.026055072 -0.26615691
0.15831377 -0.02714516 -0.26818204
0.16660693 -0.024932224 -0.26474419
0.17425734 -0.024506716 -0.26450047
0.18050838 -0.027639635 -0.26038194
-0.2821016 -0.013577661 -0.26317644
-0.27435237 -0.014558907 -0.26427028
-0.26521185 -0.015085079 -0.26594818
-0.25736335 -0.017508272 -0.26635829
0.15686586 -0.014829576 -0.2691142
0.16687372 -0.014933283 -0.26593101
0.17463723 -0.013949617 -0.26561445
0.18189083 -0.016205762 -0.26224023
-0.28323069 -0.0034116912 -0.26284668
-0.27536893 -0.0048165289 -0.26505587
-0.26606965 -0.0052766814 -0.26621383
0.16697548 -0.0052681598 -0.26632038
0.1753778 -0.0048502921 -0.26583838
0.18385005 -0.0050459397 -0.26364058
0.19155988 -0.0019993186 -0.2611616
-0.28413594 0.0049701468 -0.26427478
-0.27602595 0.0055055195 -0.26590732
-0.26542217 0.0032671273 -0.26720974
0.16833821 0.0064287335 -0.26990879
0.17542699 0.0049912925 -0.2660065
0.18388133 0.0054710531 -0.26554459
0.19149765 0.0060513029 -0.26159042
-0.29238304 0.015891584 -0.26300657
-0.28452557 0.016065817 -0.26503587
-0.27648601 0.014502869 -0.26675546
-0.26798567 0.014789755 -0.26945689
0.17699941 0.015879953 -0.2664566
0.18491822 0.014902333 -0.26502937
0.1934109 0.015971694 -0.26323286
-0.29364765 0.025576385 -0.26275814
-0.2847473 0.024512632 -0.26569012
-0.27738911 0.023378719 -0.26607403
0.17774576 0.024311939 -0.26895171
0.18594226 0.024701711 -0.26564068
0.19402358 0.024937188 -0.26468429
0.20251007 0.02630306 -0.26055992
-0.3002423 0.038617838 -0.26036239
-0.2940084 0.032985549 -0.2636109
-0.28513181 0.034095645 -0.26594612
-0.27799016 0.035819285 -0.26495051
0.17784573 0.031539813 -0.2693412
0.18561609 0.034599952 -0.26576084
0.1946205 0.034643717 -0.26420513
0.20165321 0.034456544 -0.26237628
-0.29458106 0.044703126 -0.26391256
-0.28502956 0.043959323 -0.26543087
-0.27888957 0.046781898 -0.26546493
0.18632729 0.044122551 -0.26637471
0.19469583 0.044869035 -0.26488447
0.20238979 0.044111222 -0.26174888
-0.30092698 0.05354052 -0.26234275
-0.29421419 0.055744983 -0.26406938
-0.28611046 0.054701101 -0.26717424
-0.2777043 0.053151779 -0.26699477
0.18663056 0.055413041 -0.26766634
0.19517842 0.055163674 -0.26492897
0.20320117 0.054519124 -0.26211989
-0.30245546 0.066413544 -0.26254112
-0.29449308 0.065755308 -0.26470846
-0.2851797 0.063567743 -0.26545995
-0.27795386 0.06378641 -0.26809695
0.18610619 0.064423092 -0.26535416
0.19538385 0.064837538 -0.26551136
0.20292921 0.064938389 -0.26242948
-0.30182844 0.076203108 -0.26319408
-0.29527736 0.075945042 -0.26461712
-0.28619835 0.075332992 -0.26635024
0.18758194 0.071933322 -0.26760861
0.1960665 0.075391486 -0.26575336
0.20441544 0.075700834 -0.26297149
0.21073732 0.075953305 -0.26043898
-0.30287939 0.085193992 -0.26415733
-0.29545119 0.085956641 -0.26458466
-0.28684112 0.085516818 -0.26581547
0.18725286 0.084885582 -0.26805079
0.19666646 0.086345762 -0.26612869
0.20471811 0.086538769 -0.26349014
-0.30312502 0.094800152 -0.26300901
-0.29629076 0.095595092 -0.264714
-0.28679886 0.094108209 -0.2669588
0.18686233 0.095552258 -0.26647925
0.19659017 0.094155073 -0.26640993
0.20427498 0.093982175 -0.26278234
-0.30219415 0.10330961 -0.26333463
-0.29496372 0.10383222 -0.2649326
-0.28640103 0.10471223 -0.26601601
0.18769245 0.10734699 -0.26543254
0.19602646 0.1032734 -0.26575086
0.20370947 0.10339998 -0.26304939
0.21033695 0.103184 -0.26098818
-0.30262327 0.11245104 -0.26247251
-0.29479921 0.11467302 -0.26452047
-0.28528807 0.11631973 -0.26546094
-0.27843234 0.11354049 -0.26789892
0.17797297 0.11712256 -0.26978558
0.18631922 0.11452352 -0.26773024
0.19583113 0.11481088 -0.26567665
0.20304663 0.11485139 -0.26269576
-0.30076438 0.12633426 -0.26251635
-0.2937609 0.12440079 -0.26394692
-0.28558099 0.12465291 -0.2668896
-0.27735859 0.12451363 -0.26789537
0.18646827 0.12480507 -0.26742855
0.19484854 0.12452571 -0.2645202
0.20227712 0.125369 -0.26341873
-0.2948404 0.13450137 -0.26402724
-0.28597561 0.13502689 -0.26526484
-0.27856457 0.13532563 -0.26584977
0.18675347 0.13565731 -0.26613486
0.19496806 0.13450937 -0.26451701
0.2024457 0.13491841 -0.26193029
-0.30022585 0.14047803 -0.26065722
-0.29395023 0.14655273 -0.26355258
-0.28485411 0.14517944 -0.26605085
-0.2773965 0.14303669 -0.26684979
0.17868885 0.14703459 -0.26964384
0.18588454 0.14545403 -0.26617151
0.19502953 0.14488275 -0.26448268
0.20163141 0.14464182 -0.26237649
-0.29340461 0.15486492 -0.26283133
-0.28510144 0.15678214 -0.26590228
-0.2776764 0.15588763 -0.26643771
0.17848861 0.15916684 -0.26747602
0.18631423 0.15511362 -0.26488653
0.1941867 0.15516655 -0.26489881
0.20167826 0.15439962 -0.26094577
-0.29252815 0.16328838 -0.26303884
-0.28434873 0.16502714 -0.26473433
-0.27597612 0.16569467 -0.26715127
-0.26794213 0.1661738 -0.26921308
0.1760935 0.16370465 -0.26764593
0.1845966 0.16570809 -0.26556209
0.19312276 0.16482231 -0.26256022
-0.28357175 0.17518513 -0.26408312
-0.27557924 0.17531809 -0.26635805
-0.2655299 0.17653863 -0.26750445
0.16843557 0.17275293 -0.2698839
0.17587812 0.17530356 -0.26629302
0.18398868 0.17587093 -0.26523095
0.19198775 0.17237967 -0.26155731
-0.28292832 0.18527065 -0.26264933
-0.27525893 0.18487529 -0.26508558
-0.26631498 0.18523279 -0.26602134
0.15516877 0.18896061 -0.26982033
0.1684325 0.18670812 -0.26553115
0.17519176 0.18415029 -0.26537481
0.18379544 0.18485016 -0.2638489
-0.2814433 0.19402373 -0.26406163
-0.27409586 0.19430318 -0.26459494
-0.26507834 0.19476233 -0.26575601
-0.25795898 0.19584623 -0.26621112
0.16689849 0.19555326 -0.26567745
0.17497611 0.19422409 -0.26514304
0.18247719 0.19478816 -0.26231244
-0.27359411 0.20504589 -0.26270938
-0.26630846 0.20480256 -0.26525515
-0.25661373 0.20541611 -0.26640552
0.15885717 0.20404872 -0.26829386
0.16581284 0.20431617 -0.26600426
0.17391749 0.20514371 -0.2636255
0.18063419 0.20673054 -0.26086143
-0.27264774 0.21418646 -0.26205581
-0.26438266 0.21422015 -0.26455903
-0.25548998 0.21505448 -0.26615798
-0.24495475 0.21587196 -0.26842719
0.14835313 0.21870556 -0.26864427
0.15575476 0.21611407 -0.26575696
0.16575937 0.21459581 -0.26547378
0.17328933 0.2140443 -0.2627041
-0.26365906 0.22358607 -0.2639747
-0.25467101 0.22517303 -0.26536736
-0.2467197 0.22499429 -0.2648831
-0.23787189 0.22630823 -0.26705426
0.13938639 0.22789863 -0.26853752
0.14672662 0.22466215 -0.26634687
0.15513799 0.2258279 -0.26606381
0.16391169 0.22494459 -0.26317835
0.1713777 0.22307801 -0.26149914
-0.26148087 0.2338568 -0.26023069
-0.25306368 0.23401672 -0.26372296
-0.2449339 0.23458405 -0.2652787
-0.2357914 0.23407672 -0.26671702
-0.22890286 0.23767431 -0.26726776
0.13679849 0.23695934 -0.26693928
0.14576568 0.23435926 -0.26554349
0.15502512 0.23402557 -0.26442105
0.16091609 0.2354269 -0.26300448
-0.25141487 0.24129811 -0.26335838
-0.24453394 0.24415755 -0.26436126
-0.23552246 0.24550036 -0.26586944
-0.22628979 0.24593441 -0.26570541
0.11940938 0.24750566 -0.26862049
0.12751088 0.2496669 -0.26942879
0.13543749 0.24537683 -0.26548839
0.14462787 0.24459249 -0.26605991
0.15305901 0.24407151 -0.26187867
-0.24403811 0.25213975 -0.26226756
-0.23450524 0.25484452 -0.26490501
-0.22628722 0.2556445 -0.26625219
-0.21701622 0.25731984 -0.26772672
0.11461492 0.25931814 -0.26855633
0.12747557 0.25609949 -0.26562941
0.13521062 0.25551653 -0.26484844
0.14385696 0.25404122 -0.26186857
-0.23307356 0.26269937 -0.2628006
-0.22554974 0.26547438 -0.26453647
-0.21641578 0.26607466 -0.26629111
-0.20586328 0.26714408 -0.26692331
0.098997235 0.26746309 -0.26960427
0.10566287 0.26557624 -0.26933569
0.11513211 0.26622167 -0.26688027
0.12488674 0.26645747 -0.26531968
0.13328733 0.264685 -0.26366097
0.14003335 0.26137522 -0.26128405
-0.22322807 0.27321947 -0.26307768
-0.2146641 0.27484539 -0.26512986
-0.20495775 0.27514082 -0.26593989
-0.19470033 0.27661783 -0.26607135
-0.18759577 0.27802753 -0.26889744
0.095276587 0.27588773 -0.26749828
0.10606278 0.27644062 -0.26642281
0.11520607 0.27482671 -0.26489067
0.12384968 0.27518132 -0.26283059
0.13255297 0.27406222 -0.26076955
-0.22000557 0.2806021 -0.26161662
-0.21210565 0.28239936 -0.2629444
-0.20502961 0.28468466 -0.26393142
-0.19548957 0.28490251 -0.26502317
-0.18624619 0.28703308 -0.26497874
-0.17658105 0.28705719 -0.26773673
0.074853085 0.28807983 -0.26933032
0.085912742 0.28673512 -0.26625061
0.096141756 0.28563312 -0.26645973
0.1038858 0.28503209 -0.26462141
0.11354367 0.28339049 -0.26300213
0.12085794 0.28135341 -0.26214489
-0.20246196 0.29267424 -0.26127237
-0.1943948 0.29414105 -0.26297244
-0.18485533 0.29463273 -0.26586899
-0.17570241 0.29666331 -0.26637655
-0.16560166 0.29631287 -0.26674119
0.048131317 0.29652449 -0.26949701
0.055259518 0.29904091 -0.26725733
0.066445217 0.29540128 -0.26848435
0.075714923 0.29579049 -0.26604208
0.085132077 0.29543337 -0.26637754
0.094637789 0.29492876 -0.26329011
0.10310747 0.29427382 -0.26295575
0.11128786 0.29077554 -0.26232815
-0.18292512 0.30369368 -0.26383793
-0.17436758 0.30519885 -0.2645652
-0.16510019 0.30439419 -0.26526928
-0.15577975 0.3057009 -0.26672047
-0.14530511 0.30713502 -0.26628774
-0.1338207 0.30780575 -0.26789984
-0.12995724 0.30909878 -0.2694405
0.037847124 0.30655372 -0.26638395
0.047705267 0.30569494 -0.26601359
0.055995312 0.30621722 -0.26779521
0.065248512 0.30592847 -0.26643267
0.074954227 0.30536216 -0.26508713
0.083841577 0.30490422 -0.26329833
0.090527415 0.30337757 -0.26191154
-0.17336276 0.31275085 -0.26267147
-0.16399834 0.3131476 -0.2636975
-0.15454613 0.31512186 -0.26400939
-0.14488333 0.31542253 -0.26422438
-0.13547437 0.31601092 -0.26565695
-0.12511289 0.31609675 -0.26723766
-0.11880182 0.31848699 -0.26389
-0.10703255 0.31921557 -0.26863688
-0.096465096 0.31751102 -0.26907635
-0.032534063 0.31774816 -0.26989728
-0.028194606 0.31813973 -0.26999825
-0.016432494 0.31981999 -0.26643357
-0.0055156052 0.31411195 -0.2694459
0.0039729327 0.31857169 -0.26761657
0.014837325 0.31903017 -0.2641429
0.024364226 0.31603518 -0.26524222
0.035926517 0.31565082 -0.26603279
0.045011975 0.31597036 -0.26532966
0.054747261 0.31473568 -0.26484075
0.063707963 0.31456059 -0.26374012
0.074942149 0.31303972 -0.26256976
0.085218892 0.31133267 -0.26092273
-0.14517425 0.32348755 -0.26283538
-0.13516597 0.3245531 -0.26419991
-0.12415455 0.32466027 -0.2648553
-0.11519026 0.32434475 -0.26589361
-0.10626271 0.32423884 -0.26657483
-0.096470229 0.32592899 -0.26728386
-0.085330136 0.3256824 -0.26681495
-0.075021267 0.32673436 -0.26632553
-0.063610695 0.3268128 -0.26698989
-0.054880656 0.32864094 -0.26590562
-0.044324216 0.32731721 -0.26691008
-0.036588687 0.32575628 -0.26832694
-0.024834653 0.32763287 -0.26723066
-0.014962554 0.32683596 -0.26658764
-0.0042858562 0.32548022 -0.26701683
0.0057799355 0.32605258 -0.26624909
0.015676448 0.32485962 -0.26618215
0.02489366 0.32502779 -0.26612911
0.034737159 0.32416779 -0.26451227
0.044430222 0.32382664 -0.26298049
0.055145394 0.32190099 -0.26215178
0.06391564 0.3211903 -0.26095685
-0.12480127 0.33235508 -0.26211664
-0.11425779 0.33424917 -0.26353937
-0.10430602 0.33292663 -0.26466906
-0.095406942 0.33528587 -0.26430613
-0.08594013 0.33451882 -0.26397911
-0.074387446 0.33493593 -0.26392895
-0.063645408 0.33560711 -0.26518282
-0.055421751 0.33545408 -0.26621661
-0.046056371 0.33556589 -0.26533568
-0.035561688 0.33559829 -0.26423088
-0.02562394 0.33490658 -0.26475438
-0.014033899 0.33516592 -0.26459441
-0.004301006 0.33389741 -0.2643266
0.0047125253 0.33451137 -0.26397973
0.014461739 0.33314854 -0.26390612
0.025080483 0.3325285 -0.26299429
0.034548592 0.33130196 -0.26168185
-0.10481465 0.34098166 -0.26031011
-0.093788505 0.34277886 -0.26097339
-0.084903106 0.3412348 -0.26155001
-0.07390172 0.34188113 -0.26285517
-0.064532071 0.34225509 -0.26277289
-0.053325128 0.34199584 -0.26407099
-0.047328923 0.3440834 -0.26256129
-0.035810202 0.34252861 -0.26298755
-0.024383154 0.34245452 -0.26186103
-0.013851481 0.34154946 -0.26196715
-0.0016136765 0.34133053 -0.26061535
0.0031791925 0.3428399 -0.26081055
-0.11129752 -0.22058347 -0.25050545
-0.10204905 -0.22256947 -0.25028795
-0.095035404 -0.22207972 -0.25012675
-0.083624497 -0.2218858 -0.25058571
-0.075934336 -0.22186099 -0.25063747
-0.068189085 -0.22212309 -0.25121176
-0.055815935 -0.22277232 -0.2508857
-0.045164134 -0.22424501 -0.25107205
-0.035093218 -0.22248453 -0.25026307
-0.026203863 -0.22364624 -0.25105983
-0.012141556 -0.22183338 -0.25075287
-0.0073290467 -0.22277124 -0.25010163
0.0023144186 -0.22041792 -0.25009474
-0.1373045 -0.21258211 -0.25067472
-0.12298252 -0.21404493 -0.25075021
-0.11338097 -0.21239707 -0.25051284
-0.10480486 -0.21389163 -0.25135279
-0.093335085 -0.2127488 -0.25153506
-0.086251482 -0.21312419 -0.25141963
-0.075002529 -0.21406059 -0.2511538
-0.064094007 -0.21365429 -0.25156409
-0.054607697 -0.2148076 -0.25142893
-0.045958661 -0.21256013 -0.2516948
-0.035261855 -0.21509789 -0.25115776
-0.025335548 -0.21394679 -0.25187826
-0.014309344 -0.21563844 -0.25129291
-0.0067009055 -0.2143801 -0.25096804
0.0049307216 -0.21368207 -0.25153747
0.014867809 -0.21357065 -0.2508162
0.025903761 -0.21361296 -0.25138518
0.034480043 -0.213154 -0.25115368
0.046389297 -0.2131761 -0.25035039
-0.16445267 -0.2023266 -0.25046217
-0.15296035 -0.20361538 -0.25110802
-0.14554004 -0.20347026 -0.25071579
-0.13510308 -0.20408452 -0.25119478
-0.12448879 -0.20637551 -0.25181147
-0.11257257 -0.20640993 -0.25136799
-0.10596726 -0.20548235 -0.25131974
-0.094286434 -0.20530066 -0.25189841
-0.086734377 -0.20498373 -0.25179479
-0.074675106 -0.20483379 -0.2517339
-0.063072741 -0.20505914 -0.25224328
-0.056477156 -0.20424761 -0.25282311
-0.044762217 -0.20483392 -0.25309011
-0.035306778 -0.20494334 -0.25177047
-0.024240123 -0.20377584 -0.25246081
-0.015250959 -0.20463355 -0.25201702
-0.005335392 -0.20399721 -0.2521778
0.0046704947 -0.20401427 -0.25182277
0.016205626 -0.20510279 -0.25155386
0.024716329 -0.20340216 -0.25222102
0.032602806 -0.20361099 -0.25196344
0.045469563 -0.20401955 -0.25163856
0.056365605 -0.20293882 -0.25127324
0.066229209 -0.2025218 -0.25079653
-0.18366456 -0.19414723 -0.25045669
-0.17590843 -0.19482414 -0.25059864
-0.16382946 -0.19324906 -0.25135213
-0.15372247 -0.19370042 -0.25165352
-0.14618513 -0.19496171 -0.25128385
-0.13747191 -0.19543523 -0.25191742
-0.12382048 -0.19546153 -0.25238034
-0.11409246 -0.19463938 -0.25209209
-0.10618457 -0.19633463 -0.25222361
-0.09546376 -0.19625212 -0.25244465
-0.085764587 -0.195962 -0.25241742
-0.075143717 -0.19486161 -0.25242263
-0.063504159 -0.19412813 -0.2525185
-0.054865319 -0.19706976 -0.25276336
-0.046447031 -0.19541253 -0.25223678
-0.035622779 -0.19525671 -0.25235534
-0.025729533 -0.19706047 -0.25247625
-0.013798 -0.19498639 -0.25250301
-0.0050495178 -0.19396813 -0.25151947
0.0049954443 -0.19484276 -0.2527985
0.014957894 -0.19585638 -0.25242645
0.02619837 -0.1935395 -0.2525672
0.033636577 -0.19556439 -0.25192761
0.045328368 -0.19551478 -0.25183409
0.05540853 -0.19159469 -0.25207874
0.0635994 -0.19667935 -0.25133029
0.075104222 -0.19218713 -0.25124598
0.084041201 -0.19344729 -0.25112435
0.10455382 -0.19021612 -0.25017121
-0.20591509 -0.18295048 -0.25027773
-0.19561285 -0.18445082 -0.25070989
-0.18320018 -0.18366471 -0.25128332
-0.17439187 -0.18387729 -0.2513569
-0.16496156 -0.184773 -0.25154081
-0.15382753 -0.18459406 -0.25198078
-0.14529978 -0.18410212 -0.25246516
-0.13491502 -0.18496981 -0.25256258
-0.12405035 -0.18365674 -0.25198248
-0.11415703 -0.18508087 -0.25276083
-0.10637918 -0.18457937 -0.25220203
-0.095398948 -0.18515486 -0.25236738
-0.085150227 -0.18426974 -0.25232324
-0.074886888 -0.18591465 -0.25270161
-0.062913418 -0.18625022 -0.25227991
-0.055764914 -0.18655069 -0.25314552
-0.045947004 -0.18571861 -0.25255775
-0.035556614 -0.18504383 -0.25222024
-0.024166612 -0.18570323 -0.2526893
-0.014562431 -0.18559952 -0.25239602
-0.0057733408 -0.18630737 -0.2525526
0.0044268533 -0.18568872 -0.25254259
0.014638287 -0.18658704 -0.25196281
0.026418922 -0.18434456 -0.25239077
0.033896428 -0.18550247 -0.25270396
0.046607319 -0.18563715 -0.2523993
0.056055792 -0.18499179 -0.25278553
0.065038532 -0.18479834 -0.25220415
0.073813215 -0.18589935 -0.25132927
0.084181033 -0.185036 -0.25191382
0.094762601 -0.1857069 -0.25108182
0.10388151 -0.18376271 -0.25152248
0.11804175 -0.1801578 -0.25015277
-0.21336378 -0.17407426 -0.25069934
-0.20381764 -0.17422573 -0.25156268
-0.19657363 -0.17474031 -0.25122172
-0.18392298 -0.17385785 -0.25201479
-0.17522173 -0.17436442 -0.25214228
-0.16518909 -0.17426804 -0.25232205
-0.15451065 -0.17506032 -0.25271147
-0.14487942 -0.17636573 -0.25202364
-0.13427974 -0.17503893 -0.25230706
-0.12434097 -0.17330977 -0.25272453
-0.11437394 -0.17444688 -0.25261635
-0.10610478 -0.17491363 -0.2527121
-0.09617129 -0.1742527 -0.25272816
-0.085535124 -0.17472625 -0.25302643
-0.074090667 -0.17522483 -0.25272825
-0.063420504 -0.17465864 -0.25323808
-0.055048194 -0.17403854 -0.25439963
-0.046454269 -0.17571904 -0.25403321
-0.036332868 -0.1742311 -0.25293732
-0.024324486 -0.17446131 -0.25317499
-0.014076648 -0.1747379 -0.25280443
-0.0041523096 -0.17466894 -0.25264052
0.0056236745 -0.17586368 -0.25269017
0.015266168 -0.17563273 -0.25274414
0.024579138 -0.17514475 -0.25249746
0.034496434 -0.17544648 -0.25208747
0.046384413 -0.17380637 -0.25261033
0.054847613 -0.17645714 -0.25287896
0.06441322 -0.17269859 -0.25264111
0.074796602 -0.17624158 -0.25223386
0.084901161 -0.17493685 -0.25229198
0.093701065 -0.17573252 -0.2519426
0.10667883 -0.17392004 -0.25287706
0.11362009 -0.17696731 -0.25114188
0.12321327 -0.17515287 -0.25026122
-0.23535693 -0.16245481 -0.25031334
-0.22438066 -0.16447529 -0.25094241
-0.21272011 -0.16486573 -0.25145659
-0.2058455 -0.16488801 -0.25182694
-0.19631976 -0.16491805 -0.2521773
-0.18473582 -0.16392496 -0.25254938
-0.1736332 -0.16516355 -0.25227824
-0.16534223 -0.16485086 -0.25240937
-0.15395191 -0.16507559 -0.25272396
-0.1450742 -0.16541518 -0.25260541
-0.13443778 -0.16592157 -0.25237387
-0.12444038 -0.16339692 -0.25355458
-0.11466958 -0.16407023 -0.25432917
-0.10528594 -0.16360676 -0.25498262
-0.095100142 -0.16432282 -0.25466922
-0.08485575 -0.16466083 -0.25450987
-0.074506707 -0.16540588 -0.25511011
-0.063725553 -0.16516481 -0.25491285
-0.053888779 -0.16532385 -0.25552332
-0.046455827 -0.1663539 -0.25409907
-0.036625799 -0.165039 -0.25549427
-0.024785955 -0.16550885 -0.25506639
-0.013903977 -0.16487797 -0.25445166
-0.0045642811 -0.16404182 -0.25450033
0.0046482189 -0.16333738 -0.25465065
0.014477492 -0.16341677 -0.25535539
0.024389746 -0.16346328 -0.253537
0.033133756 -0.16409726 -0.25343966
0.045902006 -0.16443126 -0.25238141
0.055403229 -0.16374007 -0.2526395
0.064018779 -0.16483545 -0.25257966
0.074658379 -0.16419089 -0.25225067
0.085331067 -0.1649494 -0.25273523
0.096160643 -0.16478018 -0.25228927
0.10520665 -0.16559932 -0.25200438
0.11415615 -0.16628511 -0.25227588
0.12420965 -0.16463538 -0.25168246
0.13453333 -0.1643126 -0.25104529
-0.2348513 -0.15392108 -0.25149575
-0.22553989 -0.15418561 -0.25131917
-0.21378379 -0.15412705 -0.2519803
-0.20462157 -0.15518244 -0.25211427
-0.19533189 -0.15586329 -0.25213435
-0.18459521 -0.15571271 -0.2521767
-0.17513283 -0.15506682 -0.25237396
-0.16508685 -0.15552709 -0.25294498
-0.15443334 -0.15514705 -0.25306049
-0.14548375 -0.15525208 -0.25331974
-0.13519484 -0.15494153 -0.25472137
-0.12428365 -0.1555462 -0.25554574
-0.11424025 -0.15540193 -0.25641075
-0.10576652 -0.15551881 -0.25619537
-0.096474074 -0.15672156 -0.25594869
-0.085177243 -0.15575576 -0.25734732
-0.075908206 -0.15633492 -0.25832564
-0.06469506 -0.15802084 -0.25664479
-0.056330975 -0.15684938 -0.25785613
-0.043183349 -0.1576889 -0.25696868
-0.036179379 -0.15746911 -0.25681335
-0.023752257 -0.15697251 -0.25585303
-0.014232869 -0.15723172 -0.25706419
-0.0035009775 -0.15641767 -0.25630113
0.003876105 -0.15602921 -0.25624311
0.014254006 -0.15596104 -0.25637695
0.024681853 -0.15579396 -0.25580138
0.035324808 -0.15407857 -0.25453401
0.045809112 -0.15500775 -0.25472957
0.054129895 -0.15441319 -0.25299937
0.06497921 -0.15451127 -0.25337029
0.07314378 -0.15399213 -0.25218925
0.085089885 -0.15394402 -0.25240818
0.095418312 -0.15377322 -0.25303015
0.10379793 -0.1549823 -0.25198078
0.1137163 -0.15323409 -0.25261623
0.12467685 -0.15539877 -0.25193354
0.13428129 -0.15382977 -0.25212145
0.14316091 -0.15225315 -0.25117138
0.15361193 -0.1534293 -0.25033289
-0.25374475 -0.14368565 -0.2511023
-0.24425462 -0.14615904 -0.2509433
-0.23476489 -0.145395 -0.25159261
-0.22495085 -0.14478631 -0.2518779
-0.2141055 -0.14394701 -0.25212309
-0.20430256 -0.14357205 -0.25239599
-0.19534267 -0.14500099 -0.25214291
-0.18355966 -0.14541794 -0.25274354
-0.17391154 -0.14467123 -0.25320569
-0.16543606 -0.1447037 -0.25400242
-0.15529643 -0.14476477 -0.25522223
-0.1451495 -0.14588226 -0.25533518
-0.13478731 -0.14668143 -0.25504643
-0.12665989 -0.14723203 -0.25564831
-0.11625361 -0.14819895 -0.25749585
-0.1054163 -0.14532956 -0.258035
-0.096753716 -0.14808366 -0.25661659
-0.089706898 -0.14619297 -0.25929099
-0.01287663 -0.14918587 -0.25870913
-0.0066129267 -0.14802092 -0.25807273
0.0057286322 -0.14807665 -0.25905541
0.015970677 -0.14734119 -0.2578209
0.026950169 -0.14619139 -0.2574403
0.035356931 -0.14522402 -0.25694445
0.045049362 -0.14621577 -0.25594562
0.055312812 -0.14531814 -0.25424361
0.06444338 -0.14416535 -0.25472605
0.073945083 -0.1451176 -0.25350726
0.085038118 -0.14523783 -0.25314689
0.095041707 -0.14440125 -0.25271782
0.10497616 -0.14471078 -0.25280416
0.11435076 -0.14594853 -0.25216466
0.12493679 -0.14402662 -0.25213596
0.13617033 -0.14452153 -0.25274518
0.148389 -0.14444169 -0.25129166
0.15221918 -0.14596999 -0.25154504
0.16945693 -0.14095843 -0.25041702
-0.26463029 -0.13428803 -0.2509068
-0.255436 -0.13437441 -0.2516613
-0.24546044 -0.13504568 -0.25132731
-0.23520598 -0.1344202 -0.25225282
-0.22556566 -0.1330096 -0.25231534
-0.21443334 -0.13463858 -0.25275537
-0.20554991 -0.1349099 -0.25261161
-0.19489734 -0.13526104 -0.25280118
-0.18443093 -0.13546398 -0.25414109
-0.17390102 -0.13474467 -0.25531858
-0.16539121 -0.13567474 -0.25519225
-0.15518135 -0.13652985 -0.25596961
-0.14488593 -0.13613053 -0.2578502
-0.13598464 -0.13881849 -0.25922549
-0.1250115 -0.138744 -0.25759992
0.031763852 -0.13784948 -0.25894579
0.043715239 -0.13689551 -0.25538427
0.055619914 -0.13665499 -0.2563265
0.065320849 -0.1356065 -0.25609833
0.074283689 -0.13513148 -0.25584978
0.083803959 -0.1347145 -0.25431991
0.094896346 -0.13639253 -0.25327
0.10340063 -0.13487099 -0.25233081
0.11428116 -0.13628152 -0.25270137
0.12550034 -0.13540013 -0.25117508
0.13517757 -0.13485795 -0.25279987
0.14496166 -0.13425796 -0.25233945
0.15353161 -0.13585071 -0.25257039
0.16568545 -0.13490447 -0.25199082
0.17465155 -0.13418806 -0.25081974
-0.27401704 -0.12677965 -0.2503475
-0.26451689 -0.12420279 -0.25146544
-0.25640741 -0.12539648 -0.25182539
-0.24533077 -0.12417737 -0.25228637
-0.23503666 -0.12493106 -0.25256854
-0.22375122 -0.12463988 -0.25268829
-0.21499641 -0.12543589 -0.25239453
-0.20467047 -0.12581754 -0.2528033
-0.19427617 -0.12554538 -0.25436208
-0.18525663 -0.12541638 -0.25564393
-0.17669556 -0.12704864 -0.25533137
-0.16636987 -0.12619059 -0.2571739
-0.15935692 -0.12839158 -0.25890145
-0.14649346 -0.12985247 -0.25746635
0.048419625 -0.12955791 -0.25894332
0.059598804 -0.12924728 -0.25620165
0.065002471 -0.12655629 -0.25729725
0.075586461 -0.12414072 -0.25635648
0.08654011 -0.12586778 -0.25584927
0.094822802 -0.12581547 -0.25493678
0.10427457 -0.12462594 -0.25324249
0.11569349 -0.12450399 -0.25300992
0.1249455 -0.12608314 -0.25218761
0.13488029 -0.12472511 -0.25306016
0.14439294 -0.12490517 -0.25249001
0.15358217 -0.12489319 -0.25238127
0.16525562 -0.12640469 -0.25160211
0.17620163 -0.12600665 -0.25155169
0.18438217 -0.12340628 -0.25091407
-0.2816186 -0.11656084 -0.25078869
-0.27432773 -0.11393037 -0.25124472
-0.2645098 -0.11379559 -0.25177696
-0.2558654 -0.11533278 -0.25208086
-0.24450138 -0.11497223 -0.25235164
-0.23486023 -0.11571895 -0.25217158
-0.22471772 -0.11478635 -0.25263306
-0.21497783 -0.11492655 -0.25331134
-0.20552747 -0.11440583 -0.25485966
-0.19541338 -0.11569478 -0.25555938
-0.18571788 -0.11723538 -0.25647721
-0.17787012 -0.11954739 -0.257231
0.085702702 -0.11606231 -0.25738746
0.095139489 -0.11533422 -0.25638363
0.10520848 -0.11579052 -0.25543404
0.11488518 -0.11340477 -0.25412124
0.12368474 -0.11416561 -0.25230429
0.13486004 -0.11452989 -0.25301039
0.14633563 -0.11510319 -0.25239539
0.15406074 -0.11403155 -0.25235718
0.16427399 -0.11351513 -0.25189301
0.17353216 -0.11659987 -0.25220972
0.18382147 -0.11417239 -0.25187236
0.19490689 -0.11554196 -0.25091353
-0.29510632 -0.1025519 -0.25041348
-0.28466773 -0.10482877 -0.25101086
-0.2753292 -0.10361589 -0.25167155
-0.26514098 -0.10557996 -0.25215349
-0.2555553 -0.10427262 -0.25276271
-0.24537794 -0.10422275 -0.25244561
-0.23499325 -0.1048933 -0.253194
-0.22456902 -0.10519573 -0.25428605
-0.2156706 -0.10467537 -0.25527707
-0.20491883 -0.10559436 -0.25568783
-0.19531736 -0.10640606 -0.25824574
-0.18756656 -0.10724777 -0.25987571
0.096100107 -0.10659248 -0.25709352
0.10544698 -0.10594042 -0.2561903
0.11539713 -0.10577621 -0.2546064
0.1246829 -0.10429888 -0.25391299
0.13468361 -0.10390463 -0.25321797
0.14410815 -0.10487895 -0.25356236
0.15319116 -0.10374393 -0.25280026
0.16583359 -0.10549608 -0.25268793
0.17574917 -0.10424268 -0.25254297
0.18479791 -0.10443445 -0.25167638
0.19304451 -0.10461301 -0.25189015
0.20233035 -0.10191933 -0.25083032
-0.30383596 -0.090011656 -0.25014025
-0.29471603 -0.095321096 -0.25105777
-0.28552759 -0.094674818 -0.25150487
-0.27435967 -0.094932549 -0.25207773
-0.26583001 -0.094993956 -0.25246048
-0.25480089 -0.093630217 -0.25244099
-0.24466722 -0.094426453 -0.25316411
-0.2348232 -0.094787858 -0.25444311
-0.22411478 -0.09431877 -0.25557196
-0.21571304 -0.095926866 -0.25507823
-0.20654087 -0.09664236 -0.25736085
0.10634367 -0.096460022 -0.25777835
0.1167929 -0.096035592 -0.25683463
0.12498026 -0.095663838 -0.25530946
0.13395508 -0.095377855 -0.25579482
0.14533341 -0.095513202 -0.25292945
0.15425205 -0.095747367 -0.25273219
0.16578636 -0.095222853 -0.25246739
0.17472863 -0.095716879 -0.25189507
0.18542086 -0.095128581 -0.25200558
0.19772364 -0.094724841 -0.25091004
0.20491937 -0.094805703 -0.25121927
-0.30420443 -0.083596259 -0.25062609
-0.29652461 -0.083794579 -0.25141263
-0.28492782 -0.084560759 -0.25195149
-0.27405104 -0.084049329 -0.25221026
-0.26519355 -0.085219167 -0.2522417
-0.25491369 -0.085059464 -0.25264332
-0.24451406 -0.085222863 -0.25361499
-0.23534074 -0.084838465 -0.25550222
-0.22736143 -0.08523722 -0.25652963
-0.2166242 -0.087266095 -0.25858486
0.11621672 -0.089863181 -0.25603566
0.12626238 -0.087014064 -0.25779289
0.13552052 -0.085448056 -0.2550849
0.14439529 -0.084550649 -0.25442109
0.15342979 -0.085252069 -0.2527588
0.1655142 -0.084541358 -0.25230274
0.17405967 -0.08480002 -0.25211683
0.18452957 -0.084146909 -0.25218442
0.19570522 -0.083022088 -0.25212851
0.20401347 -0.085088477 -0.25176618
0.21418358 -0.085659638 -0.25127268
-0.31278148 -0.073410027 -0.25070047
-0.30340749 -0.073852926 -0.25129849
-0.29619098 -0.074809626 -0.25178671
-0.285133 -0.074323565 -0.25237665
-0.27450013 -0.074861608 -0.25239563
-0.26480508 -0.075970754 -0.25223315
-0.25465521 -0.07560534 -0.25312111
-0.244673 -0.076322861 -0.25527331
-0.23543356 -0.075911723 -0.25647342
-0.22839749 -0.07312198 -0.25848359
0.13648005 -0.075078458 -0.255824
0.14562866 -0.075479023 -0.25605637
0.15402108 -0.076003969 -0.25367409
0.16541211 -0.073221967 -0.25310451
0.17406805 -0.07528384 -0.25261191
0.18558984 -0.074141242 -0.25240666
0.19572288 -0.075776979 -0.25233352
0.20427467 -0.075662948 -0.25236523
0.21328332 -0.073469155 -0.25240776
0.22340724 -0.072081111 -0.25011146
-0.32354274 -0.063476264 -0.25028136
-0.31483531 -0.065205209 -0.25109398
-0.3040415 -0.064560175 -0.25151524
-0.29580066 -0.064290099 -0.2518687
-0.28500581 -0.066391781 -0.25237328
-0.27458698 -0.065083414 -0.25256273
-0.26379946 -0.065249637 -0.25322744
-0.25514102 -0.065002963 -0.25520834
-0.24598305 -0.066412121 -0.25586486
-0.23693541 -0.066970848 -0.25630617
0.1357995 -0.069646955 -0.2572172
0.14550023 -0.066506304 -0.25710922
0.15545927 -0.065455191 -0.25523382
0.16378035 -0.065122239 -0.25278229
0.17452753 -0.06453947 -0.25260594
0.18516833 -0.065784812 -0.25269398
0.19467135 -0.064336091 -0.25231695
0.20401306 -0.065591402 -0.25294721
0.2140359 -0.062140554 -0.25226673
0.2231788 -0.0655673 -0.25175488
-0.3225652 -0.0525463 -0.25083053
-0.31533182 -0.055146769 -0.25144348
-0.30486915 -0.054859042 -0.25194618
-0.29598704 -0.056161463 -0.25240695
-0.28544506 -0.055253062 -0.25253969
-0.27488655 -0.05497203 -0.25254297
-0.26563063 -0.054395121 -0.25404179
-0.25616953 -0.055889554 -0.25556678
-0.24652734 -0.055960845 -0.25645259
0.14688036 -0.056102913 -0.25766191
0.15485257 -0.056010779 -0.25604111
0.1648194 -0.054471929 -0.25523421
0.17387094 -0.054561462 -0.25271678
0.18464215 -0.055959597 -0.25277066
0.19673274 -0.054380544 -0.25245699
0.2037721 -0.055720948 -0.25194323
0.21672969 -0.054869 -0.25277829
0.22310787 -0.054119948 -0.25147858
0.23399389 -0.055290427 -0.25048298
-0.32403395 -0.045059588 -0.25099352
-0.31500426 -0.044371378 -0.25162607
-0.30554128 -0.045313593 -0.25219071
-0.29559538 -0.046100274 -0.25212881
-0.28509325 -0.045240737 -0.25242984
-0.27459407 -0.044878062 -0.25409028
-0.26429728 -0.04446141 -0.25601125
-0.25725794 -0.045425348 -0.25495234
-0.24754076 -0.049361005 -0.2596246
0.14872062 -0.047842085 -0.25867608
0.15550475 -0.046331473 -0.25763232
0.16578166 -0.044617612 -0.25603756
0.1743135 -0.04502384 -0.25472456
0.18457453 -0.044117544 -0.2523104
0.1946754 -0.044674058 -0.25226983
0.20444512 -0.044417996 -0.25186852
0.21430704 -0.045513608 -0.25331965
0.22342382 -0.044492573 -0.25193298
0.23389815 -0.044485241 -0.25096676
0.24292397 -0.040971249 -0.25028414
-0.33282939 -0.035595246 -0.25039536
-0.32470614 -0.034082491 -0.25139031
-0.31441918 -0.035094842 -0.2521826
-0.304391 -0.035171535 -0.25204498
-0.29531503 -0.03390903 -0.25234041
-0.28498474 -0.035834312 -0.25339922
-0.27507213 -0.035290889 -0.25494942
-0.26458266 -0.035104185 -0.2549383
-0.25854719 -0.036925271 -0.2579509
0.15635569 -0.036393106 -0.25957334
0.16616406 -0.035148926 -0.25713295
0.17487988 -0.035697203 -0.25583386
0.18442114 -0.03324936 -0.2540012
0.19552755 -0.034881983 -0.252978
0.2048315 -0.033442758 -0.25184602
0.21602589 -0.033974372 -0.25206327
0.22443418 -0.035847675 -0.2524704
0.23595269 -0.037823413 -0.25166702
-0.33310169 -0.025479242 -0.25108963
-0.32464564 -0.025173517 -0.25125247
-0.31436068 -0.025114901 -0.25207624
-0.30542529 -0.025678447 -0.25221059
-0.29497838 -0.02451496 -0.2522206
-0.28462276 -0.02451901 -0.25442392
-0.27595076 -0.025696578 -0.25547957
-0.26538101 -0.025840856 -0.25798699
-0.25853449 -0.029681832 -0.25992826
0.16794543 -0.028075986 -0.25900015
0.1765008 -0.024505062 -0.25593266
0.1851816 -0.024792442 -0.25361547
0.19443668 -0.02566549 -0.25269943
0.20628279 -0.02593416 -0.25277546
0.21618921 -0.022923997 -0.25339174
0.22350875 -0.024682451 -0.25235814
0.23381324 -0.024928603 -0.25166532
0.24157581 -0.026087951 -0.25162327
-0.34253237 -0.014939076 -0.25044215
-0.33375311 -0.015753251 -0.25150579
-0.32472831 -0.015112856 -0.25182083
-0.31512627 -0.01523203 -0.25246066
-0.30483174 -0.016098304 -0.2525228
-0.29535481 -0.014971375 -0.25215691
-0.28526387 -0.015004478 -0.25427708
-0.27682585 -0.015600961 -0.25542375
-0.26858491 -0.016621962 -0.25624263
0.17650633 -0.016134817 -0.25575897
0.18537267 -0.014570331 -0.25508758
0.19366238 -0.01430492 -0.2531144
0.20536201 -0.015469337 -0.25186041
0.21623027 -0.015625063 -0.25188741
0.22392684 -0.015192678 -0.25358081
0.23457821 -0.014458053 -0.25233892
0.24367866 -0.012691925 -0.25167587
-0.34263888 -0.0033754248 -0.2507934
-0.33377835 -0.0039636604 -0.25161693
-0.32365295 -0.005667672 -0.25209939
-0.31542841 -0.0049200766 -0.25210968
-0.3053979 -0.0038498787 -0.25241774
-0.29492572 -0.0039053562 -0.25305977
-0.28575209 -0.0053589903 -0.25554642
-0.27596772 -0.006178495 -0.25637192
-0.26905373 -0.0071142465 -0.25991714
0.17847772 -0.0066012205 -0.2568529
0.18603273 -0.0048980527 -0.25567642
0.19477186 -0.0044661118 -0.25398707
0.20459966 -0.0046684919 -0.25247252
0.21551275 -0.0055569671 -0.25213134
0.22585858 -0.0032827905 -0.25241569
0.23389819 -0.0058466559 -0.2523053
0.24510618 -0.004957512 -0.25184232
0.25165832 -0.0052268058 -0.25117132
-0.34454677 0.0062424946 -0.25113374
-0.3351326 0.0050938092 -0.25154281
-0.32363293 0.0051261722 -0.25252834
-0.31489977 0.0060217064 -0.25234312
-0.30432174 0.0064898026 -0.25290245
-0.29445946 0.0062244511 -0.25422913
-0.28486693 0.0057116719 -0.25580704
-0.27839801 0.0025801696 -0.25566632
0.18602793 0.005679186 -0.25631127
0.19506536 0.0048248428 -0.25511056
0.20424916 0.0056413217 -0.25228444
0.21518587 0.00578155 -0.25266108
0.2270714 0.0040721628 -0.25106129
0.23412374 0.0063540065 -0.25307834
0.24536574 0.0057970276 -0.25224873
0.25604868 0.0075792386 -0.2516551
-0.35306984 0.015572205 -0.25042561
-0.34425661 0.015201035 -0.25135818
-0.33454087 0.014416317 -0.25180948
-0.32411739 0.013870305 -0.25273335
-0.31361565 0.016332697 -0.25226283
-0.30470225 0.01622716 -0.25316474
-0.29513109 0.015583253 -0.25544587
-0.28510845 0.014592859 -0.25567254
-0.27794531 0.013169846 -0.25834391
0.18745206 0.014541758 -0.25732613
0.19494663 0.015873451 -0.2555832
0.20439142 0.01550284 -0.25384176
0.21596819 0.014269114 -0.25189933
0.22446142 0.015304399 -0.25279412
0.23277746 0.013657935 -0.25096783
0.24451962 0.016259072 -0.25190079
0.25361139 0.014852025 -0.25223613
0.26494581 0.01651926 -0.25014934
-0.3526673 0.028847218 -0.25090402
-0.34587657 0.025540225 -0.25094819
-0.33432394 0.025086336 -0.25213355
-0.32432517 0.026005799 -0.25225943
-0.31509286 0.024238845 -0.25242025
-0.30468959 0.025494576 -0.25334185
-0.29460758 0.023781547 -0.25557891
-0.28587577 0.023409523 -0.2578252
0.1878427 0.020371098 -0.25838158
0.19619709 0.024416374 -0.25532615
0.20437387 0.024384765 -0.25389478
0.2147384 0.024695588 -0.25229824
0.22501284 0.024886247 -0.25234303
0.23403697 0.024142439 -0.25259581
0.2449744 0.025542596 -0.25247422
0.25283533 0.026141038 -0.25255907
-0.3535029 0.03351292 -0.25049549
-0.34474817 0.033927564 -0.25154006
-0.3350966 0.03464428 -0.25186017
-0.32407361 0.035776909 -0.25201699
-0.31521407 0.034487277 -0.25239348
-0.30532926 0.033710603 -0.25399181
-0.29522935 0.03472735 -0.25549087
-0.28715387 0.033152711 -0.25728089
0.18803833 0.036473542 -0.25960076
0.19715303 0.033308767 -0.25568295
0.20521407 0.033941031 -0.25412354
0.21190205 0.036082841 -0.25341442
0.22499691 0.034779202 -0.25284645
0.23520806 0.035640124 -0.2520349
0.24674051 0.03516002 -0.25205541
0.2532903 0.035066344 -0.25260636
0.26551169 0.030831158 -0.25050026
-0.35377431 0.045301706 -0.2508578
-0.34420142 0.04517927 -0.25157472
-0.33388686 0.044903394 -0.25214696
-0.32414755 0.044007897 -0.25268918
-0.31520915 0.044059962 -0.25225145
-0.30468094 0.04559692 -0.25430226
-0.29596728 0.045022629 -0.2560696
-0.28617787 0.042838462 -0.25715327
0.18653399 0.04151237 -0.25974804
0.19727528 0.044284906 -0.2563515
0.20481971 0.044598281 -0.25459555
0.21339263 0.045736454 -0.25260839
0.22345199 0.044848397 -0.25205466
0.2334899 0.043916821 -0.25159454
0.24468505 0.044812813 -0.25271356
0.25154275 0.045268916 -0.25316
0.26622841 0.047635477 -0.25038105
-0.36139581 0.057267338 -0.25008273
-0.35393259 0.055937178 -0.25082156
-0.34464616 0.055668764 -0.25146672
-0.33337501 0.054300696 -0.25235367
-0.32497773 0.054354746 -0.25222999
-0.31500345 0.054750096 -0.2526392
-0.30575705 0.055629242 -0.25447661
-0.29617962 0.055252872 -0.25579646
-0.28672501 0.051954947 -0.25959563
0.19730172 0.055618763 -0.25605601
0.20568477 0.05545146 -0.25493658
0.21343637 0.055988763 -0.25222939
0.22374338 0.053248744 -0.25245091
0.23483452 0.052575938 -0.25191689
0.24686499 0.054801255 -0.25277957
0.25591439 0.05772981 -0.2516436
0.26248878 0.056378648 -0.25118789
-0.35507452 0.06489905 -0.25095594
-0.34426191 0.063927054 -0.25155917
-0.334427 0.064688027 -0.25246903
-0.32516643 0.065711632 -0.2522833
-0.31462657 0.06640216 -0.25297937
-0.30488843 0.065277159 -0.2551623
-0.29554209 0.065568849 -0.2558831
-0.28754202 0.062495083 -0.25841874
0.19655 0.065731063 -0.25713515
0.2051519 0.065781385 -0.25623876
0.21445148 0.065875188 -0.25327981
0.22335246 0.064311661 -0.25235295
0.23517844 0.064096369 -0.25231138
0.24664062 0.065029517 -0.25171909
0.2547836 0.063999355 -0.25306636
0.26481456 0.065335125 -0.25110608
-0.36215669 0.073009968 -0.25045496
-0.3540034 0.075151563 -0.25082397
-0.3437303 0.075424731 -0.25169322
-0.33445656 0.075288847 -0.25235999
-0.32529274 0.075619541 -0.25227141
-0.31481767 0.075993516 -0.25279558
-0.30522943 0.075864166 -0.25548017
-0.29577249 0.074279778 -0.25498995
-0.28909957 0.075726032 -0.25780711
0.19781902 0.07471934 -0.25760663
0.20489825 0.075353839 -0.25633109
0.21433957 0.07592424 -0.25295773
0.2237089 0.075451672 -0.25184938
0.2351546 0.075648762 -0.25199449
0.24723898 0.075839229 -0.25274521
0.25518239 0.073396958 -0.25149834
0.26606268 0.077008583 -0.2515398
-0.36211988 0.089189276 -0.25029433
-0.35422796 0.085536271 -0.25110954
-0.3434251 0.085869141 -0.25173119
-0.33374459 0.086420283 -0.25247481
-0.32511631 0.086491212 -0.25204137
-0.31457302 0.085476622 -0.25320154
-0.30620542 0.085827455 -0.25556865
-0.29610115 0.085601062 -0.2567628
-0.28965962 0.085600942 -0.25879741
0.19598991 0.083609827 -0.25936452
0.20480222 0.085886225 -0.25657424
0.21471851 0.085307457 -0.25323805
0.22469966 0.086207986 -0.25155187
0.23456576 0.08528176 -0.252803
0.24619646 0.088293433 -0.25215271
0.25313079 0.088070698 -0.2520918
0.26373166 0.087572798 -0.25185475
-0.35462865 0.096090235 -0.25131479
-0.34401953 0.095274612 -0.25183848
-0.33520147 0.09479785 -0.25212061
-0.32540709 0.095086321 -0.25219744
-0.3147392 0.094690055 -0.25330475
-0.30662259 0.095191531 -0.25551197
-0.29521632 0.094931647 -0.25708356
-0.28956041 0.098383814 -0.25731805
0.19807443 0.096489668 -0.25788331
0.20546477 0.095055148 -0.25547647
0.2141462 0.094911262 -0.25335693
0.22465105 0.095095821 -0.25172111
0.23600741 0.095610611 -0.25264242
0.24509792 0.093503729 -0.25237393
0.25385422 0.092080571 -0.25236708
0.26503038 0.095667951 -0.25213751
0.27238575 0.09058997 -0.25062168
-0.36273837 0.10687163 -0.25014311
-0.35376793 0.10431267 -0.25078839
-0.34347919 0.10397799 -0.25176328
-0.33420825 0.10433484 -0.252305
-0.32481536 0.10391609 -0.2521908
-0.31452954 0.10417609 -0.25289232
-0.3050862 0.10383622 -0.2556825
-0.29590285 0.10564198 -0.25500941
-0.28918701 0.10561372 -0.25920248
0.19679613 0.10720956 -0.25912523
0.20505032 0.1045038 -0.25684482
0.21515076 0.10331498 -0.25223821
0.22361481 0.10520758 -0.25129011
0.23401657 0.10413694 -0.25242078
0.24531226 0.10503419 -0.25232664
0.25379938 0.10603864 -0.25226167
0.26523194 0.10409753 -0.25146782
-0.35500729 0.11390787 -0.25101662
-0.34450695 0.11520179 -0.25171345
-0.33416194 0.11538272 -0.25241581
-0.3257232 0.11376391 -0.25255647
-0.31453744 0.11361553 -0.25277361
-0.30494854 0.11463987 -0.25525209
-0.29595831 0.11605634 -0.25594053
-0.28771552 0.11600345 -0.25820968
0.19768216 0.11507725 -0.25632176
0.2057647 0.11434977 -0.25570735
0.21382089 0.1146299 -0.25299931
0.2237035 0.11476228 -0.25220501
0.23529544 0.11500394 -0.25237557
0.24757631 0.11561949 -0.25250465
0.25543654 0.11877392 -0.25164026
0.26504865 0.11731511 -0.25109535
0.27137208 0.11836229 -0.25006241
-0.35513285 0.12413619 -0.25068262
-0.34436986 0.12446318 -0.25151137
-0.33364221 0.12495606 -0.25209159
-0.32429716 0.12517869 -0.25211117
-0.31471005 0.12481663 -0.25275835
-0.30550811 0.12501675 -0.25412405
-0.29659146 0.12455485 -0.25602219
-0.2886281 0.12841627 -0.25969258
0.18934697 0.12320465 -0.25745562
0.19767009 0.12465284 -0.25591612
0.20537835 0.12458152 -0.25517535
0.2135727 0.12466971 -0.25277176
0.22349006 0.12628463 -0.25230455
0.23417433 0.12619972 -0.25233796
0.24641269 0.12398691 -0.2523731
0.25648743 0.12468585 -0.25173414
0.26436174 0.12916058 -0.25021276
-0.35344008 0.13386838 -0.25077319
-0.344015 0.13421832 -0.25150278
-0.33370587 0.1346709 -0.25223541
-0.32428646 0.13681549 -0.25262308
-0.3143585 0.13589922 -0.25235888
-0.30487782 0.13430396 -0.25463659
-0.29564664 0.13541955 -0.25571284
-0.28712553 0.13563785 -0.25613976
0.1883074 0.1350673 -0.25951874
0.19745472 0.13483079 -0.2556892
0.20542678 0.13453828 -0.25478709
0.21324271 0.13553558 -0.25311196
0.22535317 0.13560782 -0.25184673
0.23379099 0.13636735 -0.25152284
0.24544436 0.13465472 -0.2523587
0.25543952 0.13519379 -0.25190777
0.26721412 0.13266125 -0.25043172
-0.35255295 0.14632443 -0.2510702
-0.34476677 0.14556497 -0.25136459
-0.33492664 0.14572388 -0.25209081
-0.32471231 0.14550675 -0.25218838
-0.31545329 0.14543061 -0.25227425
-0.30477089 0.14635745 -0.2537601
-0.29547665 0.14503102 -0.25590271
-0.28628609 0.14591962 -0.25812933
0.19688907 0.14590864 -0.25564042
0.20479189 0.14588319 -0.25430846
0.21347791 0.14639927 -0.25301892
0.22485957 0.14498428 -0.25230211
0.23487671 0.14427896 -0.25241262
0.24585232 0.14662932 -0.2517207
0.25129634 0.14488718 -0.25319111
0.26544076 0.14647219 -0.25044489
-0.35353762 0.15028976 -0.25014004
-0.34500572 0.15605076 -0.25135767
-0.33422932 0.15526652 -0.25167173
-0.32394469 0.15441625 -0.25241819
-0.31476432 0.15535657 -0.25241777
-0.3058829 0.1562302 -0.25368837
-0.29486567 0.15607271 -0.25525519
-0.28672558 0.15506074 -0.25531396
0.18783796 0.15892392 -0.25901207
0.19509034 0.15592761 -0.25561324
0.20457308 0.15612227 -0.25370404
0.21305448 0.15552814 -0.2526558
0.22386262 0.1542774 -0.25234726
0.23403713 0.15496489 -0.25282222
0.24514553 0.15569922 -0.25255185
0.25322264 0.15281694 -0.25228852
-0.35508475 0.16140133 -0.25007156
-0.34438315 0.16431108 -0.25104439
-0.33459237 0.16504088 -0.25203627
-0.32403859 0.16546755 -0.25252011
-0.31397638 0.16562924 -0.25177234
-0.30426043 0.1656374 -0.25317264
-0.29492107 0.16484986 -0.25553918
-0.28457817 0.16544107 -0.25541297
-0.27837947 0.16478592 -0.25854307
0.18616758 0.1666107 -0.25797281
0.19513334 0.16556995 -0.25533468
0.20407535 0.16449864 -0.25385898
0.21520829 0.16471554 -0.25116268
0.22371899 0.16410954 -0.25304565
0.23312435 0.16552857 -0.25137717
0.24486201 0.1661929 -0.2519035
0.25380093 0.16560411 -0.25260448
-0.34478119 0.17459045 -0.25097924
-0.33490178 0.1750619 -0.25173745
-0.32407492 0.175023 -0.25211218
-0.31537616 0.17424875 -0.25252554
-0.30500028 0.17405175 -0.25268695
-0.29486397 0.17398036 -0.25413007
-0.2858009 0.17429852 -0.25704774
-0.27790862 0.17735441 -0.25571761
0.18656158 0.17459854 -0.25600573
0.19540392 0.17558904 -0.25482872
0.20485185 0.17343104 -0.25218242
0.21452478 0.17341714 -0.25297999
0.22476982 0.17644201 -0.25241548
0.23355696 0.1734286 -0.25241762
0.24424411 0.17507367 -0.25185901
0.2540403 0.17519794 -0.25225252
-0.3432909 0.18450545 -0.25062472
-0.33431557 0.18417315 -0.25172052
-0.3238689 0.18485078 -0.2520985
-0.31478256 0.18475382 -0.25207561
-0.30483234 0.18360655 -0.25265303
-0.29492837 0.18446393 -0.25291061
-0.28529018 0.18512745 -0.25527132
-0.27681378 0.18521826 -0.25597364
-0.26906961 0.1861808 -0.25976235
0.17598251 0.18598256 -0.25807327
0.18558963 0.18535224 -0.25590324
0.19393764 0.18502912 -0.25431094
0.20391424 0.18394887 -0.25290692
0.21457264 0.18584354 -0.25261179
0.22523463 0.18261668 -0.25190008
0.23482816 0.18450618 -0.25216952
0.24704137 0.184062 -0.251919
0.25133353 0.18434323 -0.25143635
-0.34171653 0.19617909 -0.25004518
-0.33408269 0.195296 -0.25137863
-0.32456863 0.19532286 -0.2517148
-0.31461489 0.19553588 -0.25217026
-0.30546302 0.19456285 -0.25246426
-0.29541624 0.19475082 -0.25230843
-0.28459746 0.19486503 -0.25448167
-0.27552691 0.19543251 -0.25514007
-0.26871163 0.19436482 -0.25766319
0.17723714 0.19628607 -0.25527877
0.185177 0.19499755 -0.25487655
0.19435795 0.19426849 -0.2531791
0.20546658 0.19452481 -0.25180712
0.21616848 0.19583137 -0.25208735
0.22558187 0.19466597 -0.252215
0.23455206 0.1957479 -0.25202009
0.24368709 0.1917368 -0.25159442
-0.33437923 0.20446949 -0.25079095
-0.32372287 0.20480943 -0.25147554
-0.31462464 0.20526895 -0.25209546
-0.3048926 0.2061692 -0.25225919
-0.29547998 0.20535697 -0.25207123
-0.28486332 0.20398749 -0.25456443
-0.27631989 0.20569421 -0.25552589
-0.26546833 0.205393 -0.25764519
-0.25876462 0.2085087 -0.25969774
0.1655058 0.20745938 -0.25955498
0.17624673 0.20504422 -0.25624895
0.18423326 0.20499751 -0.25374117
0.19372386 0.20493558 -0.25306556
0.20652322 0.20580959 -0.25234538
0.21580404 0.20328751 -0.25306982
0.2228334 0.20531827 -0.25283444
0.23469007 0.20398389 -0.25167644
0.2432159 0.20543036 -0.25168869
0.2514151 0.20062163 -0.2501229
-0.3318609 0.21573003 -0.25057581
-0.32470033 0.21441181 -0.2511692
-0.3143582 0.21510699 -0.25209546
-0.30451402 0.21492235 -0.2523106
-0.29487279 0.21408674 -0.25234994
-0.28482443 0.2148793 -0.25339383
-0.27496356 0.21512921 -0.25491291
-0.26474822 0.21613234 -0.25611424
-0.25924355 0.21497485 -0.25738057
