# .PCD v0.7 - Point Cloud Data file format
VERSION 0.7
FIELDS x y z
SIZE 4 4 4
TYPE F F F
COUNT 1 1 1
WIDTH 1073
HEIGHT 1
VIEWPOINT 0 0 0 1 0 0 0
POINTS 1073
DATA ascii
-1.5361992 1.6399453 3.049948
-1.4688865 1.6399378 3.0499301
-1.4598202 1.6395707 3.0498266
-1.5428497 1.6475132 3.0492766
-1.534597 1.6469052 3.0489352
-1.5249133 1.6466204 3.0488889
-1.5154235 1.6464005 3.0489058
-1.5041599 1.6438503 3.0492635
-1.4949688 1.6466066 3.0489323
-1.485249 1.6464835 3.0488906
-1.4751798 1.6464647 3.0489867
-1.4652792 1.6467863 3.0489507
-1.454967 1.6467562 3.0488966
-1.4449717 1.6465162 3.0489485
-1.4361435 1.6474046 3.0490797
-1.5519047 1.6541302 3.0495961
-1.5438143 1.6544331 3.0491292
-1.5348297 1.654822 3.0486453
-1.5249239 1.6547458 3.0485721
-1.5156838 1.6548603 3.04863
-1.5028726 1.6543276 3.0490258
-1.4952515 1.6545318 3.0486133
-1.4852505 1.6545492 3.0486226
-1.4752715 1.6546887 3.0486705
-1.4653111 1.6546911 3.0486476
-1.4549891 1.6547137 3.0486524
-1.445089 1.6546837 3.0487032
-1.4359528 1.6546031 3.0488977
-1.4297093 1.6526322 3.0494485
-1.5424134 1.6616815 3.0493805
-1.5347005 1.6624066 3.0490396
-1.525255 1.6623837 3.0490136
-1.5159438 1.6624132 3.0489509
-1.5012491 1.6621958 3.0488031
-1.4948958 1.6622975 3.0489671
-1.4849098 1.6621692 3.0489769
-1.475214 1.6626482 3.0490522
-1.4650137 1.6623183 3.0490975
-1.4552615 1.6623968 3.0489802
-1.4448237 1.6625659 3.0490029
-1.4368708 1.6618558 3.0491076
-1.5209259 1.628865 3.0579491
-1.5148715 1.6288176 3.0581377
-1.5048541 1.6288595 3.0581956
-1.4967802 1.6288874 3.0582561
-1.4604058 1.6295547 3.0594425
-1.4545161 1.6288613 3.0582867
-1.4450303 1.6289481 3.0582559
-1.4391568 1.6289544 3.058212
-1.5511638 1.6377879 3.0577219
-1.5448761 1.6373106 3.0571711
-1.5349067 1.6362362 3.0562294
-1.5250305 1.6361932 3.0560603
-1.5152159 1.6350116 3.0564282
-1.5049564 1.6345392 3.0568159
-1.4950984 1.6354648 3.0563228
-1.4850239 1.6363032 3.0561461
-1.4750106 1.6361496 3.0563273
-1.4649394 1.6362895 3.0561464
-1.4550683 1.6351495 3.0564201
-1.4449528 1.6352202 3.0564284
-1.4354286 1.6367556 3.0568209
-1.4282649 1.6380497 3.058286
-1.5905764 1.6480227 3.0599585
-1.583177 1.6484319 3.0594361
-1.5745983 1.6479678 3.0592077
-1.563524 1.6478863 3.0592709
-1.552605 1.645944 3.0563347
-1.5459839 1.6448957 3.0537362
-1.5352225 1.6441562 3.0519633
-1.5249543 1.6441514 3.0518343
-1.5147716 1.6442572 3.0523794
-1.5049808 1.6444597 3.0529819
-1.4953123 1.6443152 3.0519145
-1.4849279 1.6441365 3.0519333
-1.4749171 1.6441667 3.0518355
-1.4649625 1.6444118 3.051846
-1.4547999 1.6443187 3.0518656
-1.4448279 1.6441488 3.05197
-1.4346408 1.6445374 3.0527916
-1.426409 1.6454706 3.0564919
-1.419333 1.6483032 3.0596473
-1.5906 1.6535414 3.0598147
-1.5835427 1.6544058 3.0593572
-1.5746099 1.6549088 3.0590513
-1.5645419 1.6548263 3.0589845
-1.5539548 1.6548696 3.0571887
-1.5465549 1.6551156 3.0526276
-1.5357664 1.6552982 3.0508106
-1.5252455 1.6552639 3.0507004
-1.5143634 1.6551182 3.051502
-1.5051819 1.655118 3.051832
-1.4955131 1.6554139 3.050843
-1.4847 1.6554923 3.0507495
-1.4748538 1.6553588 3.0507085
-1.4648869 1.6555132 3.0507131
-1.4549141 1.6553433 3.0506778
-1.445086 1.6552428 3.0506589
-1.4342865 1.6551335 3.0514512
-1.4257464 1.6549952 3.0555789
-1.4193368 1.6547025 3.0591304
-1.5815412 1.6605628 3.0596559
-1.5743828 1.6614696 3.059413
-1.5630175 1.6614338 3.0593202
-1.5518621 1.6643744 3.0561945
-1.5458114 1.6651809 3.0546849
-1.5351232 1.6656574 3.0528133
-1.5249497 1.6656358 3.0526993
-1.5150106 1.6654671 3.0532737
-1.5048996 1.6647723 3.0543609
-1.4952273 1.6656079 3.0528085
-1.4849914 1.6657007 3.0528283
-1.4750021 1.665586 3.0527539
-1.4649807 1.66561 3.0527859
-1.4548267 1.6656334 3.0528009
-1.444864 1.6655258 3.0528011
-1.4347026 1.6653608 3.0538006
-1.4268655 1.6640232 3.0569079
-1.4198768 1.6607021 3.0599244
-1.5510072 1.6715918 3.0583005
-1.544385 1.6719038 3.0580022
-1.5348577 1.6726055 3.0571728
-1.5247681 1.6728488 3.0570707
-1.5150222 1.6752446 3.0574505
-1.5049682 1.675094 3.0574017
-1.4955336 1.674619 3.0574334
-1.4849225 1.6725434 3.0571251
-1.4750677 1.6725659 3.0571492
-1.4649421 1.6726362 3.0571249
-1.4549317 1.6752039 3.0575483
-1.4448931 1.6750414 3.0575533
-1.4361455 1.6726789 3.0576863
-1.4286904 1.6712443 3.0586832
-1.5146577 1.6803212 3.0584011
-1.5053777 1.6801963 3.0584321
-1.4969481 1.6802576 3.058259
-1.4545206 1.6803001 3.0581398
-1.4449468 1.6802465 3.058435
-1.4392103 1.6802609 3.0589373
-1.5513341 1.6294668 3.0681715
-1.5437616 1.6291927 3.0679638
-1.5348316 1.6287324 3.0671275
-1.5250139 1.6287341 3.0668027
-1.5150554 1.6286769 3.0651784
-1.5050678 1.6286727 3.0651302
-1.4953229 1.6287072 3.0656188
-1.4849759 1.6287665 3.0670648
-1.4749638 1.6287566 3.0669713
-1.464855 1.6287235 3.0670075
-1.4548397 1.6286689 3.065166
-1.4448081 1.62871 3.0647595
-1.4362468 1.6290236 3.0672762
-1.4291809 1.6294273 3.0681324
-1.6020154 1.6394663 3.0693703
-1.5939873 1.6392678 3.0688064
-1.5839957 1.6388984 3.0682716
-1.5748003 1.6386174 3.0676744
-1.5641528 1.6385902 3.0676975
-1.5535121 1.6363974 3.0664265
-1.5460973 1.6332752 3.0644231
-1.5352386 1.6316873 3.0631421
-1.5252759 1.6315262 3.0629282
-1.515555 1.6308119 3.063561
-1.504932 1.6306632 3.0641627
-1.4942455 1.6313752 3.0633402
-1.4850147 1.6317215 3.0628855
-1.4751128 1.6316998 3.0628915
-1.4651709 1.6316165 3.0630009
-1.4556487 1.6310295 3.0637064
-1.4447018 1.6311159 3.0644319
-1.4343277 1.6325563 3.064033
-1.4260567 1.6361424 3.0654871
-1.4195018 1.6385679 3.0690334
-1.6112359 1.6477863 3.0685828
-1.6048157 1.6457791 3.0667522
-1.5948699 1.6449693 3.0656061
-1.5850112 1.6446233 3.0644288
-1.5749788 1.6442189 3.0635269
-1.5648407 1.6444086 3.0643048
-1.555469 1.6440595 3.0630231
-1.5495162 1.6431639 3.062053
-1.5200225 1.6407218 3.0683689
-1.422369 1.644168 3.0638051
-1.418577 1.6463091 3.0669484
-1.6116008 1.6543809 3.0682559
-1.6053071 1.6551126 3.0653732
-1.5951024 1.6550963 3.0633299
-1.5851444 1.6551179 3.0619991
-1.5750303 1.6552221 3.0613737
-1.5653465 1.6549929 3.0631239
-1.5557154 1.6555203 3.0609646
-1.549684 1.6553454 3.0608151
-1.4213574 1.6552266 3.0624804
-1.4182984 1.6548882 3.0662873
-1.6108266 1.6607995 3.0693471
-1.6043587 1.6624492 3.0677114
-1.5947762 1.6634381 3.0666852
-1.5849022 1.6644998 3.0657237
-1.5749795 1.6652499 3.0648484
-1.5646627 1.6650758 3.0651572
-1.5553648 1.6656374 3.0644865
-1.5494365 1.6669458 3.0628431
-1.4318619 1.6694834 3.0601149
-1.4232304 1.6658906 3.0642893
-1.4187925 1.6629652 3.0673623
-1.5811635 1.670511 3.0694325
-1.5742334 1.6705897 3.0685816
-1.5639876 1.6707073 3.0687656
-1.5521632 1.6736082 3.0660903
-1.5456587 1.6752369 3.0649779
-1.5350716 1.6770293 3.0647407
-1.5251219 1.67725 3.0645804
-1.5152566 1.6781081 3.0645757
-1.5050937 1.6781802 3.0647986
-1.4949385 1.6776814 3.0646915
-1.485007 1.6770627 3.0646482
-1.4749868 1.6770762 3.0646017
-1.4650128 1.677114 3.0646732
-1.4551786 1.6779891 3.0645771
-1.444819 1.6779058 3.0645967
-1.4347504 1.6758505 3.0647876
-1.4268916 1.672846 3.0659409
-1.5409069 1.6801927 3.0691211
-1.5346268 1.680493 3.0682135
-1.5247581 1.6804758 3.068033
-1.5148543 1.6804234 3.0659313
-1.5048556 1.6804549 3.0660388
-1.4954038 1.6804633 3.0664189
-1.4848003 1.6804984 3.068388
-1.4753746 1.6805586 3.0681536
-1.4651703 1.6804551 3.068069
-1.4544206 1.6803638 3.0656176
-1.4447331 1.6803771 3.065716
-1.4374728 1.6802369 3.0683837
-1.5514452 1.629251 3.0754261
-1.5445216 1.6287382 3.0753913
-1.5349457 1.6275916 3.0751178
-1.5250188 1.627457 3.0750749
-1.5150392 1.627467 3.0750904
-1.5050093 1.6274824 3.0750523
-1.495029 1.6274809 3.0748918
-1.4849164 1.627488 3.0750859
-1.474947 1.6274751 3.0750921
-1.4649603 1.6274827 3.0750732
-1.4548892 1.6275015 3.0751598
-1.4443763 1.6276776 3.0749443
-1.4354421 1.6282314 3.0752568
-1.4286346 1.629511 3.0758564
-1.6116347 1.6399632 3.0795481
-1.6039215 1.6391574 3.0759754
-1.5948191 1.6385522 3.0755529
-1.5849724 1.637694 3.0750196
-1.5750643 1.6368592 3.0748925
-1.5643426 1.6370102 3.0750513
-1.5546021 1.6353711 3.0749362
-1.548051 1.6317775 3.0743823
-1.5383857 1.6302122 3.0710905
-1.4509609 1.6317681 3.0770154
-1.445784 1.6330842 3.0751696
-1.4317675 1.6307529 3.0741911
-1.4247347 1.6345595 3.0749016
-1.4191487 1.6386276 3.0760374
-1.6457547 1.6499386 3.0791323
-1.635637 1.6498249 3.0792596
-1.6247594 1.6496828 3.0795798
-1.6133889 1.6464289 3.0754688
-1.6063415 1.6419605 3.0740707
-1.5960449 1.6408474 3.0721481
-1.5868819 1.6405889 3.0709209
-1.5719106 1.6436005 3.0752931
-1.5658001 1.6450255 3.0748489
-1.5590224 1.6402152 3.0700448
-1.4208149 1.6417799 3.0747042
-1.4177494 1.6455355 3.0751953
-1.6607494 1.6532531 3.0775557
-1.6532003 1.6531943 3.077786
-1.6449485 1.6531575 3.0778089
-1.6351233 1.6531786 3.0778196
-1.6251036 1.6531776 3.0777831
-1.6153599 1.6548806 3.0752349
-1.6091007 1.6585815 3.0709484
-1.5711 1.6558326 3.0773525
-1.5659444 1.6551597 3.074245
-1.4168639 1.6549605 3.0751288
-1.6118236 1.6617907 3.0759945
-1.6054255 1.6651771 3.07497
-1.5950873 1.6674891 3.0748069
-1.5856606 1.668672 3.0743647
-1.5750488 1.6685804 3.073473
-1.5651631 1.6667165 3.0744543
-1.5561779 1.6693066 3.0733118
-1.5495942 1.6688435 3.0705607
-1.4213864 1.6674587 3.0746405
-1.4181378 1.6639464 3.0751863
-1.5914787 1.6702695 3.076103
-1.5837338 1.6707181 3.0759909
-1.5749032 1.6712193 3.075536
-1.564147 1.6713301 3.0754423
-1.5541456 1.673305 3.0751691
-1.5460502 1.6777186 3.07493
-1.5354254 1.679237 3.0746467
-1.5249436 1.6792917 3.0741065
-1.5151135 1.679292 3.0742259
-1.5050013 1.679298 3.074394
-1.4950111 1.6792607 3.0742707
-1.4849057 1.679275 3.0741982
-1.4749486 1.679299 3.0741391
-1.4650718 1.6792742 3.0742218
-1.454666 1.679039 3.0743563
-1.4449295 1.6776065 3.0744994
-1.4343812 1.6784254 3.0748067
-1.4255849 1.6741585 3.0750411
-1.4195263 1.6706213 3.0764232
-1.5428202 1.6804931 3.0762312
-1.5345421 1.6808635 3.0756781
-1.525164 1.680847 3.0757666
-1.5150294 1.6808561 3.0758243
-1.5050035 1.6808517 3.0757594
-1.4950384 1.680829 3.0753567
-1.48493 1.6808393 3.075798
-1.4748719 1.6808554 3.0759671
-1.4648262 1.6808361 3.0757685
-1.4548978 1.6808447 3.0758722
-1.4442506 1.6807708 3.0757463
-1.4364698 1.6806496 3.0760436
-1.4298162 1.680227 3.07757
-1.5511874 1.6292564 3.0829744
-1.5439597 1.6289047 3.0836718
-1.5349556 1.6282244 3.0846095
-1.5249355 1.628062 3.0846748
-1.5148182 1.6280928 3.0846875
-1.504975 1.6280527 3.0845933
-1.4950095 1.6280071 3.0845597
-1.4850513 1.6280659 3.0848105
-1.4751006 1.6280502 3.0847158
-1.4649395 1.6280177 3.0846479
-1.4551101 1.6280552 3.0847287
-1.4445072 1.6281846 3.0850139
-1.4357347 1.6285931 3.0844266
-1.4292421 1.6292616 3.0827773
-1.6101292 1.6397427 3.0810368
-1.6038382 1.6392194 3.0820949
-1.5945166 1.6388894 3.0830889
-1.584738 1.6382571 3.0836709
-1.5750874 1.6377674 3.0841112
-1.5641264 1.637892 3.0841589
-1.5541407 1.6357619 3.0846393
-1.546682 1.6319479 3.0861642
-1.5360613 1.6306801 3.0884099
-1.5249192 1.6305904 3.0887322
-1.5151165 1.6307768 3.0886662
-1.5051916 1.6305611 3.0885065
-1.4948778 1.6306359 3.0884602
-1.4849582 1.6306891 3.0885184
-1.4749974 1.6306165 3.0886366
-1.4648423 1.6306365 3.0887015
-1.4545761 1.6307381 3.0875177
-1.445317 1.6321524 3.0857153
-1.4329237 1.6312033 3.086324
-1.4250712 1.6350418 3.0850229
-1.4192289 1.63887 3.0831358
-1.6203545 1.649212 3.0802648
-1.6129408 1.6468744 3.0836334
-1.6058615 1.6433647 3.085978
-1.5954028 1.6422044 3.0870461
-1.5852265 1.6417454 3.0879657
-1.5746391 1.6420676 3.0878725
-1.5644329 1.6431332 3.0868435
-1.5557271 1.6414466 3.0885372
-1.5496736 1.6410162 3.089654
-1.4212137 1.6431352 3.0861888
-1.4180948 1.6456413 3.0846841
-1.6608181 1.6521499 3.0807729
-1.6527297 1.6532868 3.0810587
-1.6447215 1.6531584 3.0810418
-1.6348475 1.6531881 3.0811098
-1.6254605 1.6528659 3.0809121
-1.6139611 1.6548682 3.0844245
-1.6078207 1.656607 3.0887048
-1.5968707 1.6592354 3.0895445
-1.5715917 1.6550626 3.0849078
-1.5657744 1.6548326 3.0848601
-1.5187255 1.6504112 3.0887873
-1.4205244 1.6554621 3.0886657
-1.4174405 1.6549063 3.0849586
-1.6115917 1.6617441 3.0832078
-1.605157 1.664103 3.0848846
-1.59508 1.6658348 3.0852811
-1.5852137 1.6671618 3.0856943
-1.5750886 1.6677129 3.0863059
-1.5641536 1.6668965 3.0861382
-1.5556755 1.6678497 3.0867331
-1.5494497 1.6688589 3.0870843
-1.4218265 1.6668274 3.085784
-1.4183058 1.6636281 3.0844326
-1.5916039 1.6701409 3.0822072
-1.5836514 1.6706372 3.0820405
-1.5747864 1.6710044 3.0826991
-1.5640353 1.671031 3.0828505
-1.553259 1.6736851 3.0840197
-1.5456809 1.6769924 3.0851438
-1.5351954 1.6785489 3.085711
-1.5249741 1.6787112 3.0857842
-1.5149223 1.6787496 3.0857065
-1.5049649 1.6787623 3.0856354
-1.4949608 1.6787831 3.0856395
-1.4849967 1.678692 3.0858409
-1.4749707 1.6787689 3.085773
-1.4649895 1.6787181 3.0859227
-1.4550089 1.6787729 3.0856299
-1.4447927 1.6779013 3.0856218
-1.4344954 1.6778588 3.0853534
-1.4260255 1.6737756 3.0847709
-1.4197667 1.6708043 3.0817118
-1.5420374 1.6803994 3.0824018
-1.5344524 1.6806707 3.0833678
-1.5249933 1.68073 3.0834661
-1.5148801 1.6807077 3.0833745
-1.5049534 1.6806905 3.083478
-1.4948741 1.6807265 3.0834444
-1.4849072 1.6806805 3.0836816
-1.4750614 1.6806979 3.0836973
-1.4650673 1.6807318 3.0834069
-1.4553196 1.6806893 3.0834911
-1.4441987 1.6807083 3.0838726
-1.4371058 1.6806104 3.0829782
-1.5426111 1.6296196 3.0914056
-1.5347211 1.6292264 3.0915616
-1.5231918 1.6290516 3.0930567
-1.5148646 1.6287795 3.0948598
-1.5050218 1.6288662 3.0949609
-1.4965372 1.62887 3.0945227
-1.484894 1.6292218 3.0916619
-1.4748553 1.6292506 3.0912628
-1.4634839 1.6288443 3.0936463
-1.4547976 1.6283869 3.0952694
-1.445078 1.6283681 3.0952313
-1.4381721 1.628777 3.0932457
-1.5812027 1.6389562 3.0904865
-1.5745046 1.6393924 3.0909333
-1.5635678 1.6387103 3.0907927
-1.5516071 1.6364732 3.0936298
-1.5452185 1.635393 3.0948014
-1.535229 1.6339279 3.0955026
-1.525005 1.6336628 3.0956359
-1.5153637 1.6333216 3.0964851
-1.5052469 1.6332569 3.0965297
-1.4948156 1.6331996 3.0959523
-1.485046 1.6335262 3.0955608
-1.4750791 1.6333925 3.0955455
-1.4651271 1.6334276 3.0956681
-1.4553506 1.6333194 3.0969906
-1.4444476 1.6332743 3.0969965
-1.4346858 1.6344093 3.0953698
-1.4270215 1.6369261 3.0935926
-1.6113139 1.6480138 3.0910735
-1.6045954 1.6472571 3.0915675
-1.5948513 1.6465641 3.0920067
-1.5850378 1.6460016 3.0924871
-1.5751629 1.6457099 3.0928621
-1.5639192 1.6458106 3.0928249
-1.5540836 1.6449989 3.0942936
-1.5476123 1.6430117 3.0976086
-1.5343841 1.6407276 3.0996079
-1.5249175 1.6404428 3.0996518
-1.5154159 1.6407158 3.099802
-1.5042549 1.6402822 3.0994673
-1.4925112 1.6404097 3.0994768
-1.4849167 1.6406484 3.0996189
-1.4723095 1.6405895 3.0995259
-1.46296 1.6408515 3.0996892
-1.4547409 1.6406902 3.0995901
-1.4447879 1.6408777 3.0996134
-1.431749 1.6416174 3.0987213
-1.424044 1.6447409 3.0953834
-1.4188539 1.6467602 3.0920444
-1.6112148 1.6540586 3.0915823
-1.6048106 1.6545974 3.0920436
-1.5951439 1.6549425 3.0927451
-1.5850827 1.6550423 3.0938151
-1.57524 1.6550639 3.094301
-1.5636992 1.6549685 3.0942101
-1.55495 1.6550333 3.0948954
-1.5493411 1.6548244 3.097316
-1.5168231 1.6522069 3.094517
-1.4230467 1.6550699 3.0961955
-1.4186927 1.6546485 3.0925965
-1.6102995 1.6607769 3.0910459
-1.6040213 1.6615318 3.0912609
-1.5946149 1.6619058 3.0916877
-1.5846148 1.6626557 3.091892
-1.5751085 1.6632925 3.092411
-1.5639399 1.6632385 3.0923195
-1.5535872 1.6645732 3.0943434
-1.5468737 1.6668336 3.0973749
-1.5356888 1.6688354 3.0991025
-1.524941 1.668998 3.0990853
-1.5152427 1.6688546 3.0992711
-1.5047824 1.6691288 3.0988727
-1.4949983 1.6690519 3.0990171
-1.4850359 1.6690518 3.0988958
-1.475353 1.6689427 3.0991797
-1.4650921 1.6689901 3.0988269
-1.454698 1.6690261 3.0990756
-1.4446608 1.6687648 3.0991099
-1.4332415 1.6680393 3.0983338
-1.4248221 1.665116 3.095046
-1.4190687 1.6620679 3.0918481
-1.5517251 1.6727676 3.0928752
-1.5450358 1.6733971 3.0939579
-1.5350955 1.6745248 3.0948348
-1.5248299 1.6749521 3.0949726
-1.5152417 1.67659 3.0955563
-1.5051211 1.6767309 3.0955622
-1.4953933 1.6760579 3.0953135
-1.4849867 1.6748449 3.0949621
-1.4750115 1.6749467 3.094919
-1.4649076 1.6751429 3.0950196
-1.4550444 1.6766497 3.0957434
-1.4448388 1.6766617 3.0958824
-1.4351112 1.6742618 3.0947587
-1.4275504 1.6720984 3.0929878
-1.5213727 1.6802313 3.0941982
-1.5147661 1.6803398 3.0950861
-1.5050668 1.6803058 3.0952127
-1.497046 1.6802505 3.0955002
-1.481526 1.6800199 3.0900612
-1.4731693 1.680083 3.0900028
-1.461149 1.6802927 3.0944967
-1.4544594 1.6802611 3.095751
-1.4450984 1.6803502 3.0958436
-1.521462 1.6287609 3.1000798
-1.5146315 1.6291084 3.1004698
-1.504608 1.6291956 3.100358
-1.4973829 1.6292319 3.1006494
-1.4605653 1.6289533 3.1006525
-1.4554889 1.6288815 3.1008205
-1.444945 1.6291145 3.1006463
-1.4397873 1.6288683 3.1004667
-1.5510432 1.6391286 3.1004574
-1.5436208 1.6384873 3.1012506
-1.5345347 1.6379014 3.1016226
-1.5248351 1.6379141 3.101686
-1.5147254 1.6370534 3.1019557
-1.5050945 1.6373754 3.1051767
-1.4956496 1.6370816 3.1030674
-1.4845854 1.6376456 3.1020517
-1.4748794 1.6377076 3.1018393
-1.4651052 1.6376356 3.1019185
-1.4549345 1.6364584 3.1017399
-1.4448392 1.6365283 3.1017628
-1.4363203 1.6379355 3.1017046
-1.4294739 1.6394384 3.1011798
-1.5519547 1.646566 3.1018233
-1.544946 1.6455829 3.1024969
-1.5351442 1.6448531 3.1038687
-1.5250275 1.6450256 3.1043887
-1.5148983 1.6451305 3.1047082
-1.5058848 1.6426845 3.105726
-1.4945521 1.6424905 3.1055307
-1.484808 1.6426457 3.1056657
-1.4750978 1.6444802 3.1055396
-1.464981 1.644645 3.1048338
-1.4549652 1.6448604 3.1049218
-1.4449145 1.6447651 3.1048319
-1.4349357 1.6449795 3.1038702
-1.4276565 1.6462954 3.1018863
-1.5518218 1.6551746 3.1022565
-1.5452273 1.654929 3.1034892
-1.5353967 1.6549587 3.1053803
-1.5259836 1.6553373 3.1071022
-1.5159158 1.6569848 3.1073761
-1.5097898 1.6594509 3.1077871
-1.4731342 1.6551604 3.107662
-1.4648101 1.6548862 3.1067443
-1.4548368 1.6549184 3.1066635
-1.4447916 1.6549358 3.1065938
-1.4349124 1.6549517 3.105463
-1.4272529 1.6549284 3.1022334
-1.5520402 1.6633886 3.1016126
-1.5447702 1.6637956 3.1021571
-1.5350662 1.6647248 3.1032028
-1.5249641 1.6650046 3.103236
-1.5147827 1.6647731 3.1039221
-1.5058063 1.6664957 3.105386
-1.4947355 1.6665846 3.105149
-1.4847001 1.6664099 3.1050732
-1.475124 1.665109 3.1047418
-1.4649489 1.6650338 3.1039996
-1.4549998 1.6649277 3.1040614
-1.4449724 1.664847 3.1040516
-1.4351326 1.6646731 3.1032643
-1.4279804 1.6629239 3.1017032
-1.543063 1.6706164 3.1009424
-1.5345114 1.6712691 3.101531
-1.525377 1.6716337 3.1012802
-1.5144128 1.6737355 3.101414
-1.505044 1.6722041 3.1061099
-1.496092 1.672434 3.1031406
-1.4848306 1.6714886 3.1013484
-1.4748229 1.6715378 3.1013722
-1.46534 1.6714077 3.1015317
-1.4549574 1.6730171 3.1011934
-1.4445728 1.6730068 3.1012003
-1.4371504 1.6711044 3.1012216
-1.5111464 1.6373829 3.1113503
-1.5043951 1.6377633 3.1120613
-1.4984888 1.6378363 3.1122723
-1.5227647 1.6489737 3.1121826
-1.5137047 1.6480987 3.1140702
-1.5057005 1.6439723 3.11533
-1.4947889 1.6431091 3.1152833
-1.4847317 1.6431155 3.1150503
-1.4762369 1.6456046 3.1153002
-1.530687 1.6546812 3.1138184
-1.5243402 1.654965 3.1123483
-1.5146586 1.6553004 3.1147819
-1.5093863 1.6570342 3.1164713
-1.4735577 1.6549181 3.1152291
-1.4693214 1.6545187 3.1185176
-1.5231137 1.6609023 3.1123462
-1.5131108 1.6617517 3.1144612
-1.5053746 1.6653996 3.1149979
-1.4948413 1.6658373 3.115205
-1.4847467 1.6656231 3.1149876
-1.4766864 1.6636751 3.1152642
-1.5107359 1.6715395 3.1120129
-1.5044678 1.6718066 3.1120069
-1.498317 1.6716418 3.111892
-1.5083361 1.6398098 3.1246438
-1.511709 1.6482121 3.1231332
-1.5048598 1.6455642 3.123466
-1.4951755 1.6438662 3.1250584
-1.4847721 1.643096 3.124948
-1.4754934 1.6453638 3.1250606
-1.4686484 1.6488781 3.1286449
-1.5121001 1.65497 3.123172
-1.5046959 1.6551125 3.1250775
-1.4991468 1.6554101 3.1275756
-1.4724399 1.6550344 3.1245787
-1.4692696 1.6544471 3.1254234
-1.5115716 1.6616006 3.123543
-1.5049627 1.6638482 3.1232717
-1.495156 1.6650785 3.1250339
-1.4847629 1.6657284 3.1249666
-1.4758852 1.6638762 3.1250715
-1.4690449 1.6602396 3.125051
-1.5008038 1.6480435 3.1336412
-1.4950275 1.6448414 3.135046
-1.484796 1.643067 3.1349492
-1.4749615 1.6450559 3.1350474
-1.4692316 1.6481757 3.13571
-1.5012599 1.6547403 3.1345282
-1.4985745 1.6549927 3.1357033
-1.4715046 1.654978 3.1346419
-1.4689864 1.6550722 3.1356223
-1.5007176 1.6612798 3.1338928
-1.4949621 1.6641716 3.1350436
-1.4847913 1.6657118 3.1349399
-1.4752015 1.664076 3.1350954
-1.4692327 1.6613922 3.1359141
-1.5004405 1.6486593 3.1430793
-1.4947001 1.6452997 3.1449966
-1.485011 1.6430587 3.1448941
-1.4744631 1.6447178 3.1451576
-1.4688201 1.6479965 3.1456196
-1.5008727 1.6546435 3.1440041
-1.4978609 1.6550976 3.1451871
-1.4708354 1.655301 3.1445811
-1.4685397 1.6549121 3.1455243
-1.5004686 1.6607059 3.1420958
-1.4943868 1.6639184 3.1450224
-1.4850264 1.6657437 3.1449428
-1.4746888 1.6642851 3.1449723
-1.4690425 1.6616426 3.146117
-1.4939833 1.6455674 3.1546242
-1.4848711 1.6431171 3.1550364
-1.4743727 1.6442211 3.1550386
-1.4685252 1.6474955 3.1556575
-1.5003984 1.6553591 3.1513295
-1.4969733 1.6550156 3.154752
-1.4704139 1.6565772 3.1532028
-1.4680167 1.6549863 3.1553607
-1.4936171 1.6636389 3.1546347
-1.484902 1.6656481 3.1549275
-1.4745984 1.6647319 3.1549728
-1.4686786 1.662087 3.1557202
-1.4930381 1.6459652 3.1645489
-1.4850565 1.6432173 3.1648486
-1.4745098 1.6436415 3.1648023
-1.4680914 1.6470697 3.1653118
-1.4955724 1.6549577 3.1647515
-1.4701877 1.6596545 3.1617756
-1.4668849 1.6550429 3.1650972
-1.4927334 1.6633204 3.1645188
-1.4850298 1.6655775 3.1649194
-1.4744691 1.6650754 3.1648161
-1.4682659 1.6624272 3.1653452
-1.531654 1.6284957 3.1783395
-1.5248902 1.6268159 3.1779978
-1.5150124 1.6265644 3.1779604
-1.5052949 1.6265458 3.1779647
-1.4951555 1.6265181 3.1780202
-1.4849989 1.6265419 3.1780307
-1.4750851 1.6266192 3.1781743
-1.4653209 1.6268482 3.178256
-1.4582582 1.628117 3.1788733
-1.5325857 1.6352532 3.1780887
-1.5250571 1.6349365 3.177407
-1.5149306 1.6348685 3.1775174
-1.5049441 1.6348543 3.1775191
-1.4950442 1.634867 3.1775007
-1.4851626 1.63472 3.1776061
-1.4751657 1.6347653 3.17787
-1.4649645 1.6348195 3.17823
-1.4566561 1.6356046 3.1783926
-1.4494139 1.6390548 3.1791484
-1.532738 1.6449735 3.178117
-1.5252776 1.6450444 3.1773896
-1.515052 1.6450216 3.1774909
-1.5050378 1.6450418 3.17731
-1.4945749 1.6452125 3.1757417
-1.4852802 1.6428871 3.1743901
-1.4745582 1.6428553 3.1746602
-1.4657366 1.6453116 3.1761158
-1.4548892 1.645043 3.178354
-1.448278 1.6458647 3.1786282
-1.5327866 1.6548321 3.1779883
-1.5251719 1.6550676 3.1773963
-1.5148759 1.6550126 3.1774483
-1.505325 1.6551549 3.1771772
-1.4957472 1.6549125 3.1752043
-1.4717429 1.6537695 3.1781797
-1.464862 1.6549709 3.1751864
-1.4544673 1.6548657 3.1784942
-1.4482502 1.6544228 3.1784711
-1.5326984 1.6650089 3.1781051
-1.5251461 1.6651324 3.1774457
-1.5149553 1.6649662 3.1774862
-1.5049498 1.6650509 3.1773765
-1.4945651 1.6646303 3.1760957
-1.4853845 1.6661803 3.1748776
-1.4747454 1.6661892 3.1749659
-1.4657484 1.6643776 3.1763358
-1.455045 1.6647952 3.1783803
-1.4485151 1.6633759 3.1784575
-1.5325359 1.6751195 3.1778848
-1.5252993 1.6751366 3.1773674
-1.5150483 1.6751416 3.1775281
-1.5049661 1.675208 3.1775475
-1.4950719 1.6751068 3.1775169
-1.4850311 1.6752241 3.1776817
-1.4748809 1.6754028 3.1779926
-1.4648114 1.6750969 3.1782572
-1.4566898 1.6741949 3.1783922
-1.4496315 1.670056 3.1790538
-1.5316353 1.6815901 3.178659
-1.5251738 1.6825348 3.1780152
-1.515064 1.6828014 3.1779499
-1.5052489 1.6826718 3.1780202
-1.4950618 1.6826204 3.1780121
-1.4848514 1.6827364 3.1781278
-1.4751115 1.6826582 3.1782002
-1.4653455 1.682514 3.1783597
-1.4587066 1.6816946 3.1788778
-1.5008478 1.6192331 3.1877718
-1.4947563 1.6193303 3.1876085
-1.4853106 1.6192695 3.1874871
-1.4790074 1.6194102 3.1879702
-1.5316675 1.6272255 3.1845689
-1.5254138 1.6249238 3.1848464
-1.5150306 1.6241808 3.1848578
-1.5049723 1.6240854 3.1848018
-1.4951433 1.6230062 3.1849442
-1.4848194 1.623083 3.1849699
-1.4749001 1.624164 3.1846547
-1.4645249 1.6248649 3.1844807
-1.4581041 1.6278418 3.1852608
-1.5328267 1.6347302 3.1832075
-1.5280536 1.6347306 3.1858039
-1.5149604 1.6349156 3.1802876
-1.5051079 1.6349192 3.1803069
-1.4950427 1.6345868 3.1803346
-1.4844074 1.6342047 3.1802235
-1.4750121 1.6339886 3.1803982
-1.4647319 1.6343033 3.1803467
-1.454355 1.6347741 3.1845415
-1.4492447 1.6381744 3.1849198
-1.5328529 1.6450014 3.1832695
-1.528257 1.6450733 3.1858838
-1.5161011 1.6459554 3.1803439
-1.5055659 1.6451634 3.1802685
-1.495574 1.643635 3.1802301
-1.4857713 1.6413497 3.1804271
-1.474911 1.6417725 3.180269
-1.4641328 1.6444926 3.1803172
-1.4517491 1.6440784 3.1835892
-1.4484448 1.6459626 3.1851349
-1.4382557 1.649067 3.1869307
-1.5328875 1.6549473 3.1832514
-1.5282261 1.6550679 3.1857514
-1.5158713 1.6556325 3.1804328
-1.5059122 1.6550058 3.1804247
-1.4980037 1.6584847 3.1805186
-1.4627376 1.6547679 3.1802862
-1.4528465 1.6551623 3.181246
-1.4455124 1.6551008 3.1854005
-1.4375286 1.655225 3.187366
-1.5329231 1.6649956 3.1831565
-1.5280784 1.6648171 3.1858242
-1.5155308 1.6650907 3.1803296
-1.5059954 1.6645772 3.180388
-1.4956411 1.6657883 3.1804209
-1.4848603 1.6678895 3.1803949
-1.4746306 1.6678931 3.1803041
-1.4643418 1.6652181 3.1803002
-1.4519668 1.6660337 3.183636
-1.4476197 1.6634821 3.1854489
-1.4373171 1.660728 3.1874304
-1.532668 1.6750907 3.1833749
-1.527949 1.6752341 3.1856997
-1.5149381 1.6750989 3.1804307
-1.5051552 1.6749575 3.1804421
-1.495085 1.6747053 3.1804309
-1.484822 1.6754066 3.1803968
-1.4750743 1.6754762 3.1803613
-1.4646087 1.6758257 3.180654
-1.4550316 1.6751647 3.1845958
-1.4496343 1.6719879 3.1850426
-1.5316871 1.6821573 3.1844802
-1.5253725 1.6840632 3.1847332
-1.5149831 1.6845945 3.1846957
-1.5046625 1.6855857 3.1851301
-1.4949892 1.6863096 3.1851811
-1.4852529 1.6856962 3.1850832
-1.4749632 1.6845269 3.1845832
-1.4645926 1.6840023 3.1845238
-1.4583645 1.6816323 3.1851666
-1.4953039 1.6904391 3.1867054
-1.4840466 1.6906016 3.1888559
-1.5011839 1.6192758 3.1938224
-1.4950052 1.6192591 3.194772
-1.4851537 1.6192917 3.194834
-1.4791411 1.6192981 3.1940126
-1.5321511 1.627443 3.1953595
-1.5252987 1.6245445 3.1949325
-1.5151186 1.6240908 3.1949267
-1.5049365 1.6236677 3.1949687
-1.4955121 1.6212999 3.1950784
-1.4844904 1.621366 3.1951892
-1.4749972 1.6237682 3.1948411
-1.46465 1.6246247 3.1949537
-1.4580411 1.627786 3.1949944
-1.5337485 1.6348323 3.1951842
-1.5291439 1.6346421 3.1914034
-1.4540608 1.6346345 3.1950722
-1.4493327 1.6382065 3.1947603
-1.5338202 1.6450353 3.1951594
-1.5291948 1.6445863 3.1916435
-1.4900497 1.6458064 3.1955152
-1.4707966 1.6416079 3.195905
-1.4509897 1.6436697 3.195255
-1.4485136 1.645909 3.1950948
-1.4383845 1.6495374 3.1928234
-1.5337715 1.6550989 3.1951623
-1.5291331 1.6549104 3.1918719
-1.450215 1.6561755 3.196687
-1.4452099 1.6550646 3.1945736
-1.437495 1.6552027 3.192363
-1.5338084 1.6650368 3.1951439
-1.529182 1.6648632 3.1914785
-1.4962375 1.6644289 3.1956222
-1.4512675 1.6663721 3.1950808
-1.447886 1.6634251 3.1950033
-1.4376214 1.6606448 3.1925383
-1.5336578 1.6751165 3.1952972
-1.5291712 1.6753529 3.1916475
-1.4876618 1.6746004 3.1954737
-1.4603288 1.6795518 3.1958528
-1.4547111 1.675249 3.195117
-1.4495423 1.6713086 3.1934724
-1.5318624 1.6819775 3.1952305
-1.5253043 1.6842738 3.194906
-1.515155 1.6847246 3.1949215
-1.5045631 1.6865686 3.1949375
-1.4950577 1.6883149 3.1948686
-1.4851856 1.6869417 3.194829
-1.474864 1.6847169 3.194932
-1.4646691 1.6842251 3.194994
-1.4584063 1.6817108 3.1949601
-1.5012581 1.6900473 3.1927264
-1.494826 1.6900457 3.1927204
-1.4865965 1.6900421 3.1932781
-1.5004692 1.6194118 3.2018192
-1.4944317 1.6192693 3.2047253
-1.4858394 1.6192726 3.2047002
-1.5322818 1.6273912 3.2050428
-1.525362 1.6244217 3.204989
-1.5150764 1.6240109 3.2050116
-1.505227 1.6240003 3.205127
-1.4953082 1.6216706 3.2051601
-1.4846338 1.6218921 3.2051268
-1.4747771 1.6239926 3.2050607
-1.464415 1.6245426 3.2050164
-1.4580951 1.6278772 3.2049458
-1.5342985 1.6347773 3.2050095
-1.4539428 1.6346582 3.2050254
-1.4490795 1.6387814 3.2050114
-1.5344158 1.6449392 3.2049174
-1.450901 1.6434563 3.204915
-1.4485866 1.6459631 3.2050958
-1.5343454 1.6549758 3.2050073
-1.4501274 1.6568986 3.2059736
-1.4485242 1.6548861 3.2053115
-1.5343497 1.6649853 3.205008
-1.4511602 1.6662829 3.2050948
-1.4487289 1.6638154 3.2050686
-1.5341259 1.6752654 3.2050612
-1.4601009 1.6795928 3.2056031
-1.4545668 1.675153 3.2050047
-1.4491632 1.6712923 3.2056777
-1.531952 1.6820318 3.2048259
-1.5252302 1.6844022 3.204989
-1.5149711 1.6847847 3.2050951
-1.5044316 1.685998 3.2048936
-1.4951218 1.6881715 3.2054396
-1.4856048 1.6862999 3.2048187
-1.4750798 1.6848029 3.205071
-1.4645444 1.6842552 3.2050412
-1.4583675 1.6817341 3.2048137
-1.4944339 1.6900492 3.2043598
-1.4867066 1.6900562 3.2050567
-1.4939295 1.6193184 3.2110536
-1.4866893 1.6191725 3.2108533
-1.5322955 1.6273421 3.2149704
-1.5253175 1.6243796 3.2149203
-1.5148511 1.6237426 3.2151084
-1.5052035 1.6233319 3.2150977
-1.495046 1.6229144 3.2149749
-1.4849867 1.6229461 3.2151251
-1.4751114 1.6234808 3.2151794
-1.4644884 1.6245109 3.2149765
-1.4580256 1.6279352 3.214972
-1.5343606 1.6347258 3.214932
-1.4539495 1.6347159 3.2150431
-1.4492521 1.6382315 3.2149439
-1.5344427 1.644972 3.2149527
-1.4508734 1.6435736 3.2150831
-1.4486065 1.6461613 3.214901
-1.5344464 1.6550256 3.2149436
-1.4501284 1.6576865 3.2148774
-1.4484683 1.6550255 3.2149823
-1.5344356 1.6650107 3.2148871
-1.4511523 1.6664681 3.2149534
-1.4487412 1.6635524 3.2151842
-1.5342052 1.675164 3.2148321
-1.4603097 1.6798338 3.2132607
-1.4546278 1.6752349 3.2150085
-1.4494154 1.6714529 3.2138221
-1.5320213 1.6819777 3.2151446
-1.5253561 1.6843759 3.2150564
-1.5149356 1.6851655 3.2151718
-1.5051385 1.6853679 3.2150476
-1.4951668 1.685891 3.2146745
-1.484948 1.6854242 3.2149234
-1.4749768 1.6848983 3.2150464
-1.4645543 1.6842607 3.21506
-1.4583873 1.6816626 3.2148659
-1.4927118 1.6900227 3.2100499
-1.4863681 1.6900227 3.2100499
-1.5323246 1.6273576 3.2249625
-1.5252962 1.6243656 3.2250788
-1.5148706 1.6236427 3.2250459
-1.5049357 1.622902 3.2252014
-1.494925 1.6230677 3.2248824
-1.4850028 1.6228822 3.2249753
-1.4751004 1.6233571 3.2251658
-1.464478 1.6245114 3.2250295
-1.458114 1.6278576 3.2251978
-1.5343879 1.6348245 3.2250297
-1.4540249 1.6346242 3.2250094
-1.4492944 1.638419 3.2251158
-1.5344704 1.6448528 3.2249725
-1.4508538 1.6434011 3.2250669
-1.4485984 1.646107 3.2248755
-1.5344899 1.6549577 3.2249453
-1.4501718 1.6582345 3.2245355
-1.4483761 1.6549896 3.2249374
-1.5344781 1.6650062 3.2249749
-1.451157 1.6663821 3.2251625
-1.4487154 1.6637037 3.224982
-1.5341902 1.6751491 3.2249885
-1.5297376 1.6798811 3.227334
-1.4601741 1.6796814 3.2240837
-1.4546622 1.6751748 3.2250578
-1.4493488 1.6714002 3.2258656
-1.5321015 1.6819687 3.2251661
-1.5253676 1.684356 3.2250125
-1.5148987 1.6851248 3.2250383
-1.5049726 1.6853685 3.2251384
-1.494904 1.6852151 3.2248504
-1.4849181 1.685388 3.2250288
-1.4751368 1.6849393 3.2249839
-1.464529 1.6842347 3.2250104
-1.4584011 1.6815333 3.2248046
-1.5324523 1.6275252 3.2329969
-1.5250537 1.6254959 3.2333453
-1.514941 1.6252235 3.2334146
-1.5049813 1.6249299 3.2332072
-1.4949077 1.6252784 3.2334063
-1.4850285 1.625015 3.23333
-1.4751577 1.6251975 3.2334461
-1.4648505 1.6255651 3.2334812
-1.4580832 1.6280028 3.2335696
-1.5337304 1.6349283 3.2332413
-1.5250336 1.634926 3.2338648
-1.5149856 1.6348723 3.2338526
-1.5049545 1.6349069 3.2338729
-1.4949353 1.6349978 3.2339282
-1.4849881 1.6349478 3.2339582
-1.4750988 1.6348164 3.2339516
-1.4651353 1.6350147 3.2340412
-1.4550898 1.6351411 3.2335958
-1.4492764 1.6378504 3.2334833
-1.5338148 1.6449776 3.2332444
-1.5250714 1.6448736 3.2338707
-1.5151274 1.6448992 3.2338855
-1.5050743 1.6449276 3.2338798
-1.494933 1.6450027 3.2339151
-1.4850252 1.6450244 3.2339563
-1.4750658 1.6448846 3.2339537
-1.4652772 1.6449913 3.2340541
-1.4542651 1.6447104 3.2338219
-1.4486535 1.6460768 3.2334468
-1.5336927 1.6550189 3.2332082
-1.5250714 1.6550604 3.2338338
-1.5150954 1.6550542 3.2338753
-1.5048726 1.6551337 3.2339039
-1.4948044 1.6551027 3.233902
-1.4849495 1.6552068 3.2339489
-1.4750229 1.6550013 3.2339175
-1.4651042 1.6550213 3.2340446
-1.4550028 1.6550137 3.233983
-1.4484411 1.6550152 3.2332585
-1.53381 1.6648846 3.2332008
-1.525161 1.6650143 3.2338669
-1.5151112 1.665082 3.2338703
-1.5050707 1.6651316 3.2338786
-1.4949539 1.6651711 3.2339141
-1.4850029 1.6651685 3.2339628
-1.4750688 1.6651222 3.2339396
-1.4652283 1.6649995 3.2340176
-1.4541464 1.665264 3.2337384
-1.4486537 1.6635813 3.2334952
-1.5336201 1.6751095 3.2331882
-1.5250132 1.67501 3.2338598
-1.5150312 1.6750084 3.2338576
-1.5050054 1.6749492 3.23387
-1.4949677 1.6750895 3.2339387
-1.4849933 1.674994 3.2339401
-1.4750185 1.6749908 3.233963
-1.4651364 1.6750124 3.2340167
-1.4554389 1.6747279 3.2335455
-1.4494675 1.6709656 3.2336621
-1.5321193 1.6821145 3.233094
-1.525005 1.6837672 3.2333112
-1.5149679 1.6839036 3.2333493
-1.5049517 1.6839814 3.2333212
-1.4949051 1.6839044 3.2333736
-1.485109 1.6840067 3.2333069
-1.4750806 1.6839101 3.233402
-1.4648944 1.6836898 3.2334077
-1.458531 1.6816963 3.233634
