# .PCD v0.7 - Point Cloud Data file format
VERSION 0.7
FIELDS x y z
SIZE 4 4 4
TYPE F F F
COUNT 1 1 1
WIDTH 1081
HEIGHT 1
VIEWPOINT 0 0 0 1 0 0 0
POINTS 1081
DATA ascii
-0.052106708 -0.010550044 -0.10046675
-0.043590661 -0.011801405 -0.10102218
-0.034955926 -0.012078021 -0.10111479
-0.024873301 -0.011781154 -0.10131544
-0.015275823 -0.012188185 -0.10104176
-0.0045986306 -0.012366674 -0.1009173
0.0051782606 -0.01194389 -0.10107018
0.014973009 -0.01198559 -0.10126358
0.024979638 -0.011976901 -0.10114694
0.035187058 -0.011948784 -0.1011535
0.044949565 -0.011944723 -0.10114812
0.054520529 -0.01182599 -0.10118756
0.06177289 -0.011399418 -0.10075708
-0.053336386 -0.0038189231 -0.10090823
-0.044282272 -0.0042958092 -0.10147098
-0.03503155 -0.0048069516 -0.10188805
-0.02514739 -0.004605379 -0.10179541
-0.017131854 -0.0042638499 -0.10157862
-0.0035126291 -0.0043086302 -0.10156896
0.0051102652 -0.0046156617 -0.1017548
0.014963528 -0.0046969922 -0.10173709
0.025099859 -0.0045927041 -0.10172427
0.035150636 -0.004510914 -0.10163837
0.04494587 -0.0046277405 -0.10169948
0.054878436 -0.0045988308 -0.10155377
0.062627353 -0.0041495804 -0.10120022
-0.053304896 0.0037327546 -0.10060537
-0.044030044 0.003977153 -0.10131553
-0.034936491 0.0042802491 -0.10166299
-0.025081668 0.0043017021 -0.10157921
-0.017178956 0.0037885956 -0.10147204
-0.0033560912 0.0039373208 -0.10141661
0.0049982695 0.0042723706 -0.101564
0.014970096 0.0042281146 -0.10154821
0.025113719 0.0041342215 -0.10152449
0.035052679 0.0041813022 -0.1014472
0.044997253 0.0041683563 -0.10149053
0.054883473 0.0040205936 -0.10144106
0.062300168 0.0032407343 -0.10105067
-0.043756157 0.011191871 -0.10077603
-0.03548795 0.011156551 -0.10056244
-0.024495738 0.010879104 -0.100713
-0.018673208 0.011107972 -0.10018871
-0.0029333569 0.011698935 -0.1006095
0.0055968682 0.011092926 -0.10068164
0.015836002 0.01097611 -0.1006377
0.024814399 0.011557312 -0.1006762
0.035255998 0.01125796 -0.10077994
0.044965904 0.011048849 -0.10038709
0.05461834 0.010959185 -0.10085094
-0.052835125 -0.021257367 -0.09110336
-0.044284828 -0.021672079 -0.092025004
-0.035065934 -0.022056879 -0.092269041
-0.023990786 -0.02392406 -0.092688322
-0.014990319 -0.024792096 -0.092749946
-0.0049815145 -0.02473703 -0.092708841
0.0041802153 -0.022856072 -0.092371531
0.014928865 -0.021928666 -0.092303447
0.02492287 -0.02203602 -0.09219531
0.036177795 -0.02357577 -0.092555784
0.044973396 -0.02471876 -0.092623979
0.053935014 -0.024038419 -0.092447445
0.06269484 -0.021182064 -0.091358297
-0.083737098 -0.010971295 -0.090577595
-0.076547138 -0.010987937 -0.09049993
-0.065185174 -0.011214571 -0.090577103
-0.05360695 -0.014711868 -0.094433419
-0.045049753 -0.015655635 -0.096072443
-0.034957148 -0.01593359 -0.096878193
-0.02505883 -0.015743032 -0.096994951
-0.015187329 -0.015137751 -0.096475795
-0.0049431003 -0.015232331 -0.096752107
0.0050054649 -0.015842805 -0.09678337
0.014946438 -0.015674651 -0.096878722
0.024988219 -0.015736191 -0.096793436
0.034968797 -0.015721092 -0.096799433
0.045028016 -0.015588799 -0.096926168
0.055181798 -0.015576212 -0.096684068
0.064755179 -0.014703039 -0.094559371
0.071531117 -0.012620607 -0.091697179
-0.10154308 -0.0030421496 -0.090247504
-0.093501419 -0.0037915686 -0.090807751
-0.084326029 -0.0040678415 -0.091175601
-0.076141536 -0.0043951226 -0.091369428
-0.06443987 -0.0044108047 -0.091500163
-0.054697458 -0.0050628176 -0.095770359
-0.046093319 -0.0061597573 -0.099085666
-0.035289634 -0.0071536237 -0.099509843
-0.025371278 -0.0067978464 -0.099540465
-0.014578576 -0.0051036449 -0.098469615
-0.0060533895 -0.0057137711 -0.098884605
0.0049571893 -0.0069165598 -0.099492781
0.014990738 -0.0068865702 -0.099562593
0.025194308 -0.0067570335 -0.099490568
0.034924176 -0.0073302709 -0.099518068
0.045120832 -0.0074875928 -0.099486411
0.055938467 -0.0067654988 -0.099463798
0.066073544 -0.0053156093 -0.097184643
0.072356969 -0.0046203304 -0.092795797
-0.10033059 0.0011716466 -0.090243384
-0.093329906 0.0020785118 -0.090666495
-0.084140971 0.0029920205 -0.091125757
-0.076353975 0.0034375889 -0.091178551
-0.064691164 0.0035759248 -0.091343723
-0.05437512 0.0050076758 -0.095714621
-0.04561881 0.0061499793 -0.098560691
-0.035070565 0.0072098589 -0.099017926
-0.025168736 0.0069772908 -0.099014588
-0.014805728 0.0055011194 -0.097862631
-0.0056361598 0.006016057 -0.098353334
0.0048927572 0.0069377585 -0.099073619
0.015018961 0.0068880436 -0.099100575
0.025145493 0.0068756305 -0.099078655
0.035136752 0.0068821642 -0.099031918
0.044959135 0.0070277099 -0.098990552
0.055369582 0.0068615829 -0.098936468
0.065807752 0.0053398055 -0.096647605
0.072104126 0.0043249796 -0.092480943
-0.053346742 0.013852069 -0.093513124
-0.044871747 0.014807712 -0.094654784
-0.034991704 0.015283356 -0.095133848
-0.025077948 0.015138006 -0.095433578
-0.015293602 0.014965542 -0.094900765
-0.0046766903 0.014906504 -0.095184736
0.0050846953 0.015107349 -0.095143102
0.014946645 0.015071101 -0.095201544
0.024960367 0.015142406 -0.095060535
0.034976285 0.015057777 -0.095246956
0.04508533 0.014684831 -0.095615096
0.055242166 0.014931252 -0.095048971
0.064271726 0.013738933 -0.09353254
0.071523488 0.011316368 -0.09125334
-0.052443102 0.020163834 -0.090520777
-0.043651883 0.020595359 -0.091332406
-0.035207801 0.021006497 -0.0911863
-0.023059746 0.022479627 -0.092460833
-0.015052186 0.022662612 -0.092568807
-0.0050850608 0.022638822 -0.092598952
0.0027806521 0.021898983 -0.092185922
0.01522669 0.020721486 -0.091642641
0.025001856 0.020887168 -0.091404654
0.03728053 0.022250164 -0.092364289
0.044945799 0.022576647 -0.092465982
0.053330738 0.022425644 -0.092397615
0.061463803 0.020520698 -0.090599135
-0.053636614 -0.023151005 -0.084668837
-0.044929527 -0.024735078 -0.08516445
-0.035103772 -0.025599729 -0.085150108
-0.02517901 -0.025937492 -0.085079461
-0.015003169 -0.02628376 -0.084944144
-0.0049335975 -0.026282215 -0.084863096
0.0049107471 -0.025668487 -0.08502207
0.015070159 -0.025531922 -0.08510191
0.025089808 -0.025523825 -0.085096627
0.03495767 -0.025857268 -0.085146651
0.044865564 -0.026109444 -0.084918216
0.055015877 -0.025571963 -0.08510825
0.064493522 -0.023137301 -0.084452629
0.071063146 -0.021344345 -0.082408153
-0.11220562 -0.011864478 -0.082199603
-0.10484897 -0.01275172 -0.082987189
-0.094989367 -0.013515211 -0.083790362
-0.084951341 -0.014327552 -0.084631898
-0.076059483 -0.014430709 -0.084770389
-0.064819969 -0.014681119 -0.084782228
-0.056432683 -0.016011631 -0.085926659
-0.047470052 -0.019535119 -0.089806348
-0.024752438 -0.014616072 -0.082679391
0.050920323 -0.01939106 -0.080082051
0.068032555 -0.018029429 -0.087308913
0.073414467 -0.014412634 -0.084500097
-0.12047418 -0.002982409 -0.080269895
-0.11384957 -0.0048227846 -0.083763987
-0.10509774 -0.0051542297 -0.086731642
-0.095177688 -0.0053749369 -0.08789821
-0.085415311 -0.0059420764 -0.08868137
-0.075018227 -0.0055854004 -0.087265283
-0.065569974 -0.0061393804 -0.087776169
-0.057287227 -0.0076422798 -0.089279033
0.07600949 -0.0050641685 -0.085063227
0.080074504 -0.0018297926 -0.082376249
-0.12002289 0.00012062117 -0.080216944
-0.11303815 0.0040200152 -0.083086818
-0.10501192 0.0052365721 -0.084851481
-0.095070288 0.0055306088 -0.086404502
-0.085335605 0.0060683168 -0.087674052
-0.075503059 0.0059712948 -0.087202966
-0.06513235 0.006306536 -0.087499961
-0.057234786 0.0070259925 -0.088562116
0.069608912 0.0093955696 -0.089429498
0.075310245 0.0051676491 -0.085104205
-0.11154164 0.010487983 -0.080792621
-0.10361819 0.010813559 -0.081523374
-0.094414696 0.011585995 -0.082190134
-0.084559605 0.012463234 -0.083342113
-0.076308385 0.01273831 -0.083770238
-0.064788729 0.012824685 -0.083847336
-0.055243056 0.015877016 -0.085722461
-0.046201378 0.018847181 -0.088174902
-0.035264201 0.019238813 -0.088727407
-0.027545704 0.019323306 -0.08844649
-0.001508395 0.019373536 -0.089708559
0.0053276815 0.01922323 -0.088959128
0.014660743 0.019317402 -0.088965662
0.02529237 0.019227391 -0.088956527
0.032955889 0.019261068 -0.088835105
0.046782006 0.018659215 -0.082316391
0.05708763 0.019186797 -0.088049397
0.066509664 0.017133266 -0.086131766
0.07260032 0.013379295 -0.084099203
-0.053350281 0.021576058 -0.083459973
-0.04466733 0.022325929 -0.084411629
-0.035066653 0.022784099 -0.084809527
-0.025059123 0.02299469 -0.084995806
-0.015028945 0.023246594 -0.084865555
-0.0048937155 0.023230528 -0.08478196
0.0049755243 0.022857178 -0.084692843
0.015084877 0.022740705 -0.084747657
0.025068192 0.022744747 -0.084742457
0.035032921 0.022947088 -0.084910974
0.044877961 0.023185248 -0.084953353
0.0548985 0.022761926 -0.084814399
0.06340187 0.021640837 -0.083306633
0.070164189 0.020907342 -0.080423467
-0.082522079 -0.020205304 -0.07386446
-0.076828778 -0.020334929 -0.074360713
-0.064706422 -0.020281797 -0.074368581
-0.05424834 -0.024674958 -0.074994467
-0.045061056 -0.027186697 -0.074947178
-0.035064068 -0.027958089 -0.075102516
-0.024976462 -0.027939256 -0.074955054
-0.014960168 -0.027960423 -0.075013518
-0.0051093199 -0.02793948 -0.075117826
0.0049702493 -0.027959822 -0.075013459
0.014936944 -0.027939504 -0.074914955
0.02497343 -0.027938997 -0.07495331
0.034973525 -0.02795003 -0.075012781
0.044484828 -0.02706925 -0.07496427
0.055117972 -0.027285911 -0.07490588
0.065176092 -0.024844466 -0.07490655
0.071446627 -0.021710347 -0.074654222
-0.12042021 -0.010527986 -0.072240651
-0.11372774 -0.013350835 -0.07480935
-0.1050722 -0.015903795 -0.075052708
-0.09509965 -0.017100615 -0.075075455
-0.085068204 -0.018179201 -0.075153761
-0.075714201 -0.017567309 -0.075350948
-0.065213256 -0.017980436 -0.075045116
-0.057363361 -0.018730322 -0.075268723
0.047727197 -0.019658893 -0.079326935
0.051472999 -0.019802405 -0.077072658
0.06946905 -0.019328728 -0.076498754
0.07499101 -0.015169677 -0.074955426
-0.16172625 -0.0022090704 -0.073184706
-0.15419321 -0.002242425 -0.072978713
-0.14504828 -0.0022988466 -0.073004775
-0.13504188 -0.0023157152 -0.073001198
-0.12442455 -0.0031596778 -0.073510051
-0.11808041 -0.0063357921 -0.076341987
-0.072690964 -0.0052593392 -0.07515993
-0.068330139 -0.0051540234 -0.076191321
0.077949934 -0.0051727071 -0.075152934
0.080504611 -0.0039150901 -0.073959708
-0.15347956 0.00032131912 -0.072875768
-0.14502119 0.00017093304 -0.072711259
-0.13515982 0.00022845007 -0.07265687
-0.12201685 0.0017127484 -0.073654324
-0.11577538 0.0056223734 -0.075264506
-0.10681636 0.0092512919 -0.077639736
-0.098514125 0.009552002 -0.078489915
-0.073183566 0.0046808724 -0.07497903
-0.068124615 0.0048457067 -0.075333484
0.077464186 0.0053959759 -0.075131208
0.08038827 0.002965522 -0.073367268
-0.11186708 0.010937581 -0.07428629
-0.10485302 0.011722689 -0.074762955
-0.094994791 0.013226362 -0.074976884
-0.084936015 0.014915483 -0.075100996
-0.076073922 0.015220452 -0.075222537
-0.065097429 0.015387737 -0.075010769
-0.05661026 0.01681092 -0.075112283
0.047673006 0.018008722 -0.075449936
0.051564865 0.017952967 -0.075040922
0.068437107 0.018671932 -0.075198159
0.073598757 0.014588136 -0.074969098
-0.053868547 0.02253459 -0.074924447
-0.045035142 0.024135001 -0.074938357
-0.035044719 0.024893057 -0.074977554
-0.024955641 0.024867732 -0.074962839
-0.014953027 0.024908969 -0.074983343
-0.0050309231 0.024893038 -0.074966758
0.0049742679 0.024868531 -0.074908972
0.015032157 0.024888191 -0.074967742
0.025024597 0.024882801 -0.074942634
0.034972366 0.024877263 -0.074918471
0.044204324 0.024600092 -0.074973851
0.055264682 0.024420064 -0.074904285
0.064264327 0.022538703 -0.07477349
0.070721172 0.020750336 -0.074085586
-0.08144059 -0.020162305 -0.068580493
-0.076196052 -0.020163774 -0.068323538
-0.065299369 -0.0202308 -0.06889464
-0.05417715 -0.02368477 -0.06503541
-0.045030333 -0.025832037 -0.064898305
-0.034884732 -0.026731798 -0.064939834
-0.025075328 -0.026819445 -0.065128177
-0.015055683 -0.026835341 -0.065105245
-0.0049949544 -0.026917087 -0.065247014
0.0049931249 -0.026821787 -0.06513682
0.014968538 -0.026749447 -0.064880334
0.025050214 -0.026768822 -0.06490089
0.035039466 -0.026874438 -0.065022074
0.04485153 -0.026476339 -0.0650637
0.055186186 -0.026436048 -0.065065823
0.064953245 -0.02392656 -0.064963371
0.071055852 -0.021484846 -0.06647034
-0.11318807 -0.012618005 -0.066269539
-0.10493225 -0.013872346 -0.065143779
-0.09486369 -0.014733508 -0.064890549
-0.085105725 -0.015697328 -0.064740576
-0.076040536 -0.015765527 -0.064849548
-0.065377384 -0.015727846 -0.064801253
-0.05689279 -0.016654186 -0.064071812
-0.024408907 -0.018406535 -0.063503921
0.047846287 -0.019796114 -0.066818148
0.051439542 -0.019636346 -0.066255987
0.068611793 -0.018550238 -0.062749691
0.074127421 -0.014904527 -0.065020658
-0.16235182 -0.0024558678 -0.069630608
-0.15432891 -0.0022456977 -0.069199517
-0.14510527 -0.0022978208 -0.068933114
-0.13583714 -0.002187036 -0.069021381
-0.12191958 -0.0036075739 -0.068115041
-0.11577 -0.0053605335 -0.064104058
-0.10563117 -0.0075358022 -0.060757499
-0.095760353 -0.0087867901 -0.060574587
-0.08571016 -0.0092191016 -0.060444124
-0.074131608 -0.0044018943 -0.065273501
-0.068671957 -0.0057447953 -0.063569449
-0.057894334 -0.0092967898 -0.060207084
-0.023452796 -0.0049352944 -0.062280893
0.07708618 -0.0050580804 -0.064780936
0.080334768 -0.0028944493 -0.067102782
-0.15166125 0.0004017055 -0.069893897
-0.14106861 0.00017696619 -0.069672219
-0.13492839 0.0003016144 -0.069379598
-0.12113225 0.0016143743 -0.068124555
-0.11443396 0.0048149796 -0.065154791
-0.10531578 0.0070044938 -0.062940016
-0.095507935 0.0076274108 -0.061835818
-0.086068772 0.0084404591 -0.061247945
-0.075282089 0.0062853689 -0.063340403
-0.067032486 0.0067918026 -0.062817022
-0.057605647 0.0088014258 -0.060904767
0.076497987 0.0051678261 -0.064852715
0.080193341 0.0016031677 -0.06785617
-0.11183443 0.010800359 -0.067792244
-0.1044573 0.011337319 -0.067166217
-0.09477485 0.012139596 -0.066232532
-0.084856339 0.01317603 -0.065525956
-0.076118156 0.013444524 -0.065269217
-0.065261312 0.013389241 -0.065294228
-0.056015369 0.01600715 -0.064020626
-0.047486063 0.019564776 -0.061115567
-0.036584504 0.01948148 -0.060017765
-0.024991184 0.019919336 -0.060058564
0.0041569322 0.019744352 -0.060398072
0.014962651 0.019822791 -0.060571194
0.025955927 0.019902885 -0.060745284
0.04765778 0.01823746 -0.066186532
0.05237468 0.017852331 -0.066213854
0.067393579 0.017915564 -0.063748203
0.073062263 0.014075239 -0.065202102
-0.053724457 0.021759825 -0.06578666
-0.044902496 0.022964077 -0.065081678
-0.034938391 0.023691531 -0.06496492
-0.025014101 0.023751019 -0.065147944
-0.014994519 0.023762947 -0.065132178
-0.005067999 0.023850609 -0.065223828
0.0050448845 0.023787815 -0.06508936
0.014947777 0.023690246 -0.0649409
0.024962824 0.023687394 -0.064822316
0.035031382 0.023801196 -0.065019473
0.04462814 0.023622122 -0.064962022
0.055145003 0.023485264 -0.065028809
0.063872896 0.021975027 -0.065499671
0.07100106 0.020511411 -0.068754792
-0.053445075 -0.021690642 -0.057941802
-0.044463169 -0.022429558 -0.056720164
-0.035211157 -0.022863297 -0.056231324
-0.024434723 -0.024403397 -0.055660106
-0.014985229 -0.025168352 -0.055130996
-0.0047222837 -0.025101412 -0.055142686
0.0047603138 -0.02340002 -0.05607909
0.01494984 -0.023026871 -0.056046203
0.024873171 -0.023041006 -0.056013141
0.0357778 -0.024653735 -0.055064678
0.045057967 -0.025797334 -0.054586101
0.054287706 -0.024684573 -0.055141833
0.063369989 -0.021966856 -0.057184316
-0.11148003 -0.011131549 -0.058809467
-0.10398319 -0.011451597 -0.0586555
-0.094775558 -0.011852013 -0.058929484
-0.084533229 -0.011979708 -0.058461841
-0.076279856 -0.012030653 -0.058448602
-0.065394826 -0.01171837 -0.058692012
-0.054540306 -0.01521367 -0.05447033
-0.045657966 -0.016861441 -0.052490786
-0.034892969 -0.017670874 -0.051845584
-0.024972692 -0.017680207 -0.05193371
-0.01522961 -0.017539304 -0.051788617
-0.0050530513 -0.017851509 -0.051846776
0.0050808177 -0.017898133 -0.051896371
0.015183896 -0.017992957 -0.051967334
0.025148705 -0.017921554 -0.051912248
0.034910068 -0.017698737 -0.051745236
0.044939525 -0.017573873 -0.051683888
0.055480465 -0.017673127 -0.051872678
0.06581071 -0.015875833 -0.053939253
0.072091423 -0.013287137 -0.056915361
-0.11242186 -0.0040950049 -0.058770165
-0.10486824 -0.0044024866 -0.05830548
-0.094881125 -0.0049110008 -0.057778813
-0.085110798 -0.0050611459 -0.056996938
-0.076223701 -0.0050906325 -0.0568364
-0.065468818 -0.0050279503 -0.057103846
-0.056136128 -0.0054760645 -0.054027073
-0.047867715 -0.0095456615 -0.050123423
-0.02156236 -0.0031249821 -0.056509614
0.0682965 -0.0055152751 -0.051687766
0.073506437 -0.0049062921 -0.055610944
-0.11235693 0.002711307 -0.058718342
-0.10483734 0.0029271585 -0.058562897
-0.094870836 0.0036522313 -0.058050849
-0.084941849 0.0045311819 -0.057521619
-0.076243386 0.004757415 -0.057439055
-0.06541872 0.0045735016 -0.057654459
-0.055622399 0.0056715501 -0.053886607
-0.047320999 0.0088562416 -0.0506786
-0.034621544 0.0095054656 -0.050270252
-0.027172938 0.0093110204 -0.050273061
-0.016111702 0.009311676 -0.050210506
0.021815289 0.0093371123 -0.050084203
0.034907784 0.0092828041 -0.050319206
0.045467865 0.0093909008 -0.050410777
0.056208443 0.0084486306 -0.050157033
0.067383207 0.0061039701 -0.051962726
0.073066533 0.0048121773 -0.055829111
-0.10003805 0.010287941 -0.059648715
-0.092396043 0.01041555 -0.058970474
-0.083729699 0.010999411 -0.058673739
-0.075886764 0.011333734 -0.058887284
-0.065003201 0.010935464 -0.059179325
-0.054181058 0.014702293 -0.055548999
-0.045224056 0.015958996 -0.054088194
-0.035002932 0.016470259 -0.053429805
-0.025282713 0.016111895 -0.053126302
-0.015109018 0.015774587 -0.052490238
-0.0048362324 0.016233897 -0.052709129
0.0051843463 0.016704159 -0.05340822
0.015136825 0.016814107 -0.053498961
0.025051378 0.016767945 -0.053403825
0.034693509 0.016481163 -0.053044077
0.045102779 0.015924254 -0.052348781
0.055652052 0.016494287 -0.053028118
0.065054104 0.015028231 -0.055044081
0.07157094 0.012231437 -0.057281431
-0.05340286 0.020648872 -0.058540273
-0.043828215 0.021074742 -0.057809614
-0.035116419 0.021286627 -0.057654262
-0.023919189 0.022343168 -0.055842392
-0.015039332 0.022810396 -0.055431761
-0.0047963215 0.02273442 -0.055410616
0.0044423272 0.021749074 -0.057158433
0.014978718 0.021355921 -0.057274487
0.024803488 0.02128963 -0.057124067
0.03617524 0.022275489 -0.055559255
0.045036271 0.022766646 -0.054994967
0.05368574 0.022398185 -0.055709466
0.062106583 0.02086472 -0.058134377
-0.04203869 -0.020269712 -0.04966449
-0.034450024 -0.020445228 -0.049364489
-0.024515621 -0.022511175 -0.049766999
-0.014917237 -0.022025665 -0.049024127
-0.0030855983 -0.022994058 -0.049725238
0.0037609688 -0.021011837 -0.049560245
0.015340127 -0.020297024 -0.049492098
0.023908921 -0.020407984 -0.049723748
0.03722075 -0.024240969 -0.049677666
0.04599528 -0.023972329 -0.049672868
0.053137571 -0.023649422 -0.049726214
-0.053423669 -0.012140684 -0.048661083
-0.044278599 -0.013147443 -0.048053723
-0.035134245 -0.013635052 -0.047647912
-0.025021756 -0.013870416 -0.047883417
-0.013780911 -0.01489905 -0.044898499
-0.0051346999 -0.015489463 -0.04449914
0.0051186336 -0.013704169 -0.045535382
0.014873694 -0.013558393 -0.04568366
0.0250683 -0.014058493 -0.047251072
0.034933794 -0.013986894 -0.047270976
0.044973511 -0.013925142 -0.047215164
0.054969307 -0.014107695 -0.047483373
0.063241728 -0.013040274 -0.048179358
0.070338652 -0.010597503 -0.049831726
-0.060389966 -0.0071641505 -0.047796786
-0.053969316 -0.0044910084 -0.048014749
-0.045051128 -0.0050107213 -0.046572823
-0.034732085 -0.0047879545 -0.044965584
-0.025719501 -0.0061938995 -0.04359743
-0.016721115 -0.0076980726 -0.043764122
0.018715246 -0.0074139643 -0.042674664
0.024710327 -0.0051630028 -0.04392517
0.035035402 -0.0051108883 -0.044623092
0.045090452 -0.0049332185 -0.044546627
0.055349287 -0.0052362909 -0.044898417
0.064442873 -0.0047757309 -0.047035877
0.07058306 -0.0040602777 -0.04900052
-0.060123354 0.00342682 -0.047810927
-0.053845271 0.0044335332 -0.048239056
-0.044862516 0.0050168647 -0.04707326
-0.034894519 0.0049886066 -0.04574044
-0.025655132 0.0054897517 -0.044774167
-0.015714886 0.0069941608 -0.044449247
-0.0040230742 0.0094589181 -0.044454064
0.0048865518 0.0093728248 -0.044117667
0.01651508 0.0079183653 -0.043814573
0.024770403 0.0055208448 -0.04490437
0.035105385 0.0053016613 -0.045340192
0.045095343 0.0053484943 -0.045347437
0.05513496 0.0052112848 -0.045569342
0.064235024 0.0046018073 -0.047326785
0.070671022 0.0035771332 -0.049528699
-0.052696519 0.011719986 -0.048977982
-0.043867324 0.012632267 -0.04853528
-0.034984391 0.012549593 -0.04836341
-0.024843125 0.012840644 -0.048381701
-0.013267768 0.014123822 -0.044138752
-0.0053421864 0.014153295 -0.044105045
0.005201004 0.011969023 -0.045702577
0.014642369 0.012215556 -0.046269737
0.025125284 0.013029715 -0.047947228
0.035025179 0.012820724 -0.047975738
0.045040175 0.013109701 -0.048074361
0.054945905 0.012861631 -0.048081905
0.062491599 0.012057902 -0.048553623
-0.021989208 0.021189392 -0.049853664
-0.016073436 0.021045532 -0.049903791
-0.0043028891 0.020926356 -0.049848072
0.00022000074 0.021554917 -0.049732506
0.054000169 0.020329535 -0.049726516
-0.012269313 -0.01298678 -0.035759751
-0.0053018057 -0.01378648 -0.035535399
0.005058967 -0.012232795 -0.034900051
0.01495018 -0.011922144 -0.034807492
0.020890845 -0.010991991 -0.033983447
-0.03238111 -0.0027058821 -0.038024254
-0.02481012 -0.0042379005 -0.038033217
-0.016137553 -0.0057256287 -0.03461301
-0.0032456915 -0.0092456937 -0.030056348
0.018897321 -0.0084391274 -0.0356315
0.021918597 -0.0046416055 -0.03422562
-0.032013033 0.0023869716 -0.038143422
-0.024621002 0.0031209202 -0.0377791
-0.01530975 0.0055694631 -0.034696102
-0.0052570007 0.0094334986 -0.03406838
0.0050144969 0.009315704 -0.034985267
0.016719669 0.0083791381 -0.035140052
0.021688621 0.0040381742 -0.034067035
-0.01199033 0.013471968 -0.036721744
-0.0052610189 0.012759674 -0.036014691
0.0050929324 0.010816876 -0.034697562
0.014104984 0.010761923 -0.03491677
0.020592069 0.010447818 -0.033984806
-0.01186136 -0.011411998 -0.027645059
-0.0044353288 -0.011859071 -0.026698004
0.0047060279 -0.012217324 -0.024917275
0.014968521 -0.01208666 -0.024917666
0.021446748 -0.010854619 -0.024048191
-0.020369355 -0.0034800768 -0.027386984
-0.0148137 -0.0049828598 -0.027072132
-0.005573248 -0.0056257029 -0.024574375
0.00049576274 -0.0095623182 -0.023095889
0.019072609 -0.0092558507 -0.025962567
0.02292246 -0.0050363825 -0.024879426
-0.020777339 0.0029708296 -0.027624466
-0.014361638 0.0046915831 -0.027173951
-0.005084279 0.0059008398 -0.0250533
0.0041481126 0.0093045179 -0.024744213
0.01637358 0.0089697987 -0.025159381
0.022571059 0.0046210536 -0.024799557
-0.011560894 0.010980166 -0.027356667
-0.0044943606 0.010713382 -0.027134284
0.0050501926 0.010754349 -0.024987256
0.014152111 0.01084148 -0.02478959
0.021361474 0.010272499 -0.023531415
-0.0015221088 -0.01134493 -0.015290868
0.004696406 -0.012096658 -0.015062048
0.015074239 -0.012152614 -0.015139326
0.021652892 -0.011214979 -0.014551166
-0.0037405198 -0.0051479512 -0.015010055
0.00051388721 -0.0091100736 -0.01489894
0.019157065 -0.0096007269 -0.016609767
0.02394796 -0.005206232 -0.015157913
-0.0031836736 0.0050966619 -0.015042098
0.0035636264 0.0090689296 -0.014870557
0.015972026 0.0092436951 -0.015107527
0.023384044 0.0050693816 -0.015186427
-0.0010415119 0.010528108 -0.016326779
0.0053595598 0.010776957 -0.01520589
0.014772919 0.010855603 -0.01502226
0.021230549 0.010610108 -0.014897572
-0.0011942273 -0.010979238 -0.0052234582
0.0049133752 -0.012016146 -0.0050798729
0.015216025 -0.012264004 -0.0050619002
0.022176789 -0.011414842 -0.0046909838
-0.0026922862 -0.0047262558 -0.0050675105
0.00091448135 -0.0088060461 -0.0040002884
0.019783646 -0.0097834468 -0.0089366436
0.025120262 -0.005409861 -0.0051023043
0.030423488 -0.0015733093 -0.00095096231
-0.0023991913 0.0046137399 -0.0051002838
0.0033332827 0.0087183416 -0.0046228985
0.015764806 0.0093863746 -0.0052150018
0.024316721 0.005243246 -0.0050884765
0.030267738 0.0021646321 -3.8564205e-05
-0.00068859122 0.01053053 -0.0063776961
0.0055278027 0.010743636 -0.005351455
0.015026086 0.010848009 -0.0049754274
0.021383524 0.010704039 -0.0045641237
-0.00055143342 -0.010606089 0.0038464488
0.0053924462 -0.011895955 0.0049186964
0.015174588 -0.012236193 0.0048904316
0.022729492 -0.011603814 0.0051787104
-0.001775794 -0.004517063 0.0044575492
0.0012486069 -0.0079138596 0.005556664
0.026251974 -0.005520632 0.0049072155
0.030513426 -0.0025672647 0.0061272322
-0.0016497134 0.0037566754 0.0042898129
0.0032639452 0.0079927668 0.0053200158
0.015530285 0.0094130337 0.0047786315
0.025222311 0.0055941483 0.005007091
0.030289883 0.0018452279 0.0062133777
-2.7000904e-05 0.010294691 0.002376914
0.0062874635 0.010761571 0.0048380746
0.014762402 0.010796857 0.004782625
0.022120362 0.010718974 0.0052943244
0.0059161433 -0.011764818 0.014552075
0.015014844 -0.012283489 0.01487597
0.023386 -0.01165637 0.015187031
-0.0012171423 -0.0041444404 0.013549454
0.0015165024 -0.0058442103 0.015159581
0.027424714 -0.0055383043 0.014664926
0.030809997 -0.0034899761 0.015635172
-0.0012968968 0.0028726812 0.013488073
0.003334542 0.0069371774 0.014902379
0.015307044 0.009367587 0.014655889
0.026090598 0.0058880872 0.014904794
0.030721094 0.0024782345 0.015562102
0.0071703042 0.010807094 0.014607959
0.014852844 0.010825297 0.01493119
0.022673147 0.010727205 0.015301853
-0.031747192 -0.030864162 0.028272575
-0.025053352 -0.031109501 0.028293813
-0.014810248 -0.031062905 0.027981965
-0.0048338366 -0.031068094 0.028187135
0.00479382 -0.030958245 0.0280295
0.015288822 -0.031086281 0.02825354
0.025381034 -0.031045562 0.028246678
0.03266615 -0.031204795 0.028574914
-0.040373426 -0.021825952 0.028751928
-0.034597985 -0.024813328 0.027453788
-0.025096292 -0.025611714 0.026817355
-0.015087225 -0.025648372 0.026931297
-0.0051269433 -0.025489382 0.026888706
0.0049167257 -0.025671808 0.027067767
0.014943242 -0.025720507 0.027232304
0.024970848 -0.025618246 0.027398672
0.034456011 -0.024664277 0.027981795
0.041293718 -0.022143248 0.02863011
-0.040358949 -0.015076575 0.028079381
-0.035450518 -0.015021931 0.027218003
-0.025154073 -0.014976317 0.026638394
-0.015231817 -0.014979765 0.026609372
-0.0052105207 -0.015100789 0.026493218
0.0051894202 -0.014331961 0.025346596
0.015119303 -0.014283635 0.025183208
0.024916371 -0.014025088 0.025691055
0.035250414 -0.015197812 0.027441371
0.042684838 -0.014151628 0.02815116
-0.040416677 -0.0050964211 0.027935082
-0.035422549 -0.0050572483 0.027240485
-0.025078924 -0.0049002729 0.026626846
-0.01518947 -0.0049295044 0.026554249
-0.0052708974 -0.0049798754 0.025976833
0.0020758754 -0.0059525515 0.023730488
0.028226124 -0.0059906552 0.023821535
0.034590516 -0.0048935674 0.026698373
0.043824129 -0.004993041 0.02800801
-0.040386874 0.0048910202 0.028063176
-0.035485726 0.0049026902 0.027269987
-0.025163746 0.0051519265 0.026622953
-0.015054529 0.0049669351 0.026634933
-0.0053675552 0.0051188483 0.026208604
0.0032672186 0.0063831662 0.023853069
0.015168562 0.0093371263 0.023448274
0.0270101 0.0063608019 0.023981528
0.034716487 0.004992052 0.027026029
0.043781426 0.0048691081 0.027978828
-0.040357105 0.015351944 0.028203033
-0.035396401 0.015048145 0.027211774
-0.025109917 0.014886596 0.026605593
-0.015172073 0.015005256 0.026664207
-0.0050211125 0.014959469 0.026623579
0.0052924748 0.01442037 0.026066851
0.015033697 0.013975568 0.025921961
0.024684893 0.014319688 0.026561102
0.035417728 0.015145811 0.027634867
0.042398922 0.01402194 0.028399205
-0.040372331 0.021926003 0.027882129
-0.034461398 0.024516916 0.027374243
-0.02502195 0.025361305 0.027140681
-0.015143911 0.025496576 0.027184604
-0.0051639173 0.025461812 0.027250502
0.0049202377 0.025573347 0.027393911
0.015076125 0.02563943 0.027540866
0.025010737 0.02550092 0.027662689
0.033848692 0.024344649 0.027994413
0.04095212 0.022137795 0.028716192
-0.031506315 0.030445533 0.028625438
-0.024718598 0.03047521 0.028852705
-0.015294497 0.030487111 0.028445765
-0.0056519266 0.030536853 0.028889794
0.0049022487 0.030554712 0.028620511
0.01492767 0.030438893 0.028476965
0.025283366 0.030474534 0.028807245
0.032025121 0.030427104 0.028851669
-0.032586247 -0.031083111 0.035346199
-0.024975136 -0.031465273 0.034909796
-0.015178265 -0.031510305 0.034972072
-0.004681896 -0.032884847 0.035411913
0.0049563856 -0.033720754 0.035493914
0.014696227 -0.032805417 0.035317097
0.025041299 -0.031454392 0.034814712
0.032402594 -0.031318355 0.035026707
-0.040545586 -0.022767032 0.031487651
-0.035549957 -0.025893018 0.03457135
-0.025355978 -0.02980677 0.034774169
-0.015331909 -0.029783968 0.034568459
-0.0063779289 -0.029717974 0.033605974
0.0044529471 -0.02971231 0.031738691
0.015931908 -0.029786225 0.033660185
0.025120057 -0.029655078 0.034586806
0.036680356 -0.026449667 0.034751274
0.041574981 -0.022356866 0.034957454
-0.040738747 -0.014669658 0.032146152
-0.03611023 -0.015007876 0.034551036
0.039607875 -0.019671753 0.031596214
0.044047046 -0.015200379 0.034676351
-0.040681224 -0.0045565246 0.031875424
-0.036108166 -0.004911432 0.034648422
0.046848934 -0.0054429928 0.034278497
0.05532128 -0.0027051475 0.036401965
0.060813744 -0.0023504235 0.03691151
-0.04077287 0.0050215656 0.031912044
-0.036108673 0.0050809635 0.034509681
0.046606112 0.0053377803 0.034282681
0.05523419 0.0028964973 0.036245313
0.060823619 0.0028327466 0.037327759
-0.040661708 0.014984446 0.032231044
-0.036093242 0.015033831 0.034608513
0.039528009 0.019016698 0.033839893
0.043435678 0.014903037 0.034717932
-0.040657695 0.022545516 0.031543501
-0.034715187 0.026012821 0.034663543
-0.02506863 0.02895692 0.03468208
-0.015229834 0.028943704 0.034566466
-0.0054178764 0.028940877 0.03321214
0.0052668769 0.028892381 0.032997575
0.015323902 0.028916931 0.034441978
0.025069643 0.028943053 0.034761418
0.035437759 0.025954029 0.034746017
0.041288432 0.021815918 0.035041083
-0.031586502 0.030471338 0.035499353
-0.024728548 0.030637873 0.0353516
-0.014640755 0.031056436 0.035547972
-0.005086353 0.032495655 0.036446009
0.0050532669 0.032624673 0.036387362
0.013637429 0.031615052 0.036016352
0.024712717 0.030609671 0.035140332
0.032164305 0.030581411 0.035662342
-0.03279075 -0.031015119 0.045021728
-0.02523054 -0.031484984 0.044940103
-0.015009418 -0.031461883 0.044879183
-0.0045826179 -0.033528071 0.04499945
0.0051085483 -0.035012856 0.045027688
0.014465579 -0.033552784 0.044799741
0.02522086 -0.031467855 0.04493678
0.032627068 -0.031229939 0.045054868
-0.040569101 -0.022809798 0.045686357
-0.03673517 -0.025833653 0.044829495
-0.024916222 -0.029772403 0.045378715
-0.01503993 -0.029760037 0.044973511
-0.0066080578 -0.02973678 0.045736067
0.004980085 -0.029317712 0.047613021
0.016862726 -0.029732021 0.045641348
0.025092544 -0.029792037 0.045129176
0.036743756 -0.026419036 0.045095414
0.041499134 -0.022233138 0.044837151
-0.040635914 -0.015105772 0.045254651
-0.037786644 -0.015157863 0.044444799
0.024462871 -0.013741076 0.044879258
0.039718926 -0.019427042 0.046978042
0.044111941 -0.015138416 0.044911165
-0.040598117 -0.0051923748 0.045301799
-0.037755914 -0.0050665205 0.044534303
0.0052194893 -0.009540379 0.044484735
0.046785291 -0.0053540277 0.04509249
0.054571923 -0.0026673165 0.042569283
0.060766414 -0.0030004291 0.0410433
-0.040614318 0.0049466011 0.045493945
-0.037735701 0.0050746175 0.044422578
-0.00096413493 0.0090710819 0.044594496
0.046549719 0.0053088493 0.045110065
0.054708421 0.0029408552 0.04250209
0.060610764 0.002278452 0.041119527
-0.040656481 0.014874591 0.045373645
-0.037841626 0.01491289 0.04440631
0.0076089576 0.019222617 0.044452131
0.039452828 0.019072948 0.045030087
0.043383773 0.015021809 0.044906504
-0.040596053 0.021804985 0.045001071
-0.03560352 0.025781881 0.045010515
-0.025100391 0.028938761 0.044975381
-0.015366528 0.02891208 0.045039933
-0.0074342648 0.028994765 0.045706745
0.0071265567 0.028815323 0.045934837
0.015561549 0.028914517 0.045180466
0.025071751 0.028947787 0.04493802
0.035459194 0.025985347 0.045029975
0.041323792 0.021730427 0.045049787
-0.0316418 0.030494245 0.044983845
-0.024877908 0.030581117 0.044961736
-0.014214274 0.03106793 0.044700667
-0.0049967677 0.032921202 0.04489122
0.0052069225 0.033017311 0.044917814
0.013689226 0.031624023 0.044438552
0.025122359 0.0305907 0.045006264
0.032044105 0.030583348 0.045291271
-0.032614563 -0.031120751 0.054911878
-0.025088513 -0.031504605 0.054970205
-0.015070785 -0.031534079 0.054994702
-0.004404061 -0.032904815 0.054947365
0.0049583116 -0.034706865 0.05536326
0.014161901 -0.032781869 0.054796983
0.025120921 -0.031517159 0.055018451
0.032502115 -0.031288188 0.055116192
-0.040611308 -0.022792814 0.054931857
-0.037009284 -0.026034305 0.055029184
-0.024970865 -0.029841496 0.055179231
-0.015071427 -0.02986696 0.054898903
-0.006414881 -0.029861134 0.055502914
0.0015388405 -0.029994827 0.056543868
0.015877839 -0.029870277 0.055327825
0.025102733 -0.029865306 0.055130266
0.036738109 -0.026523259 0.055030771
0.04143057 -0.022293214 0.055162076
-0.04064668 -0.014810266 0.055149261
-0.038446032 -0.015165244 0.054976106
0.039988697 -0.019989699 0.05646231
0.044148017 -0.015212298 0.054967418
-0.040595058 -0.0048685814 0.055105787
-0.038391542 -0.0051507442 0.055038776
0.046514399 -0.0050872322 0.054979384
0.050032705 -0.0013503291 0.05844146
-0.040630724 0.0050407117 0.055116106
-0.038401872 0.0049881302 0.055074275
0.04625921 0.0050799749 0.054948088
-0.040651985 0.014843144 0.055117231
-0.038410772 0.015069778 0.054895427
0.039422505 0.019141877 0.054591425
0.043452833 0.014927652 0.055060662
-0.040649667 0.021811882 0.055107284
-0.03567889 0.025959894 0.055033039
-0.025062609 0.029038176 0.054911286
-0.01495101 0.028977489 0.055022605
-0.0067286971 0.029073583 0.055714313
0.0071313437 0.029096419 0.056343675
0.015164643 0.02897889 0.055156324
0.025073241 0.029036522 0.054948237
0.035516545 0.025983883 0.055085264
0.041335005 0.021633262 0.054785471
-0.031536866 0.030466929 0.055169251
-0.025061196 0.030657716 0.054677423
-0.015099078 0.030660488 0.055337958
-0.0042225476 0.032768395 0.054886464
0.0046567977 0.032850541 0.054944653
0.014954324 0.030864164 0.055228096
0.025014399 0.030665651 0.05469311
0.031888716 0.030639211 0.054952733
-0.032582242 -0.031127363 0.064908624
-0.02509423 -0.031540785 0.065062433
-0.014981152 -0.03209829 0.065002427
-0.005113062 -0.032364048 0.065152258
0.0049050055 -0.032657545 0.06500759
0.015080951 -0.032426436 0.065302059
0.024892341 -0.03166528 0.0650196
0.032485388 -0.031271152 0.065148555
-0.040567353 -0.022778781 0.065210231
-0.036994293 -0.026137844 0.064977735
-0.024928708 -0.029840956 0.06493561
-0.015225309 -0.029881325 0.064833842
-0.0056394693 -0.029849635 0.063379884
0.0045215264 -0.029859943 0.063988395
0.015901422 -0.029860463 0.063165188
0.02550396 -0.029867288 0.064997599
0.036788963 -0.026504057 0.065120086
0.041497808 -0.02231645 0.065084904
-0.040680289 -0.015167976 0.06515573
-0.038444243 -0.015041729 0.064931028
0.039860934 -0.019860089 0.063755423
0.04410392 -0.015201914 0.065028891
-0.040676657 -0.0051144301 0.065255523
-0.038470749 -0.0051116473 0.065134957
0.04657542 -0.0050643636 0.06506528
0.050101321 -0.004078046 0.067407891
-0.040710468 0.0051425467 0.065224342
-0.038470045 0.0049858494 0.065114386
0.046273265 0.0051011448 0.065076239
0.050258927 0.001937896 0.068994515
-0.040670235 0.015162813 0.065052435
-0.038465865 0.01509396 0.064996056
0.039604336 0.019116409 0.065357149
0.043404967 0.01499996 0.06505964
-0.040523935 0.022110863 0.064726338
-0.035661276 0.026011378 0.064971514
-0.025201499 0.029032471 0.064937443
-0.015092929 0.029165812 0.06486769
-0.0052299695 0.029156048 0.065244928
0.0051818294 0.029158037 0.065209366
0.015248427 0.029080424 0.064845659
0.025003023 0.029038925 0.065010764
0.035431784 0.026032377 0.064999104
0.041233052 0.021847295 0.064712338
-0.031738278 0.030519314 0.065076292
-0.024473831 0.030690992 0.064897761
-0.015174624 0.030869683 0.065061107
-0.0049510794 0.030995851 0.06475573
0.0047772289 0.03108244 0.064728588
0.014831536 0.030771656 0.065117016
0.024978131 0.030639414 0.064884976
0.032041766 0.030624291 0.065501086
-0.032648414 -0.031139581 0.07508947
-0.025160342 -0.031538475 0.074964158
-0.014897341 -0.03234287 0.075120911
-0.0051156548 -0.032475431 0.075062335
0.0050920886 -0.032453537 0.075024471
0.015121267 -0.032439709 0.075165652
0.025048617 -0.031664606 0.074882843
0.032489493 -0.031328157 0.075186208
-0.040552787 -0.022911852 0.07500387
-0.037017569 -0.026132675 0.074989758
-0.024606429 -0.029851113 0.075068489
-0.015166108 -0.029860307 0.075167403
-0.0039390814 -0.029884879 0.075258456
0.0040102638 -0.029853057 0.075919427
0.015147162 -0.029875739 0.075922824
0.025731103 -0.029858824 0.075081334
0.03676115 -0.026492463 0.074971169
0.041498624 -0.022171486 0.075029157
-0.040681381 -0.015040169 0.074972264
-0.038493853 -0.015046263 0.075011536
0.039961934 -0.019724309 0.072750106
0.044181213 -0.015021454 0.0749624
-0.040663254 -0.004832352 0.075010568
-0.038513973 -0.0051322873 0.074855849
0.046601515 -0.0050012278 0.074976668
0.050152678 -0.0018805448 0.073087074
-0.040651508 0.0050883414 0.075079851
-0.038507603 0.0049571465 0.07511542
0.046325013 0.0050231451 0.075021207
0.050046459 0.0034504458 0.073379546
-0.040677741 0.014999026 0.074862666
-0.03850146 0.015134644 0.075043969
0.039567225 0.019125972 0.07537172
0.043435346 0.014913626 0.07498423
-0.040556714 0.021827178 0.074859269
-0.035730038 0.025984094 0.074961297
-0.025408009 0.029005844 0.075021349
-0.015278668 0.029192528 0.075340532
-0.0047082459 0.029146438 0.075197801
0.0048264335 0.029180713 0.07526011
0.015173767 0.029120836 0.075181268
0.025126122 0.029026113 0.075004317
0.035452023 0.026028629 0.074948132
0.041244246 0.021640932 0.074974813
-0.031656776 0.030460794 0.075233482
-0.024935106 0.030667046 0.074789785
-0.015077441 0.030819338 0.074696317
-0.0054279151 0.030802144 0.074653663
0.0052339574 0.030845331 0.074760713
0.014538256 0.030839926 0.074853837
0.025037607 0.030621933 0.075031936
0.03199042 0.030556396 0.075102769
-0.032976672 -0.031193461 0.082421727
-0.025136176 -0.031513929 0.08255139
-0.015136208 -0.031722713 0.082412407
-0.0049844966 -0.031758539 0.08239609
0.0052083358 -0.031735487 0.082383357
0.014997913 -0.031720832 0.08250168
0.025022844 -0.03147779 0.082679488
0.032603908 -0.031232221 0.082869381
-0.040722966 -0.023250604 0.082865946
-0.035344314 -0.025184613 0.082507841
-0.02503523 -0.025171844 0.082812473
-0.015068342 -0.025148788 0.082861431
-0.0049973512 -0.025156999 0.082870498
0.0050714514 -0.025206633 0.082849413
0.015001084 -0.025101798 0.082931519
0.025020486 -0.025047924 0.082920745
0.035279445 -0.025246628 0.082826577
0.041514378 -0.022246908 0.082864225
-0.040886458 -0.014972809 0.082721934
-0.035432611 -0.015024653 0.082632124
-0.024985485 -0.015067587 0.082839347
-0.015141588 -0.01500191 0.082895257
-0.0050542629 -0.015142666 0.082911193
0.0048736869 -0.015071508 0.082925305
0.014947908 -0.015068622 0.082927205
0.024999037 -0.014975462 0.082965165
0.034970291 -0.015022092 0.082995512
0.043556675 -0.014766602 0.082828395
-0.040814552 -0.0047976151 0.082677938
-0.03552606 -0.0050609563 0.082566015
-0.024977099 -0.0049990648 0.082861319
-0.015076546 -0.0050549875 0.08281152
-0.0050392104 -0.0050262553 0.082857318
0.0048860656 -0.0050499239 0.082932219
0.015050205 -0.0050582499 0.082889222
0.024959859 -0.0049558296 0.08296968
0.034986161 -0.0049842573 0.082936227
0.044941969 -0.0049946774 0.08277899
0.050098538 -0.0013503291 0.085758626
-0.040849477 0.005008888 0.082678996
-0.035483651 0.005040193 0.082589701
-0.025001189 0.005024944 0.082825184
-0.01505476 0.0050087376 0.082880072
-0.0051343907 0.005093073 0.08284314
0.0050064521 0.0050663529 0.082894929
0.0149771 0.0050247242 0.082908906
0.025022272 0.0050462182 0.082918666
0.03496654 0.0050362414 0.082965925
0.044857051 0.0048352904 0.082797758
-0.040846519 0.014924626 0.082700536
-0.035453752 0.015058234 0.082584888
-0.024995916 0.015035635 0.0828318
-0.01510428 0.015095077 0.08286798
-0.0049830158 0.015067929 0.082867071
0.0049028508 0.015009029 0.082909778
0.01490131 0.01509286 0.082882896
0.024929591 0.015011041 0.082964212
0.035096005 0.015093115 0.082957506
0.043109119 0.014489868 0.082795024
-0.040711906 0.022323184 0.082786866
-0.03482306 0.025135789 0.082512297
-0.025046829 0.025848003 0.082707822
-0.015181586 0.025833901 0.082740523
-0.0049791187 0.025828108 0.082812242
0.0049954187 0.025832765 0.082788862
0.015011011 0.025854465 0.082796738
0.024966238 0.025907986 0.08280991
0.03479331 0.025000941 0.082823507
0.041105982 0.021704849 0.083043754
-0.032715559 0.030492742 0.082935996
-0.025026562 0.030616645 0.082703061
-0.014791869 0.03066548 0.08246614
-0.0053911461 0.030685659 0.082290351
0.0052373852 0.030771555 0.082403407
0.015204008 0.030703714 0.082524039
0.024896683 0.030625435 0.08271803
0.031796746 0.030683167 0.082785316
