# .PCD v0.7 - Point Cloud Data file format
VERSION 0.7
FIELDS x y z
SIZE 4 4 4
TYPE F F F
COUNT 1 1 1
WIDTH 1278
HEIGHT 1
VIEWPOINT 0 0 0 1 0 0 0
POINTS 1278
DATA ascii
-0.094676808 -0.064349733 -0.051073473
-0.084839344 -0.064919025 -0.051405881
-0.075054452 -0.065114088 -0.051804859
-0.06473393 -0.064617053 -0.051727463
-0.054776333 -0.064969927 -0.051710006
-0.044769626 -0.065201245 -0.051739849
-0.034562729 -0.064926445 -0.051748786
-0.024823375 -0.064850107 -0.051767644
-0.015491919 -0.065201797 -0.05164985
-0.0050499346 -0.064865246 -0.051831715
0.0053409552 -0.064925753 -0.051636867
0.015287079 -0.064727008 -0.051827632
0.025385 -0.065001518 -0.051850922
0.034709461 -0.065641575 -0.05168888
0.04510802 -0.065230802 -0.051806536
0.05464562 -0.06534338 -0.05195279
0.065413497 -0.06495709 -0.051835351
0.075321436 -0.06501656 -0.051829871
0.084769398 -0.064846672 -0.051665876
0.094289698 -0.064450078 -0.051332202
0.10255599 -0.065086968 -0.050343309
-0.11035067 -0.05172202 -0.050066914
-0.10329752 -0.054320898 -0.050800592
-0.0946308 -0.054702677 -0.051374916
-0.084990151 -0.054937944 -0.051586386
-0.07502313 -0.055104751 -0.051712751
-0.064961396 -0.054904539 -0.051647749
-0.054773621 -0.054855771 -0.051702462
-0.045061659 -0.055308014 -0.051765904
-0.035131615 -0.054782242 -0.051774666
-0.025086109 -0.054907773 -0.05164969
-0.015179519 -0.055016872 -0.051722351
-0.0050268602 -0.054841094 -0.051866096
0.0054342966 -0.055117533 -0.051735383
0.015240026 -0.054714493 -0.051798109
0.025597604 -0.054937385 -0.05175738
0.034817088 -0.05522101 -0.05171369
0.045275182 -0.054921255 -0.051799797
0.054526031 -0.055277344 -0.051866934
0.065368392 -0.054639045 -0.051690597
0.075256452 -0.054925911 -0.051910937
0.08486294 -0.055003464 -0.051788103
0.094568886 -0.05485484 -0.051510941
0.10376757 -0.054965854 -0.051060978
-0.11203467 -0.044114813 -0.050350983
-0.10372186 -0.044577688 -0.051110379
-0.094471551 -0.044964507 -0.051569145
-0.084975973 -0.04498538 -0.051641393
-0.07515274 -0.045026898 -0.051697679
-0.06501954 -0.04486135 -0.051692288
-0.055112746 -0.044848308 -0.051675234
-0.044730917 -0.045100536 -0.051701773
-0.034816697 -0.044893082 -0.051723134
-0.02496575 -0.044963796 -0.051762938
-0.015414251 -0.045056202 -0.051692061
-0.004961045 -0.045032647 -0.051796317
0.0052415435 -0.04506471 -0.051763117
0.015498408 -0.045095865 -0.051821619
0.025428481 -0.044925936 -0.051847387
0.034633115 -0.044701755 -0.051664449
0.045433231 -0.044619989 -0.05185169
0.054508589 -0.045189198 -0.051945113
0.065334566 -0.045135394 -0.051881649
0.075321324 -0.045053881 -0.051882628
0.084645003 -0.04511901 -0.051786665
0.094763674 -0.045032568 -0.051664267
0.10409417 -0.044546742 -0.051411271
0.11264735 -0.044414684 -0.050833371
-0.11294971 -0.034559663 -0.050633144
-0.10439897 -0.035013225 -0.051407244
-0.094753817 -0.034973685 -0.051597647
-0.0848324 -0.034914996 -0.051676974
-0.07503856 -0.034855712 -0.051775865
-0.064777933 -0.035013162 -0.051747568
-0.054964039 -0.035103746 -0.051734556
-0.045066603 -0.035081476 -0.051817376
-0.034780666 -0.034757309 -0.051837604
-0.02476014 -0.035344407 -0.051754091
-0.015281242 -0.035135359 -0.051615231
-0.0049494649 -0.035129957 -0.051773481
0.0053508664 -0.03472976 -0.051778588
0.015428333 -0.035012878 -0.051710829
0.025948519 -0.034789968 -0.051888209
0.034679532 -0.034774531 -0.051678333
0.045483526 -0.034996524 -0.051891744
0.054615255 -0.03512736 -0.051995903
0.065502219 -0.035139285 -0.051920481
0.075256161 -0.035107888 -0.051783863
0.084793881 -0.034901142 -0.051813256
0.094651759 -0.034935787 -0.051666733
0.10463547 -0.034436047 -0.051667001
0.11326175 -0.033970434 -0.051231869
0.12089688 -0.030530021 -0.050756335
-0.11414557 -0.024873532 -0.050688781
-0.1048006 -0.025022175 -0.051469509
-0.094937004 -0.025165699 -0.051541664
-0.084756486 -0.025023298 -0.0515972
-0.074823186 -0.024900358 -0.05167982
-0.064874522 -0.024939561 -0.051734187
-0.054948721 -0.02499163 -0.051606186
-0.045184817 -0.025024224 -0.051763415
-0.03501996 -0.024800051 -0.051676635
-0.024925377 -0.025114255 -0.051713992
-0.015379915 -0.025255442 -0.051772319
-0.0048445831 -0.024991341 -0.051869906
0.0052681798 -0.024786163 -0.051805619
0.015277476 -0.025047945 -0.051841386
0.025578475 -0.024723873 -0.051826689
0.034655478 -0.02506881 -0.051661871
0.045372304 -0.025209665 -0.051856626
0.054625567 -0.024667414 -0.051813167
0.06545569 -0.024963269 -0.051732771
0.075464278 -0.025175348 -0.051774733
0.084667906 -0.024637496 -0.051913366
0.094723366 -0.025228444 -0.051811635
0.10496678 -0.024590395 -0.051605299
0.11397394 -0.024962572 -0.051488217
0.12153067 -0.023560047 -0.050545797
-0.12103548 -0.014124941 -0.050193597
-0.11410926 -0.015236153 -0.050870225
-0.10497834 -0.015089951 -0.051603254
-0.094986238 -0.015022432 -0.051651519
-0.084998362 -0.01540883 -0.051634938
-0.074983753 -0.014975442 -0.051625833
-0.064996764 -0.014738034 -0.051710628
-0.055143818 -0.015006117 -0.051682968
-0.045088533 -0.014693502 -0.051649611
-0.034962367 -0.014861936 -0.051784515
-0.025107916 -0.014841419 -0.05177135
-0.015646325 -0.014943374 -0.051592078
-0.0048524095 -0.015051178 -0.051765304
0.0055213487 -0.014871861 -0.051869586
0.015340372 -0.015224554 -0.051801391
0.025641581 -0.015250909 -0.051900011
0.034807965 -0.014773617 -0.051633954
0.045376092 -0.015125219 -0.05195434
0.054630566 -0.014741616 -0.051742401
0.065738231 -0.015329959 -0.051781036
0.075423658 -0.015419905 -0.051805057
0.084984399 -0.01434908 -0.051910095
0.09458939 -0.015204201 -0.051773775
0.10517111 -0.014886689 -0.051848404
0.11496443 -0.014381153 -0.051500499
0.12205702 -0.01392632 -0.050427414
-0.12121282 -0.0036628165 -0.050242152
-0.11474068 -0.0052558086 -0.050854586
-0.10500545 -0.0049154125 -0.051503673
-0.094935 -0.005010251 -0.051758464
-0.08520627 -0.0055085239 -0.051664051
-0.075396128 -0.0052117733 -0.05155243
-0.064920314 -0.0049805529 -0.051783618
-0.055191644 -0.0051302859 -0.051736623
-0.045327712 -0.005035494 -0.051686253
-0.034936503 -0.0049950508 -0.051786482
-0.024972962 -0.0051821489 -0.051732652
-0.015141686 -0.0051802103 -0.051704299
-0.0048837145 -0.0052351234 -0.051781662
0.0057229619 -0.0051151537 -0.051784221
0.015388346 -0.0051297918 -0.051711574
0.025829732 -0.0054198559 -0.051859781
0.034357905 -0.0051663984 -0.051726215
0.045560334 -0.0052691419 -0.051913921
0.05445078 -0.0051708934 -0.051902141
0.06559886 -0.0052299248 -0.051827006
0.0753581 -0.0053728968 -0.051773664
0.08446148 -0.0047890265 -0.05189772
0.094495267 -0.0053969198 -0.05173393
0.10481729 -0.0050844839 -0.051719528
0.11533425 -0.0047190012 -0.051230766
0.12194933 -0.0049432963 -0.050730772
-0.12128288 0.0042703776 -0.050174106
-0.11460643 0.004867658 -0.050914451
-0.10506126 0.004827227 -0.051504083
-0.095012553 0.0045948327 -0.051662892
-0.085178174 0.0047926274 -0.051652167
-0.075184815 0.0048998641 -0.051617656
-0.064758122 0.0046520242 -0.051733565
-0.055188976 0.0045677684 -0.051747177
-0.045307513 0.0046310411 -0.051691595
-0.035041399 0.0046868674 -0.051751357
-0.024834188 0.0047047501 -0.051677935
-0.015433419 0.0048410273 -0.05167599
-0.0050735124 0.0047541242 -0.051784102
0.0055668876 0.0047027078 -0.051830605
0.015307161 0.0048620463 -0.051807381
0.025912577 0.0049529709 -0.051836524
0.034551777 0.0048680236 -0.051586498
0.045481272 0.0051228493 -0.051968884
0.054404065 0.004563937 -0.051915862
0.065552674 0.0049260492 -0.051785354
0.075459003 0.0048880214 -0.05184
0.084550239 0.0048156758 -0.051750436
0.094534844 0.0048149503 -0.05179872
0.10509839 0.0047739311 -0.051775828
0.11540717 0.0043546241 -0.051222976
0.12226568 0.0049420632 -0.050716329
-0.12084594 0.014567804 -0.050212052
-0.11442672 0.014928791 -0.050825652
-0.10486987 0.015239985 -0.051622458
-0.094984248 0.014877132 -0.051590163
-0.084997103 0.015337042 -0.051612575
-0.074990176 0.015296035 -0.051610008
-0.064912543 0.014744814 -0.051750768
-0.055012207 0.014969217 -0.051563304
-0.045232154 0.014572528 -0.051741444
-0.035076648 0.01478122 -0.051668491
-0.025239483 0.014791592 -0.051759209
-0.015741328 0.014895972 -0.051633947
-0.0048426599 0.015186596 -0.051705398
0.0052836551 0.014795488 -0.051779423
0.015260577 0.015271977 -0.051782981
0.025468342 0.015047999 -0.051861841
0.034760408 0.015023148 -0.051620364
0.045376025 0.015364515 -0.051886793
0.054568212 0.014704875 -0.051664822
0.06593062 0.015160196 -0.051756881
0.075440191 0.015273775 -0.051803414
0.084839486 0.014531634 -0.051888511
0.094660021 0.015139706 -0.051738657
0.10512263 0.014622783 -0.051840812
0.11502314 0.014404189 -0.051388185
0.12173295 0.014604119 -0.050406206
-0.11435964 0.024770977 -0.050580095
-0.10496105 0.024948375 -0.051471267
-0.094805807 0.025246853 -0.051530499
-0.084555745 0.025135081 -0.051599924
-0.074748568 0.025350135 -0.051645007
-0.0648968 0.024946207 -0.051729832
-0.05494808 0.024989475 -0.051622085
-0.044988412 0.024953116 -0.051787771
-0.035133634 0.02478835 -0.051683187
-0.024920527 0.025098983 -0.051760983
-0.015126687 0.025032677 -0.05173865
-0.0048676305 0.025050236 -0.051915176
0.0052379915 0.024801573 -0.051765621
0.015287852 0.025156556 -0.051814254
0.025595851 0.024820784 -0.051802177
0.034651402 0.02510838 -0.051616117
0.045286488 0.025242072 -0.051829461
0.054520179 0.024791626 -0.051810164
0.065470986 0.024761904 -0.051720377
0.075380214 0.025192562 -0.051783822
0.084565967 0.024671147 -0.051949419
0.094866894 0.025023391 -0.051686518
0.10490181 0.02468952 -0.051783282
0.11433297 0.024338113 -0.051546678
0.12093994 0.024844676 -0.050533295
-0.11293387 0.034406763 -0.050609596
-0.10439817 0.034936946 -0.05135534
-0.094809003 0.035080303 -0.05156013
-0.084725924 0.035218637 -0.051690228
-0.075121604 0.034893166 -0.051742062
-0.064906478 0.035179097 -0.051675841
-0.055023547 0.03509381 -0.051725492
-0.044996768 0.035163544 -0.051764328
-0.034794599 0.034914315 -0.051854797
-0.024823658 0.035159782 -0.051659014
-0.015375698 0.035288792 -0.051658135
-0.0049987687 0.03518945 -0.051802784
0.0053075776 0.034672428 -0.051725388
0.015376805 0.034922916 -0.051766377
0.025844516 0.034957089 -0.051844932
0.034425244 0.035132244 -0.051658995
0.045260943 0.034972198 -0.051855881
0.054433994 0.035212867 -0.052002981
0.065552935 0.034955792 -0.05191531
0.075310685 0.035178319 -0.051849648
0.084803239 0.03506941 -0.05169129
0.094640769 0.034763917 -0.051680513
0.10487365 0.034874409 -0.051563825
0.11353695 0.033888105 -0.051512558
-0.11213258 0.04389384 -0.050344385
-0.10389427 0.044782337 -0.051137522
-0.094617911 0.044950377 -0.051534925
-0.08508984 0.045038428 -0.051662765
-0.074984588 0.045079157 -0.051647183
-0.0650483 0.044917054 -0.051645175
-0.054884505 0.044949222 -0.051678002
-0.044862073 0.044971574 -0.051673993
-0.034904342 0.044985559 -0.051704813
-0.02499418 0.044963632 -0.051703759
-0.015161282 0.04524247 -0.051698986
-0.00497447 0.04497974 -0.051841147
0.0051292507 0.045055594 -0.051681172
0.01543026 0.045077391 -0.051748376
0.025432855 0.044882294 -0.051870637
0.034341607 0.044592828 -0.051684439
0.045129381 0.044605058 -0.051824801
0.054566998 0.045223631 -0.051876716
0.065543875 0.045176361 -0.051854726
0.075319849 0.045077894 -0.051902387
0.084890448 0.04505099 -0.051731188
0.094936982 0.044951588 -0.051765773
0.10420915 0.044936553 -0.051364083
0.11298417 0.043948479 -0.05069213
-0.11030623 0.051891636 -0.050096702
-0.10315689 0.054361667 -0.050815228
-0.094684988 0.054655671 -0.051338341
-0.084865957 0.054915726 -0.051576562
-0.075091965 0.055201024 -0.051754341
-0.064764686 0.054993954 -0.051614255
-0.054834589 0.054878719 -0.051732812
-0.045035157 0.055192493 -0.051759176
-0.035155099 0.054827806 -0.051746886
-0.025042312 0.055032585 -0.051629312
-0.015261238 0.055117659 -0.051702712
-0.0051983339 0.054773491 -0.051826566
0.0052961358 0.0550442 -0.051649112
0.015443669 0.05502459 -0.051805131
0.025538737 0.054794513 -0.051788576
0.034680933 0.055069748 -0.05171448
0.045103174 0.05485234 -0.0517052
0.054480668 0.055381741 -0.051844407
0.065515138 0.054637004 -0.05173143
0.075297624 0.055136982 -0.051892031
0.084837131 0.054961219 -0.051791977
0.09461046 0.054987598 -0.051616341
0.10350611 0.054568872 -0.051055912
-0.10230853 0.063719764 -0.050512236
-0.094694145 0.064307116 -0.051060975
-0.084912144 0.065011494 -0.051455777
-0.074940473 0.065046184 -0.051697634
-0.064798497 0.064748272 -0.051734291
-0.05484264 0.064923413 -0.051650573
-0.04477733 0.06530071 -0.051726662
-0.034598667 0.065200716 -0.051765926
-0.024836153 0.064841062 -0.051769089
-0.015596695 0.065213628 -0.051579736
-0.0050990121 0.065027744 -0.051804714
0.0053333496 0.065299906 -0.051577285
0.015365735 0.064616598 -0.051727206
0.025414869 0.065128945 -0.051791441
0.03445863 0.065811656 -0.051749509
0.044903208 0.065104164 -0.051736806
0.054632757 0.065543719 -0.05199169
0.065388069 0.064890102 -0.051852174
0.075414747 0.065131269 -0.051853493
0.084583007 0.065117598 -0.05154267
0.09429343 0.064538255 -0.051384017
0.10278029 0.063413545 -0.050551794
-0.094272971 0.073968962 -0.050662816
-0.084457584 0.074916333 -0.051227082
-0.074744865 0.074957445 -0.051522575
-0.064957634 0.074685 -0.051629167
-0.055078812 0.075260542 -0.051707026
-0.045044683 0.075223982 -0.051667582
-0.034945242 0.075221628 -0.051649284
-0.025137555 0.075293005 -0.05164212
-0.015465372 0.075040199 -0.051735979
-0.00509525 0.075113833 -0.05188245
0.0050856988 0.075135238 -0.051842202
0.015313335 0.074813083 -0.051814713
0.025220199 0.075073436 -0.051826838
0.034718245 0.075376444 -0.051569827
0.045160677 0.075061239 -0.05180566
0.054468781 0.07539019 -0.051964518
0.065307029 0.07532768 -0.051737949
0.07519979 0.074853234 -0.051713914
0.084282145 0.074542038 -0.051502805
0.094202384 0.073615208 -0.050993517
-0.090164661 0.080079347 -0.050225586
-0.084175527 0.084010527 -0.050736826
-0.07487084 0.084765047 -0.051107712
-0.064952217 0.08464954 -0.051514376
-0.054907396 0.08490508 -0.051637363
-0.045081716 0.085176155 -0.051741309
-0.035125293 0.085269667 -0.051824253
-0.025083128 0.08507698 -0.0517185
-0.015412396 0.084927291 -0.051703181
-0.0050440021 0.085128486 -0.051856961
0.0049677123 0.085175209 -0.051654298
0.01521323 0.08492256 -0.051761471
0.025182275 0.084807664 -0.051870946
0.034523442 0.084833533 -0.051666744
0.044863444 0.084973119 -0.051804252
0.05474294 0.08510381 -0.051828582
0.064982064 0.084769569 -0.051643025
0.0748358 0.084377751 -0.051459525
0.084039241 0.083286881 -0.050954115
0.093144238 0.081530839 -0.05022797
-0.080189914 0.090672523 -0.050460782
-0.074019618 0.093613699 -0.050662752
-0.064646095 0.094005488 -0.051063683
-0.055020023 0.094726913 -0.051331129
-0.044933632 0.094935864 -0.051588263
-0.034998477 0.094831556 -0.051660258
-0.024903271 0.094824001 -0.051632907
-0.015356966 0.095204107 -0.051644955
-0.0050963364 0.094928056 -0.051732391
0.0050347922 0.095086604 -0.051706057
0.015128293 0.094961345 -0.051683329
0.025155636 0.094908848 -0.051858235
0.034450013 0.095168576 -0.051676109
0.044779401 0.094665073 -0.05164304
0.054446604 0.094716035 -0.05161377
0.064783268 0.094311476 -0.05121506
0.07340996 0.09296196 -0.050671931
-0.062819868 0.10230812 -0.050568674
-0.054832894 0.10379503 -0.05071456
-0.045141768 0.10442728 -0.051233038
-0.034588393 0.10460546 -0.05139393
-0.024951244 0.10469981 -0.051459298
-0.015211998 0.10530494 -0.051613037
-0.0050860131 0.10458339 -0.051738542
0.0050326651 0.10492175 -0.051651619
0.01501682 0.10505055 -0.051645804
0.02517443 0.10469298 -0.051620223
0.034897726 0.10502075 -0.051336028
0.044868257 0.10424795 -0.051413093
0.053912487 0.1047722 -0.051006384
0.064236306 0.10251207 -0.050544046
-0.050836116 0.11039716 -0.050145883
-0.04448076 0.11195219 -0.050491314
-0.034332734 0.11278113 -0.050818235
-0.024180617 0.11395032 -0.050925106
-0.015403542 0.11428198 -0.051091239
-0.0048738699 0.11416291 -0.051180702
0.0049988637 0.11421444 -0.051287334
0.015402395 0.11458301 -0.051066861
0.025597813 0.1133222 -0.051130313
0.0347948 0.11303242 -0.050815385
0.043880444 0.11308943 -0.050421815
-0.020694196 0.12045434 -0.050455451
-0.014252946 0.12096601 -0.050460249
-0.0022847392 0.12144402 -0.050363004
0.0036441148 0.12120414 -0.05066609
0.012126322 0.12156933 -0.050404835
-0.042238399 -0.13108054 -0.04092893
-0.033624344 -0.13207421 -0.041402683
-0.024485717 -0.13276987 -0.041835189
-0.015161122 -0.13318905 -0.042382572
-0.0049213278 -0.13346326 -0.042568669
0.004870865 -0.13321579 -0.042558946
0.01440514 -0.13307337 -0.042225748
0.024526548 -0.13270099 -0.04234511
0.034247853 -0.13200703 -0.041679166
0.040691882 -0.13264354 -0.04041668
-0.070224524 -0.12011348 -0.040096939
-0.062672749 -0.12167971 -0.041035313
-0.054236375 -0.12265415 -0.042248193
-0.044816595 -0.1241638 -0.042959455
-0.035153896 -0.1247566 -0.043660127
-0.025026869 -0.12472943 -0.044420112
-0.014958264 -0.12460761 -0.044913359
-0.0050644358 -0.12485237 -0.045034833
0.0050063604 -0.12488696 -0.044946559
0.014994933 -0.12497434 -0.044627141
0.025087092 -0.12450276 -0.044378627
0.034712337 -0.12432566 -0.043826025
0.044518668 -0.12381887 -0.042876717
0.053974543 -0.12332378 -0.041840948
0.063014023 -0.12122767 -0.041597776
0.07183221 -0.120056 -0.040554434
-0.082254797 -0.11129031 -0.040359646
-0.073841386 -0.11325143 -0.04183647
-0.064788923 -0.11438031 -0.043109402
-0.054875299 -0.11499456 -0.044458061
-0.044998791 -0.11498673 -0.045725912
-0.035228159 -0.11528651 -0.04630775
-0.025211023 -0.11535922 -0.046668321
-0.014871928 -0.11502177 -0.046841674
-0.0049741389 -0.11503784 -0.047157306
0.0050571011 -0.11542916 -0.046879213
0.015175552 -0.11523369 -0.046831261
0.025007183 -0.11528715 -0.046489779
0.034881782 -0.11526611 -0.046165995
0.044694267 -0.11472889 -0.045413412
0.05492872 -0.11460646 -0.044286415
0.064738423 -0.11396906 -0.043128669
0.073955983 -0.11305053 -0.041801326
0.082385346 -0.11137163 -0.040601436
-0.092177935 -0.10195723 -0.040808156
-0.083977535 -0.10371357 -0.042700209
-0.074744955 -0.10487929 -0.044247918
-0.065119028 -0.10521114 -0.045691889
-0.055029202 -0.10539281 -0.046533771
-0.044961262 -0.10500416 -0.047001537
-0.035146795 -0.10511865 -0.047435101
-0.025131037 -0.10543511 -0.047356103
-0.015082399 -0.10543339 -0.047483876
-0.0049089105 -0.10533364 -0.047447976
0.0051666996 -0.1050517 -0.047516476
0.015046613 -0.10521792 -0.047455542
0.024698535 -0.10543181 -0.047435604
0.035008721 -0.10542864 -0.047228534
0.045048933 -0.10565305 -0.047096234
0.054914165 -0.10560657 -0.046291038
0.064812817 -0.10509094 -0.045194697
0.074799396 -0.10467262 -0.04381036
0.08378654 -0.1038138 -0.042431735
0.092251867 -0.10158768 -0.041340243
-0.10179472 -0.091931574 -0.041242693
-0.094324142 -0.094194718 -0.042641751
-0.084784202 -0.095049903 -0.044501908
-0.075100504 -0.095261343 -0.046278324
-0.065131865 -0.095287442 -0.047035165
-0.054885276 -0.095274083 -0.047578078
-0.045010995 -0.094817623 -0.04740227
-0.035107359 -0.094853483 -0.047783777
-0.025206715 -0.095092118 -0.047557775
-0.01498687 -0.095113464 -0.047739122
-0.005000669 -0.095036976 -0.047688521
0.0052795056 -0.094860256 -0.047685705
0.015172369 -0.095180318 -0.047777183
0.024823535 -0.094729297 -0.047723815
0.03475453 -0.095026493 -0.047518469
0.044567145 -0.09510123 -0.047760598
0.054731444 -0.095118828 -0.047282372
0.065190829 -0.095248826 -0.046805251
0.075034343 -0.095038511 -0.045764782
0.084803797 -0.094724 -0.044148415
0.094225965 -0.094138823 -0.04248907
0.10253099 -0.091428891 -0.041905608
-0.11096697 -0.082225204 -0.040494658
-0.10385713 -0.084423006 -0.042322811
-0.094976306 -0.084725112 -0.044487409
-0.085063688 -0.085064724 -0.046569053
-0.075258188 -0.085127003 -0.047366429
-0.065086044 -0.085054338 -0.047439456
-0.054753963 -0.085357174 -0.047571983
-0.044803344 -0.084821716 -0.047506619
-0.035043117 -0.084686935 -0.047583722
-0.024931477 -0.084980324 -0.047430679
-0.015113391 -0.084881835 -0.04769424
-0.0049766237 -0.084817663 -0.047476802
0.0051564588 -0.085128084 -0.047561653
0.015131664 -0.084923707 -0.04757686
0.024639111 -0.084735841 -0.0476279
0.034835141 -0.084860876 -0.047469713
0.044820976 -0.084956571 -0.047932204
0.054892622 -0.084888257 -0.047713142
0.064911187 -0.084962837 -0.047578875
0.075123139 -0.084890038 -0.047061309
0.085161187 -0.085089445 -0.046094008
0.094604142 -0.084786259 -0.044089776
0.10370767 -0.084093854 -0.042577945
0.11107897 -0.081925206 -0.041231886
-0.11285584 -0.073695913 -0.041951064
-0.10488563 -0.074789144 -0.044181291
-0.095161848 -0.074946657 -0.046447325
-0.085110731 -0.075175934 -0.04713675
-0.074964441 -0.075292923 -0.04746858
-0.064876854 -0.075308196 -0.047381386
-0.054719031 -0.07516256 -0.047459893
-0.045083255 -0.074912652 -0.047541101
-0.035090882 -0.074957959 -0.047530845
-0.024977569 -0.075016156 -0.047489226
-0.015022539 -0.075357147 -0.047518592
-0.0051095751 -0.075066432 -0.047589362
0.0052012065 -0.075213559 -0.047550008
0.015106069 -0.075244695 -0.047630716
0.024812592 -0.075110726 -0.047767017
0.034953099 -0.075007141 -0.04745334
0.044974763 -0.075344048 -0.047883589
0.054609068 -0.075070105 -0.047600769
0.064662024 -0.075134046 -0.047584116
0.074808739 -0.075232796 -0.047547836
0.08489538 -0.074993096 -0.047199838
0.095356293 -0.075093232 -0.045541581
0.10489716 -0.074812993 -0.043546978
0.11300564 -0.073420204 -0.042227335
0.12134373 -0.070555702 -0.040655196
-0.1217858 -0.062720731 -0.041228533
-0.114802 -0.064713225 -0.043223076
-0.1052028 -0.064898558 -0.045779467
-0.095351517 -0.065037653 -0.047241088
-0.085221246 -0.064987808 -0.047551278
-0.074921668 -0.065282471 -0.047648389
-0.064938046 -0.065010726 -0.047623191
-0.054633979 -0.065022908 -0.047733318
-0.044760641 -0.065078437 -0.047676716
-0.034928992 -0.065427221 -0.047782291
-0.024864892 -0.06518589 -0.047590796
-0.015277444 -0.065323748 -0.047677942
-0.0049862307 -0.064877413 -0.047591556
0.0052511515 -0.065198079 -0.047635987
0.01507064 -0.065307304 -0.047659393
0.024571778 -0.065172888 -0.047765099
0.035003185 -0.064941324 -0.047344994
0.04496301 -0.065444216 -0.04777585
0.054556366 -0.065611154 -0.04757525
0.064607233 -0.065104634 -0.047579471
0.074872181 -0.065124273 -0.047605056
0.085179202 -0.065143846 -0.047447875
0.095433749 -0.065377131 -0.046866611
0.10490979 -0.065052122 -0.044987898
0.11393358 -0.06473586 -0.043226365
0.12181018 -0.063434228 -0.041294266
-0.12318882 -0.054334763 -0.042292956
-0.11504695 -0.054631352 -0.044660736
-0.10548094 -0.055292968 -0.046769366
-0.095232613 -0.054979879 -0.047589842
-0.084971964 -0.054980412 -0.047440834
-0.074892305 -0.055119913 -0.047401473
-0.064962201 -0.055133916 -0.047554243
-0.05491529 -0.055171434 -0.047486991
-0.04500892 -0.05493376 -0.047480758
-0.034603965 -0.05531418 -0.047630902
-0.024840405 -0.055216249 -0.047407422
-0.015089643 -0.05506115 -0.04752693
-0.0051239491 -0.054947913 -0.047511294
0.0053973175 -0.055027436 -0.047537312
0.015356762 -0.055285286 -0.047547348
0.024658559 -0.054758787 -0.047679015
0.034835245 -0.054675009 -0.047441985
0.044976652 -0.054983754 -0.04788439
0.054600485 -0.055135764 -0.047716971
0.064744577 -0.054844838 -0.047644485
0.074968591 -0.055124961 -0.047658663
0.08498551 -0.05496081 -0.04772849
0.0953371 -0.055348516 -0.047392752
0.10505627 -0.0550966 -0.046099663
0.11463214 -0.055073868 -0.044293489
0.12314745 -0.054170098 -0.042438343
0.13077743 -0.05059164 -0.041290298
-0.13113444 -0.043712713 -0.040591292
-0.12457079 -0.044978656 -0.042814802
-0.11524679 -0.044927455 -0.045887042
-0.10560457 -0.045118388 -0.047062293
-0.095286392 -0.045025826 -0.047595646
-0.085172087 -0.04526829 -0.047476817
-0.075101815 -0.045140699 -0.047525734
-0.065029584 -0.044949908 -0.047562115
-0.054676443 -0.045193821 -0.047569443
-0.045091879 -0.04501304 -0.047412969
-0.035152514 -0.045089316 -0.047579028
-0.025049604 -0.045132045 -0.047491275
-0.015187858 -0.045022365 -0.047576193
-0.0050338814 -0.044963185 -0.047557633
0.0051153824 -0.044973671 -0.047576502
0.015118896 -0.045222566 -0.047500733
0.024713321 -0.044992495 -0.047704015
0.034956966 -0.04503227 -0.047348499
0.045038126 -0.044747155 -0.047857869
0.0547015 -0.044825759 -0.04763652
0.064699776 -0.044904362 -0.047641091
0.074776739 -0.045166258 -0.047670387
0.08500807 -0.045143351 -0.047885157
0.095137849 -0.045061439 -0.047648355
0.10521218 -0.045058642 -0.046867702
0.11496066 -0.04489018 -0.04515101
0.12384033 -0.044672884 -0.042829968
0.13120492 -0.044429719 -0.041133802
-0.13214462 -0.034112312 -0.041465547
-0.12483306 -0.034855604 -0.043969229
-0.11538539 -0.034946475 -0.046552058
-0.10541555 -0.035022702 -0.047305927
-0.095120497 -0.034877393 -0.047615744
-0.08525975 -0.035175011 -0.047552373
-0.07515651 -0.035002064 -0.047644809
-0.065105371 -0.034953687 -0.047642298
-0.054765422 -0.035113204 -0.047636803
-0.045059334 -0.035184756 -0.047545809
-0.034863446 -0.035104845 -0.04778143
-0.025050012 -0.03510917 -0.047310639
-0.015344633 -0.035057548 -0.047575977
-0.0050674258 -0.0350601 -0.0477194
0.005203689 -0.035099167 -0.047437984
0.015165331 -0.035252877 -0.047511488
0.02463791 -0.035353012 -0.047561623
0.034852501 -0.035376422 -0.047396321
0.044999633 -0.035335362 -0.047788959
0.054357003 -0.034857638 -0.047478478
0.064772211 -0.034928635 -0.047446668
0.074928477 -0.035102557 -0.04753688
0.085151806 -0.034987178 -0.047683388
0.094932012 -0.035238236 -0.047712743
0.10492269 -0.035027601 -0.047226194
0.11529986 -0.034795351 -0.045961872
0.12437628 -0.034803897 -0.043585807
0.13243403 -0.034472711 -0.042197157
-0.13256004 -0.024600416 -0.041932017
-0.12475684 -0.024817932 -0.044673651
-0.11522132 -0.024758706 -0.047111072
-0.10531882 -0.025016226 -0.047511466
-0.095130607 -0.024774959 -0.047611088
-0.085006006 -0.024582183 -0.047454044
-0.075048991 -0.02492599 -0.047604233
-0.064909995 -0.024979841 -0.047646482
-0.05498603 -0.024943557 -0.0475295
-0.045188557 -0.024940826 -0.0476484
-0.034945153 -0.024753595 -0.047695156
-0.025119206 -0.024983183 -0.047375888
-0.01516469 -0.024810957 -0.047600653
-0.0048713051 -0.02494674 -0.047540024
0.0053102002 -0.024875658 -0.047379021
0.01485267 -0.024972519 -0.047634117
0.024648091 -0.024947552 -0.047766719
0.034914948 -0.025144842 -0.047415793
0.04484928 -0.025118664 -0.047895644
0.054445915 -0.024934286 -0.047625147
0.064598754 -0.024993824 -0.047496159
0.075023443 -0.025007542 -0.047553219
0.085122868 -0.024837147 -0.047727026
0.094971798 -0.025091179 -0.047764383
0.10506582 -0.024993094 -0.047458526
0.11549395 -0.025152652 -0.046435367
0.12482748 -0.024825726 -0.04402126
0.13275936 -0.024410017 -0.042308368
-0.13335715 -0.014647911 -0.042322256
-0.12484391 -0.014942796 -0.045389544
-0.11537235 -0.015092291 -0.047206745
-0.10519848 -0.014967669 -0.047658011
-0.095278181 -0.01482621 -0.047509413
-0.08507207 -0.015060028 -0.047403812
-0.074918412 -0.015288898 -0.04750713
-0.065017216 -0.01530938 -0.047387183
-0.054992285 -0.014828664 -0.047391903
-0.044874977 -0.015326071 -0.047481813
-0.035030253 -0.015070016 -0.047711007
-0.025145477 -0.015035 -0.047216516
-0.015631789 -0.01478438 -0.047678467
-0.0051235938 -0.015093273 -0.047565062
0.0052057412 -0.015112618 -0.047327414
0.015013764 -0.015086221 -0.047521375
0.024824964 -0.014992572 -0.04764048
0.034941185 -0.01512342 -0.047434803
0.044929314 -0.015291831 -0.04790638
0.054359064 -0.015121797 -0.047662139
0.06441915 -0.015124997 -0.04744624
0.074797086 -0.015210459 -0.047547817
0.085070848 -0.014818143 -0.047667302
0.094959959 -0.015079454 -0.047847949
0.10528935 -0.014932644 -0.047374848
0.11550141 -0.015162248 -0.046691269
0.12482996 -0.015131457 -0.044457551
0.13265288 -0.014937592 -0.042900823
0.1401066 -0.015832229 -0.040572464
-0.14027441 -0.00048726797 -0.040295154
-0.13366646 -0.004819904 -0.042374067
-0.12487467 -0.0052003148 -0.04547916
-0.11558214 -0.0052535036 -0.047231052
-0.10585545 -0.0049538901 -0.047580004
-0.095519409 -0.0049982797 -0.047419634
-0.08528024 -0.0050059124 -0.047527689
-0.074871227 -0.0053088274 -0.047640033
-0.06477917 -0.005249308 -0.047503147
-0.055100378 -0.0048245504 -0.047513958
-0.044822522 -0.0053408621 -0.047572624
-0.034941014 -0.0051807868 -0.047579363
-0.02523564 -0.0049086949 -0.047217935
-0.015478667 -0.0051009036 -0.047741771
-0.0052391766 -0.0053681438 -0.047627404
0.0050540529 -0.0051629343 -0.047332123
0.014853152 -0.0049838712 -0.047558039
0.024606919 -0.0049324781 -0.047689669
0.034782954 -0.0051738154 -0.047385108
0.044902474 -0.0051491489 -0.047819607
0.054119427 -0.005296099 -0.047472477
0.064524174 -0.0051112399 -0.047463555
0.074923471 -0.004956211 -0.047634445
0.085204035 -0.0049495259 -0.047701851
0.094897419 -0.0050096624 -0.047760718
0.10508373 -0.005089018 -0.04752956
0.11564504 -0.0051951837 -0.046799373
0.1251201 -0.0053034523 -0.044494379
0.13299073 -0.0051643285 -0.042811695
0.14064053 -0.0047430024 -0.040201109
-0.13359365 0.0045691826 -0.042468827
-0.12507248 0.0050261035 -0.045434386
-0.11538992 0.0046274764 -0.047305066
-0.10551856 0.0046511688 -0.047597781
-0.095444448 0.0045720413 -0.047497544
-0.085197449 0.004787121 -0.047543973
-0.074867435 0.0047223433 -0.047723252
-0.064663291 0.0050314232 -0.047452811
-0.055231899 0.0048245443 -0.047509752
-0.044881981 0.0049104732 -0.047583308
-0.034856033 0.0048375949 -0.047529887
-0.025232526 0.0047593443 -0.047266144
-0.015418971 0.0047867824 -0.04769665
-0.0050094612 0.0050055515 -0.047614802
0.005201627 0.0049945153 -0.047359295
0.014819942 0.0048611122 -0.047540292
0.02468136 0.0047341431 -0.047766857
0.034806192 0.0048342566 -0.047372248
0.044981703 0.0050889323 -0.047797032
0.054215048 0.0048700697 -0.047478907
0.064616181 0.0048574917 -0.047453243
0.074907973 0.0047997008 -0.047625419
0.085210383 0.0047699013 -0.047676388
0.094840094 0.0049460707 -0.047830921
0.10515819 0.0047992002 -0.047510076
0.11554324 0.0049279821 -0.04685333
0.1250765 0.0049951402 -0.044502232
0.13291599 0.004865 -0.042863056
0.14048374 0.0049502924 -0.040430844
-0.13336016 0.014511186 -0.042287633
-0.12487712 0.015039952 -0.045387872
-0.11543025 0.015088878 -0.047164433
-0.10514714 0.014896993 -0.04749687
-0.095129378 0.01473295 -0.047512684
-0.085124508 0.014920554 -0.047534544
-0.074914731 0.015298658 -0.047589131
-0.064898811 0.015412913 -0.047390334
-0.054996289 0.015009029 -0.047391623
-0.044827901 0.015489423 -0.047674373
-0.03499265 0.015177702 -0.047505409
-0.025115278 0.014852793 -0.047195069
-0.015261904 0.014927449 -0.047747396
-0.0051036589 0.01525406 -0.047599118
0.0051552616 0.015183927 -0.047363989
0.014913166 0.01510839 -0.047589123
0.024767471 0.015125759 -0.04762977
0.035029288 0.015046372 -0.047411114
0.044946488 0.015448776 -0.047885384
0.054437753 0.015114211 -0.047667533
0.064366624 0.015043858 -0.047457583
0.074781545 0.015274403 -0.047601115
0.085035831 0.014904979 -0.047592398
0.094878554 0.015024883 -0.047897577
0.10527191 0.014971722 -0.047453679
0.11545596 0.015066977 -0.04663277
0.12488665 0.015157956 -0.044517294
0.13249493 0.015098138 -0.042753667
0.14005481 0.015829893 -0.040668607
-0.13272902 0.024441693 -0.041886974
-0.12481667 0.02480243 -0.044698324
-0.11526857 0.02496697 -0.047021899
-0.105321 0.025122095 -0.047466185
-0.095194347 0.024747685 -0.047537241
-0.085180916 0.024545653 -0.047432981
-0.074910574 0.025018062 -0.047515471
-0.064935207 0.025031954 -0.047560334
-0.055020642 0.025065161 -0.04751065
-0.045010403 0.025184989 -0.047525533
-0.034779359 0.024807226 -0.047837906
-0.025252962 0.024863165 -0.047277041
-0.015748205 0.024667783 -0.047737602
-0.0051957616 0.024902986 -0.047490243
0.0052617835 0.024925059 -0.04737718
0.014932826 0.024985412 -0.047554385
0.024685269 0.025107685 -0.047607023
0.034991637 0.025193205 -0.047414836
0.045002662 0.025251424 -0.047804195
0.054565437 0.024962123 -0.047651861
0.064738944 0.025300283 -0.047457002
0.075068817 0.025008224 -0.047520835
0.085159533 0.0247816 -0.04766446
0.094904266 0.025067709 -0.047770385
0.10496907 0.025113532 -0.047454853
0.11555462 0.025172133 -0.046443332
0.12480609 0.024818279 -0.044016562
0.13257369 0.02474373 -0.042307638
-0.13203044 0.034044467 -0.041614123
-0.1248164 0.034754969 -0.043995764
-0.11542758 0.034939647 -0.046554577
-0.10554265 0.035134014 -0.047321796
-0.095186986 0.035018064 -0.047602408
-0.085133813 0.034809086 -0.047485139
-0.075104572 0.034898173 -0.047688756
-0.064963751 0.034728091 -0.047698043
-0.054889277 0.035073198 -0.047569036
-0.045213893 0.034999974 -0.047599677
-0.034984201 0.034861472 -0.047810111
-0.025279785 0.034864496 -0.047305465
-0.015420817 0.034871772 -0.047657385
-0.0049062916 0.035004597 -0.047686819
0.0052646617 0.034933031 -0.047356449
0.015087476 0.035083842 -0.047541305
0.024665182 0.035164207 -0.047610816
0.034903005 0.035158463 -0.047293793
0.045225438 0.0350793 -0.047738966
0.0546044 0.034755062 -0.047501769
0.064623728 0.035064917 -0.047449723
0.074861459 0.034767017 -0.047571253
0.085057065 0.034893952 -0.047604389
0.094959497 0.035168312 -0.047802404
0.10488991 0.035076384 -0.047234863
0.11544141 0.034854446 -0.045936681
0.12454486 0.034758262 -0.043463398
0.13270444 0.034570221 -0.041895531
-0.13125616 0.043312754 -0.040611178
-0.12459521 0.044895884 -0.042821903
-0.11523822 0.045042168 -0.045915775
-0.10556559 0.045120496 -0.047171101
-0.095349565 0.044926971 -0.047546912
-0.08494667 0.045079641 -0.047517035
-0.075114027 0.044939809 -0.047542371
-0.065250307 0.04492823 -0.047516901
-0.054712832 0.04506423 -0.047536753
-0.045079447 0.044931434 -0.047396742
-0.035135258 0.044969309 -0.047448043
-0.02499971 0.044993263 -0.047436874
-0.015081177 0.045160096 -0.047592573
-0.0050759222 0.044881709 -0.04763563
0.0051722773 0.045040015 -0.047425594
0.015128686 0.044918057 -0.047566704
0.024678746 0.045013882 -0.047716431
0.034929141 0.044826832 -0.047399115
0.045107257 0.044687204 -0.047750518
0.054692023 0.044630848 -0.047577191
0.064641245 0.044775948 -0.047705501
0.074759334 0.044944391 -0.04762898
0.084858552 0.045107219 -0.047876198
0.095141694 0.044938117 -0.047781982
0.10527831 0.045129504 -0.046909146
0.11496941 0.044929769 -0.045145195
0.12394188 0.044509836 -0.042917341
0.13137379 0.044917513 -0.04131243
-0.13015467 0.05132591 -0.040659457
-0.12329204 0.054357067 -0.042264946
-0.11498206 0.054790571 -0.04463901
-0.10541041 0.055263072 -0.046844717
-0.095358603 0.054970525 -0.047529265
-0.085194297 0.054837901 -0.04750672
-0.075025 0.054976556 -0.047410622
-0.064863995 0.054975778 -0.047485378
-0.054797906 0.055159409 -0.047530208
-0.045029845 0.054962933 -0.047473677
-0.034889471 0.055140425 -0.047632325
-0.025116306 0.055002045 -0.047418509
-0.015152449 0.055263761 -0.047559969
-0.0050764517 0.054829199 -0.047559049
0.0052272468 0.05507252 -0.047423873
0.014939982 0.055003826 -0.047603358
0.024529597 0.054690436 -0.047717813
0.034918297 0.054714181 -0.04747979
0.044982098 0.054830253 -0.047904018
0.054592408 0.055065274 -0.047772638
0.06480328 0.054637473 -0.047681559
0.075087674 0.054942094 -0.047600493
0.085061736 0.055148754 -0.047624614
0.095279492 0.055233836 -0.047432516
0.10519879 0.055242911 -0.046118859
0.11474853 0.055049565 -0.044343341
0.12337363 0.05384542 -0.042514261
-0.12171601 0.062875658 -0.041275132
-0.11488309 0.064755127 -0.043164924
-0.10514694 0.064831302 -0.0458198
-0.095319189 0.065063536 -0.047197405
-0.085251011 0.065124243 -0.04751749
-0.074774481 0.064950913 -0.047644265
-0.065033384 0.064974576 -0.047729876
-0.054746572 0.065010168 -0.047715113
-0.044971067 0.064921051 -0.047654517
-0.034844734 0.065209121 -0.047769226
-0.024855968 0.065114789 -0.04757544
-0.015174932 0.06529738 -0.047696128
-0.0048035826 0.064722039 -0.047612339
0.0054124086 0.064861692 -0.047487438
0.014846944 0.065360315 -0.047616083
0.024466962 0.064960308 -0.047774009
0.034896597 0.064892478 -0.047386486
0.04500049 0.065257162 -0.047697309
0.054594416 0.065476447 -0.047555845
0.064742558 0.064922787 -0.047590334
0.074664302 0.065077737 -0.047564697
0.085118376 0.065094754 -0.047491044
0.095384456 0.065425657 -0.046953425
0.10495361 0.06507279 -0.045025665
0.11383957 0.064945504 -0.043271158
0.12193666 0.063797913 -0.041556515
-0.1127547 0.073837236 -0.04205253
-0.10483585 0.074828967 -0.044289377
-0.095156968 0.074993454 -0.046560161
-0.085066788 0.07529293 -0.047337364
-0.074966155 0.075271361 -0.047494888
-0.064881608 0.075181827 -0.047445759
-0.054821 0.075108692 -0.047456767
-0.045066964 0.075072668 -0.047565237
-0.034909047 0.074814655 -0.047575183
-0.024759168 0.075018004 -0.047479488
-0.015097493 0.075439408 -0.047469594
-0.0050702919 0.074822791 -0.047560666
0.0052349456 0.075041868 -0.047437035
0.014996126 0.075564474 -0.047504563
0.024660408 0.075125828 -0.047759023
0.035057448 0.074983165 -0.047396958
0.045054238 0.075259492 -0.047800198
0.054647684 0.0750053 -0.047635905
0.064611427 0.075094938 -0.047632854
0.074830122 0.075248055 -0.047590975
0.084897771 0.075120755 -0.047113262
0.095305793 0.07515385 -0.045648865
0.10478157 0.074720226 -0.043660451
0.11327179 0.073973574 -0.041989848
0.12097683 0.071736909 -0.040597465
-0.11087228 0.082089879 -0.04053992
-0.10402022 0.084474504 -0.042341121
-0.094912127 0.084669299 -0.044571541
-0.0851475 0.085111156 -0.046573624
-0.075267002 0.085121475 -0.047255415
-0.06519112 0.085245647 -0.04749525
-0.054907233 0.085399039 -0.047533493
-0.044845607 0.084805056 -0.047500785
-0.035123836 0.084684521 -0.047629818
-0.024960475 0.084854841 -0.047446258
-0.01505714 0.084978662 -0.047607705
-0.0049788388 0.084928848 -0.047546916
0.0052369297 0.085033916 -0.047520157
0.015031969 0.084981591 -0.047673255
0.024631958 0.084731981 -0.047690295
0.035049736 0.084955119 -0.047498655
0.044985991 0.085026376 -0.047891777
0.054758597 0.084704556 -0.047701705
0.064928524 0.085097425 -0.047558904
0.075088516 0.084980629 -0.047043484
0.085088171 0.085122637 -0.046040457
0.094653741 0.08479742 -0.0441259
0.10372953 0.084209263 -0.042687085
0.11121098 0.082361639 -0.041262347
-0.10175305 0.09198115 -0.041342728
-0.094306007 0.094291538 -0.042695049
-0.084781788 0.095076814 -0.044597115
-0.075085044 0.09524443 -0.046364494
-0.065074943 0.095407471 -0.047129221
-0.054791659 0.09525644 -0.047537912
-0.045097869 0.094940148 -0.047425114
-0.035023492 0.094956823 -0.047740743
-0.02502848 0.095202684 -0.047579873
-0.015015172 0.095253222 -0.047721133
-0.0050926805 0.094886817 -0.047619857
0.0050353133 0.095035143 -0.047648821
0.015014625 0.095107324 -0.047673751
0.02459632 0.094890237 -0.047755968
0.034851503 0.094953731 -0.047478113
0.044736762 0.095145687 -0.047728099
0.054795336 0.095062383 -0.047278348
0.065266445 0.09528473 -0.046716861
0.075133756 0.095144287 -0.045743857
0.084916525 0.094797283 -0.044315904
0.09432584 0.094059981 -0.042662013
0.10319553 0.091256887 -0.041772
-0.092133336 0.10215037 -0.040843982
-0.084041245 0.10382481 -0.042726278
-0.074780688 0.10481556 -0.044255227
-0.065076731 0.10525385 -0.045731906
-0.055022787 0.10536318 -0.046628147
-0.045020126 0.10516819 -0.047047351
-0.035215888 0.10527487 -0.047417536
-0.025147773 0.10541718 -0.047368806
-0.01516366 0.10545663 -0.047544301
-0.0049224151 0.10515597 -0.047438957
0.0051647038 0.10510352 -0.047570478
0.01506383 0.10522918 -0.047561683
0.024881827 0.10538263 -0.047518436
0.035158716 0.10529907 -0.047204241
0.045120385 0.10570294 -0.047137808
0.055008598 0.1056954 -0.046277508
0.064962447 0.1052531 -0.045204952
0.074749745 0.10476233 -0.043943878
0.084034763 0.10379093 -0.04257527
0.092785053 0.10211222 -0.041027989
-0.081875339 0.11145137 -0.040594205
-0.073804036 0.11348788 -0.041863803
-0.06475316 0.11446685 -0.043232471
-0.054801401 0.11481074 -0.044551849
-0.045024954 0.11496846 -0.045804545
-0.035295714 0.11525277 -0.046335995
-0.025144836 0.1152774 -0.046761505
-0.014957693 0.11509264 -0.04679032
-0.0050413352 0.11500578 -0.047129076
0.0050036646 0.11526851 -0.046940405
0.015215363 0.11538181 -0.046745196
0.024868038 0.11520475 -0.046591561
0.034773372 0.11531503 -0.046300642
0.044674519 0.11484859 -0.045392513
0.054780398 0.11471934 -0.044396397
0.064534634 0.11407432 -0.043155652
0.073948853 0.11322554 -0.042017382
0.082590424 0.11178204 -0.040766127
-0.070506334 0.12021589 -0.040153474
-0.062355019 0.12166936 -0.041330233
-0.054441243 0.12269456 -0.042395059
-0.044643819 0.12424278 -0.043017238
-0.034852996 0.12481604 -0.043735202
-0.024881283 0.12478516 -0.044526365
-0.01496359 0.12469541 -0.044983305
-0.0050697988 0.12487774 -0.04514987
0.00495899 0.12489291 -0.045146413
0.014875269 0.12501682 -0.044675212
0.025147613 0.12461051 -0.044384092
0.034930605 0.12435361 -0.043785207
0.0445491 0.12370075 -0.04302654
0.054057855 0.12334244 -0.042014994
0.063327506 0.12143609 -0.041662622
0.071073413 0.12093948 -0.040559944
-0.04270279 0.13123943 -0.040873446
-0.033815939 0.13226354 -0.041391764
-0.024487687 0.13308218 -0.041982934
-0.014980685 0.13332593 -0.042345636
-0.0049840156 0.13356738 -0.042633019
0.0047603366 0.13347831 -0.042672791
0.014607004 0.13331825 -0.042327583
0.024502547 0.13266477 -0.042268395
0.034169018 0.13226339 -0.041704852
0.042305127 0.13174865 -0.040621541
-0.041783672 -0.14053261 -0.030644413
-0.033954002 -0.14111191 -0.031906478
-0.024498828 -0.14187512 -0.032789934
-0.015102341 -0.1423137 -0.033109095
-0.0049267481 -0.14277124 -0.033342898
0.0050027473 -0.14259636 -0.033416741
0.014765494 -0.14245452 -0.033068962
0.024364101 -0.14179277 -0.032856744
0.033851296 -0.14137131 -0.03178528
0.041709408 -0.14009175 -0.031957887
-0.062674388 -0.13118087 -0.031743195
-0.05432009 -0.13253263 -0.033535317
-0.044764202 -0.13423581 -0.034366794
-0.035180751 -0.13533689 -0.035424046
-0.02506916 -0.13600309 -0.036042668
-0.014964463 -0.13620742 -0.036699377
-0.0049591349 -0.13651443 -0.036758833
0.0050955685 -0.13632813 -0.036783658
0.015384259 -0.13606383 -0.03657053
0.025070312 -0.13560916 -0.036140773
0.034553308 -0.13542528 -0.035093553
0.044137552 -0.1345682 -0.033768784
0.054160304 -0.13266152 -0.03307236
0.062943935 -0.13131639 -0.032010838
-0.081650682 -0.12095717 -0.031396806
-0.073892325 -0.12308406 -0.033143435
-0.064903289 -0.12477981 -0.034927264
-0.055151481 -0.1262241 -0.036438733
-0.045310944 -0.12634283 -0.03751117
-0.035635587 -0.12695955 -0.038422268
-0.025360817 -0.12738158 -0.03886117
-0.01468989 -0.12836096 -0.038650084
-0.0057551214 -0.12864581 -0.038921613
0.006059228 -0.1278082 -0.039016716
0.01517972 -0.12776029 -0.039049268
0.025265872 -0.12743104 -0.038917229
0.035701253 -0.12694155 -0.0380225
0.045907371 -0.12628242 -0.037446674
0.055215571 -0.12581374 -0.035883643
0.064868368 -0.12463552 -0.034516234
0.07392738 -0.12241773 -0.033386875
0.082299292 -0.12095484 -0.031363294
-0.092477836 -0.11220641 -0.031951901
-0.084584966 -0.11423716 -0.034253359
-0.075498909 -0.11589433 -0.036329493
-0.065658577 -0.11673781 -0.037769504
-0.056582037 -0.11689539 -0.038546473
-0.045694023 -0.11760493 -0.039564759
-0.037088931 -0.11942358 -0.039378822
0.046933085 -0.11759579 -0.039052296
0.057279635 -0.11755352 -0.038559176
0.06598182 -0.11634554 -0.037586067
0.075376876 -0.11547074 -0.035694666
0.084179685 -0.11389127 -0.034016803
0.092477955 -0.11213534 -0.032412045
-0.10257011 -0.10268789 -0.032383986
-0.094675057 -0.10489383 -0.034798209
-0.086047538 -0.1060954 -0.037011094
-0.076426096 -0.10675817 -0.038595736
-0.066420272 -0.10901446 -0.039161045
0.067054734 -0.10774086 -0.039511804
0.075825252 -0.10755351 -0.038294956
0.085541002 -0.105753 -0.036533937
0.094400488 -0.10421325 -0.034500405
0.10272302 -0.10268858 -0.032925017
-0.11249498 -0.091770515 -0.032200273
-0.10502385 -0.094859056 -0.034717664
-0.096448503 -0.096265271 -0.037042875
-0.087326214 -0.096638262 -0.038330276
-0.078327954 -0.099187367 -0.03934288
0.077716142 -0.099247746 -0.039573327
0.086824603 -0.097653352 -0.038725339
0.095795192 -0.095744282 -0.036763303
0.10437122 -0.094462343 -0.034261901
0.11237071 -0.092323974 -0.032570139
-0.12152079 -0.081783786 -0.031581677
-0.11449002 -0.084457539 -0.034459289
-0.1062215 -0.08625339 -0.036783986
-0.096494898 -0.085984722 -0.038741499
0.088772982 -0.088510305 -0.039330006
0.096819766 -0.087247834 -0.038513206
0.10558454 -0.08562348 -0.036328062
0.11386043 -0.084304258 -0.034054391
0.12164615 -0.082507849 -0.032083642
-0.13007703 -0.071326613 -0.030307323
-0.12303715 -0.074034132 -0.033523429
-0.11591256 -0.075394087 -0.036496613
-0.10660629 -0.076385371 -0.038758103
-0.099100314 -0.078120515 -0.039017275
0.098692954 -0.079962671 -0.039998412
0.10717534 -0.076172918 -0.038086612
0.11560503 -0.075196832 -0.035707664
0.12298088 -0.073866591 -0.033555336
0.13113774 -0.071018696 -0.030349314
-0.13152456 -0.062627487 -0.031983536
-0.12514649 -0.064954206 -0.035296343
-0.11651798 -0.065591678 -0.037824124
-0.10558459 -0.065475762 -0.039457154
0.10914447 -0.067082666 -0.039514925
0.1161369 -0.065394029 -0.037443701
0.12436534 -0.064886317 -0.034364954
0.13145325 -0.064236671 -0.032587796
-0.13313858 -0.054227121 -0.033569075
-0.12644438 -0.055490237 -0.036657382
-0.11777873 -0.056376606 -0.038370486
0.11741512 -0.05559057 -0.039019186
0.12568641 -0.055377793 -0.035912756
0.13292667 -0.05414357 -0.033476025
-0.14060909 -0.042218179 -0.031517297
-0.13470913 -0.044780336 -0.034559909
-0.1264714 -0.045785613 -0.037547965
-0.11918009 -0.045568042 -0.03939379
0.11884386 -0.04532459 -0.039434165
0.12577084 -0.045634199 -0.03742107
0.13381559 -0.044979058 -0.034214515
0.14098679 -0.042966027 -0.032486565
-0.14165264 -0.034709729 -0.032008778
-0.1356567 -0.035010915 -0.035776313
-0.12688917 -0.035753001 -0.038346142
0.12692788 -0.035055224 -0.038165521
0.13489969 -0.035058293 -0.035069451
0.14208321 -0.034393158 -0.032792568
-0.14252996 -0.024922604 -0.032681577
-0.13649978 -0.025016308 -0.036325864
-0.12762512 -0.026440792 -0.038240075
0.12807086 -0.025602542 -0.038792595
0.13568476 -0.024876103 -0.035508499
0.14248109 -0.024278101 -0.03292999
-0.14293557 -0.014615061 -0.033660106
-0.1366684 -0.015126734 -0.03677623
-0.12731099 -0.016894497 -0.038370989
0.12844983 -0.016463324 -0.039107181
0.13583188 -0.015044246 -0.036062602
0.14341575 -0.015398432 -0.033192929
0.15040502 -0.015511498 -0.03041175
-0.14328125 -0.0047851657 -0.033687241
-0.13692801 -0.0053750328 -0.036692005
-0.12874205 -0.0064553325 -0.038481403
0.12851882 -0.0053929132 -0.03897481
0.13594744 -0.0053810528 -0.03654635
0.14342116 -0.0052179433 -0.033502385
0.15096855 -0.003609091 -0.030480605
-0.14336567 0.0048098732 -0.033776183
-0.13674134 0.0049189003 -0.036843926
-0.12838732 0.0050235949 -0.038654193
0.12828679 0.0060936278 -0.038964558
0.13589625 0.0051555764 -0.036599357
0.14332363 0.0048080436 -0.033544898
0.15081157 0.0038919039 -0.030699253
-0.14292413 0.014745384 -0.033808224
-0.13682714 0.015116859 -0.036601584
-0.12763906 0.016110294 -0.038451262
0.12841117 0.016279461 -0.039011877
0.1359185 0.015199238 -0.036121998
0.14325927 0.015410323 -0.033295818
0.15051056 0.013147637 -0.030238301
-0.14262211 0.024796767 -0.032703452
-0.1365955 0.025155535 -0.03624592
-0.12760608 0.026317477 -0.038538951
0.12814586 0.025434744 -0.038763586
0.13573003 0.024981333 -0.035483643
0.14259218 0.0243361 -0.032968242
-0.14172627 0.034476507 -0.031958662
-0.1357314 0.035154629 -0.035739586
-0.12709503 0.035939414 -0.038325798
0.12707156 0.035084538 -0.038093109
0.13484706 0.03518986 -0.034949198
0.141978 0.034071196 -0.032862931
-0.14057215 0.042030629 -0.03195972
-0.13459583 0.044871807 -0.034638651
-0.12664066 0.045848161 -0.037514351
-0.11905539 0.045856241 -0.039264228
0.11911636 0.046266075 -0.039644398
0.12583068 0.045611903 -0.03752711
0.13387083 0.044842713 -0.03438551
0.14164272 0.043085616 -0.031382687
-0.13326266 0.05428068 -0.0334672
-0.1265325 0.055443808 -0.036695894
-0.11759561 0.055665396 -0.038564116
0.11716721 0.056103725 -0.039002068
0.12576644 0.05545244 -0.035887364
0.13300486 0.054118767 -0.033708997
-0.13147223 0.062960051 -0.032166272
-0.12519793 0.064892411 -0.035360925
-0.11665754 0.065656409 -0.037683647
-0.10692625 0.066907048 -0.038889188
0.10839345 0.066342525 -0.039593186
0.11618748 0.065293126 -0.037519544
0.12450866 0.064885028 -0.034400105
0.13152662 0.064533673 -0.03238368
