# .PCD v0.7 - Point Cloud Data file format
VERSION 0.7
FIELDS x y z
SIZE 4 4 4
TYPE F F F
COUNT 1 1 1
WIDTH 1373
HEIGHT 1
VIEWPOINT 0 0 0 1 0 0 0
POINTS 1373
DATA ascii
0.68639231 0.014881724 0.018790502
0.69535929 0.015013949 0.015472206
0.70281011 0.014302138 0.011749659
0.71499306 0.015430756 0.012015804
0.72583663 0.014692606 0.01134522
0.73551553 0.015656272 0.011553729
0.74371952 0.013900133 0.011610316
0.75347871 0.015625868 0.011400498
0.76584285 0.01492837 0.012961481
0.77410764 0.015155582 0.015566597
0.78537601 0.015103163 0.018146778
0.79453981 0.014569549 0.017961292
0.80498999 0.015074723 0.017697118
0.81519336 0.01483436 0.017674869
0.82446986 0.014970588 0.017667703
0.8343817 0.01495529 0.017516492
0.84475029 0.014678339 0.017617213
0.85541534 0.014974599 0.017368665
0.86508244 0.014939012 0.017430669
0.87431902 0.014745269 0.018195258
0.88384342 0.014592082 0.017247139
0.89477032 0.01437802 0.017480999
0.90452355 0.014873013 0.017478943
0.91442758 0.01422281 0.017203309
0.92434704 0.014450181 0.017316993
0.93467027 0.015450816 0.017449321
0.9456982 0.014717878 0.017463602
0.95577961 0.01543546 0.017372735
0.96484804 0.0149293 0.017484505
0.97415847 0.015026994 0.017511697
0.98474485 0.014248677 0.017558178
0.99576485 0.014504327 0.017551472
1.0057414 0.014728481 0.017268388
1.0144603 0.014046696 0.017825386
1.0247905 0.015192484 0.017420767
1.0354664 0.015142803 0.017419213
1.0457301 0.014788693 0.017403323
1.0545176 0.014712957 0.017657887
1.0650511 0.014783984 0.017360741
1.0749201 0.014429189 0.017363407
1.0854504 0.013992251 0.017643746
1.0952967 0.013854926 0.017589819
1.1046036 0.01475344 0.017460315
1.116081 0.014028595 0.017209906
1.1245307 0.015053533 0.018190492
1.1349018 0.014699677 0.017339161
1.1454898 0.014173867 0.017966462
1.1543841 0.01457802 0.017880727
1.165004 0.014680293 0.017860776
1.1744256 0.014076557 0.017797053
1.1854618 0.01384834 0.017795213
1.1955537 0.014943023 0.017313395
1.2037952 0.014385462 0.017996883
1.2136637 0.014512184 0.018297704
0.6861037 0.023631081 0.019292049
0.69552749 0.024763221 0.015237454
0.70443529 0.024946708 0.011731633
0.71476775 0.02532801 0.01200071
0.72601908 0.025263024 0.011830655
0.73556316 0.025603116 0.011811193
0.74437636 0.0246251 0.012075461
0.75385553 0.025530323 0.01183502
0.765369 0.024416234 0.012910235
0.77374643 0.024413278 0.014732469
0.78601635 0.023679627 0.0184974
0.79517674 0.024059067 0.018517934
0.80511725 0.02433268 0.018218495
0.81517482 0.025189418 0.018343385
0.82450038 0.024018692 0.018059896
0.83466899 0.024000999 0.018080527
0.84517413 0.024223367 0.017930679
0.85484624 0.024654601 0.018041048
0.86531782 0.025714908 0.017923128
0.87391454 0.024730753 0.018427761
0.88416868 0.024231555 0.01773951
0.89526433 0.0246951 0.017792026
0.90456355 0.024583273 0.017674541
0.91436481 0.0245053 0.01761682
0.92448324 0.024049956 0.017910382
0.93438923 0.025237279 0.017985381
0.94579637 0.024851663 0.017593864
0.95526147 0.024133233 0.017475955
0.96444935 0.024384761 0.017350011
0.97433013 0.024901168 0.017830482
0.98481977 0.023964401 0.017429467
0.99578243 0.023633173 0.01775803
1.0063205 0.024403011 0.017585631
1.0149571 0.024558367 0.01787447
1.0247308 0.024292704 0.017353192
1.0355262 0.024401255 0.017705558
1.0457803 0.024337068 0.017771998
1.0548214 0.024353644 0.017812718
1.0659887 0.024364837 0.017951127
1.0752779 0.023954669 0.017649246
1.0851563 0.02346459 0.01811043
1.0948155 0.023580298 0.017695451
1.105002 0.024441466 0.018289154
1.115482 0.024061779 0.01807981
1.1246094 0.024493761 0.018271783
1.1350139 0.023841484 0.017866263
1.1439346 0.024378713 0.018026905
1.1538167 0.024442442 0.018501306
1.1646266 0.024021849 0.018173244
1.1753963 0.023152733 0.017930208
1.184606 0.023798356 0.018336549
1.1943309 0.023959564 0.018419735
1.2045953 0.025012037 0.018046727
1.212998 0.023479939 0.018118445
0.69551528 0.034980766 0.01449126
0.70529574 0.035969269 0.01180594
0.71504116 0.035595424 0.012430273
0.72530198 0.03528896 0.011926143
0.73536903 0.035431661 0.01255801
0.74478179 0.035108309 0.011914895
0.75437677 0.034966029 0.012261686
0.76495498 0.035003699 0.013128674
0.77324808 0.03493138 0.014671719
0.79531085 0.031397443 0.01972162
0.80512005 0.030985758 0.01941547
0.81522524 0.03169015 0.019218922
0.82528383 0.031223128 0.019245217
0.83448905 0.031856406 0.019260084
0.84446764 0.03167063 0.018966429
0.85412121 0.031789329 0.019204346
0.86682004 0.031389065 0.018680768
0.87308121 0.032191075 0.019337464
0.88484979 0.031592052 0.01904978
0.89400536 0.030679187 0.018402906
0.9035058 0.032654271 0.019184649
0.91517794 0.032181583 0.019164428
0.92564893 0.032138184 0.01878343
0.93600905 0.032340467 0.018846009
0.94475985 0.032372396 0.0186428
0.95438755 0.031849183 0.018813107
0.96500027 0.032186814 0.018859407
0.97344744 0.032441337 0.018773634
0.98608255 0.031318769 0.018684089
0.99522233 0.03190434 0.018636929
1.008405 0.032139905 0.018810483
1.0143781 0.032436829 0.019148534
1.0252087 0.031474993 0.01886341
1.036027 0.031669684 0.018970162
1.045943 0.032492187 0.018814186
1.0545719 0.033099271 0.018915219
1.0647779 0.032226611 0.019103084
1.0743834 0.03170057 0.018758008
1.0835433 0.032095965 0.018798681
1.0948023 0.032067932 0.018908858
1.1037407 0.031911112 0.019027365
1.1156979 0.033009276 0.019322556
1.1233211 0.032086421 0.019051548
1.1361811 0.033190936 0.019530512
1.1445758 0.032038189 0.018915921
1.1559765 0.031866994 0.018670503
1.1663929 0.030532688 0.018075824
1.1750516 0.0320899 0.01942917
1.186507 0.031678379 0.019392822
1.1998943 0.033321947 0.019263644
1.2040296 0.031947903 0.018858287
1.2106316 0.031068683 0.019055638
0.69504982 0.044982348 0.014698509
0.70510691 0.0451479 0.012638126
0.7148602 0.04534575 0.012694077
0.72508913 0.045330312 0.01252932
0.73502636 0.044925485 0.012680396
0.74489641 0.045321081 0.012290167
0.75506014 0.04515871 0.012535515
0.76506823 0.045245878 0.013375055
0.7735818 0.045025703 0.014426286
0.69522202 0.055111777 0.01453516
0.70495743 0.055179242 0.012759221
0.71464038 0.055446766 0.01307865
0.72521299 0.055645153 0.013149912
0.73502922 0.054932822 0.013015983
0.74499631 0.055592198 0.012905747
0.75464183 0.05525808 0.013009491
0.76524395 0.055530213 0.013886153
0.77339655 0.055254873 0.014795215
0.69505149 0.064889207 0.014532002
0.7050693 0.064906403 0.013177104
0.71515018 0.06491065 0.013391251
0.72503 0.065512232 0.013129936
0.73539823 0.064958543 0.013349294
0.74564022 0.065066628 0.013311745
0.75524807 0.065323256 0.013653892
0.76508713 0.06546326 0.0140545
0.77317822 0.065491021 0.014829772
0.69555205 0.075151645 0.01514245
0.70512885 0.074836396 0.014478091
0.71461922 0.074847728 0.014567556
0.72470546 0.07478445 0.014809955
0.73481703 0.074530013 0.014698651
0.74500871 0.074930333 0.014601927
0.75473917 0.074792996 0.015081922
0.76471776 0.075020649 0.014765058
0.77254796 0.075077631 0.015486208
0.69589925 0.084960006 0.016103867
0.70550609 0.085060209 0.015817741
0.71533269 0.085216776 0.015953479
0.72488749 0.084756568 0.016043419
0.73499697 0.084937766 0.015943157
0.74496078 0.084488675 0.016018441
0.75508553 0.085017823 0.015908834
0.76512825 0.084881984 0.016172148
0.77273792 0.08488062 0.016571386
0.69649506 0.094816595 0.017506042
0.70469451 0.095051967 0.017656149
0.71501583 0.094839096 0.017704224
0.72520238 0.094622888 0.017429965
0.73499554 0.094975464 0.017480642
0.74509209 0.094328724 0.017537642
0.75527048 0.094555184 0.017512469
0.76494026 0.094803698 0.01760922
0.77205026 0.094175667 0.017820876
0.69726932 0.10313281 0.019039661
0.70497042 0.10251851 0.019117517
0.71484905 0.10296558 0.018986445
0.72494239 0.10262416 0.018903429
0.73513007 0.10310272 0.019010551
0.74479681 0.10296142 0.019109523
0.75429082 0.10268624 0.018908828
0.76505363 0.10363606 0.019274071
0.77116174 0.10255772 0.01889866
0.69677889 -0.0932649 0.024917282
0.70514232 -0.094305925 0.025148069
0.71488339 -0.094337925 0.024704045
0.72517556 -0.094330795 0.024964675
0.73534244 -0.094338439 0.025251126
0.74492866 -0.094343707 0.024888415
0.75524849 -0.094342835 0.024814719
0.76487756 -0.093747064 0.025303243
0.77231538 -0.092478037 0.02485772
0.6946398 -0.085246228 0.025062319
0.76793855 -0.084822416 0.025008135
0.77341866 -0.085186183 0.024674891
0.69466203 -0.075026713 0.025040755
0.76784855 -0.075041637 0.024518607
0.77341086 -0.074947149 0.024677543
0.69455731 -0.064666197 0.024699165
0.7679044 -0.065505534 0.024595028
0.77338529 -0.065013938 0.025036218
0.69452947 -0.054831926 0.024782205
0.76786387 -0.055288389 0.025016382
0.77351171 -0.055085469 0.025240466
0.69462091 -0.044636339 0.024909869
0.76769871 -0.044606119 0.024226876
0.77339959 -0.044887092 0.024918284
0.69465852 -0.03490388 0.024962153
0.7678532 -0.03486697 0.024342725
0.77336901 -0.035164103 0.024495868
0.6947298 -0.025125731 0.025039878
0.76807719 -0.02538134 0.024973856
0.77339661 -0.024793431 0.024629764
0.6869421 -0.011272169 0.028724018
0.69452536 -0.015150188 0.025180247
0.76825994 -0.015007216 0.025124755
0.77388793 -0.014763513 0.024610614
0.78584051 -0.011204648 0.028141437
0.79455578 -0.01123746 0.027822508
0.80448967 -0.011392278 0.027480615
0.81578505 -0.011509228 0.027819246
0.82590675 -0.011947059 0.02771637
0.83586043 -0.012232431 0.027895244
0.84548843 -0.011849768 0.027579824
0.85475498 -0.012142091 0.027547844
0.86557084 -0.011979075 0.027207004
0.875525 -0.011941643 0.027548334
0.88495576 -0.012199858 0.027611781
0.89554244 -0.011913725 0.027412627
0.90539086 -0.011931314 0.02715827
0.91487038 -0.012358649 0.027772855
0.92503107 -0.012313515 0.0274303
0.93444103 -0.012415043 0.027776673
0.94500571 -0.012424756 0.027729286
0.95482999 -0.012248441 0.027220748
0.96550214 -0.01229438 0.027826242
0.97510999 -0.012047217 0.027618608
0.98423123 -0.012574539 0.027586283
0.99430984 -0.012158219 0.027583947
1.0047536 -0.012112842 0.027194414
1.0150915 -0.012307451 0.028010858
1.0253075 -0.01228742 0.027341889
1.0346551 -0.012006684 0.027997646
1.0443428 -0.012222146 0.027699333
1.0556417 -0.011859982 0.027887013
1.0657711 -0.011911338 0.027746119
1.0742205 -0.012429632 0.028395711
1.0844288 -0.011822839 0.027892508
1.0949408 -0.011808543 0.027922232
1.1050352 -0.011515062 0.027725428
1.1149665 -0.011700598 0.027759448
1.1251864 -0.011610394 0.027416391
1.1339023 -0.011773902 0.027139859
1.1442202 -0.011720943 0.02767195
1.1542835 -0.011622531 0.027913455
1.1640635 -0.0117714 0.027757036
1.1754428 -0.011350753 0.028259158
1.1861027 -0.011589365 0.027381008
1.196269 -0.011428217 0.028672963
1.2058855 -0.01196612 0.029135443
1.2133963 -0.011120155 0.029333763
0.6852991 -0.0043274034 0.025933521
0.69403666 -0.0057415063 0.023557162
0.76853532 -0.005576612 0.024305576
0.77505559 -0.0052822107 0.024625799
0.78543216 -0.0042868312 0.025372045
0.79475784 -0.0047719358 0.024915608
0.80459464 -0.0045407098 0.024645004
0.81479126 -0.0051949024 0.024652317
0.82520533 -0.0053048949 0.024881067
0.83526075 -0.0047476385 0.024652444
0.84560812 -0.005123036 0.024833437
0.85501593 -0.0055563059 0.024124896
0.86504954 -0.0053505008 0.025085421
0.87469947 -0.0053734737 0.024452547
0.88498914 -0.0048776641 0.024515487
0.89474326 -0.0054243612 0.024709303
0.90515214 -0.0052775051 0.024935644
0.91484427 -0.0050852755 0.024942843
0.9242844 -0.0051189484 0.024600426
0.934677 -0.0052761766 0.024680961
0.94482005 -0.0053510019 0.024875656
0.95519143 -0.0049210871 0.024857994
0.96495134 -0.0049450854 0.024694715
0.97486126 -0.0050964886 0.024908327
0.98505062 -0.004955445 0.02485908
0.99515134 -0.0052500428 0.025122667
1.0049855 -0.0054011648 0.025276801
1.015308 -0.0051669176 0.025192441
1.0252744 -0.0050386088 0.025166016
1.0350709 -0.0052419775 0.025382899
1.0447745 -0.0053132661 0.025545606
1.0547936 -0.0049768277 0.02528001
1.0648712 -0.0050383913 0.02546175
1.0748706 -0.0052259043 0.025848189
1.0849901 -0.0051131723 0.025551189
1.0948182 -0.0046802992 0.025600431
1.1051289 -0.0051058894 0.025850853
1.1151224 -0.0051424163 0.025795709
1.1246662 -0.0049505653 0.026103472
1.1349512 -0.0050525805 0.026183296
1.1448523 -0.0046887733 0.026334345
1.1552351 -0.0047498676 0.026116194
1.1649375 -0.0047010658 0.026378971
1.1749465 -0.0045113866 0.026579091
1.1849029 -0.0044290889 0.026515281
1.1949818 -0.0041881208 0.026464507
1.2048268 -0.0042209891 0.026582299
1.2138097 -0.0037039306 0.027224943
1.221203 -0.0024909133 0.027924445
0.68468618 0.0048481347 0.024850106
0.69386309 0.0042668022 0.021318961
0.76957721 0.0061041415 0.022214532
0.77511203 0.0050644921 0.022561759
0.78532922 0.0047305902 0.02301719
0.79464549 0.0043928106 0.022538261
0.80485529 0.0041128662 0.022881661
0.81486189 0.0041949777 0.022649627
0.82427794 0.0043948893 0.02253578
0.83469135 0.0051489212 0.022806307
0.84422988 0.0044212104 0.022154054
0.85475791 0.0050219027 0.022923104
0.86545515 0.0045442544 0.022460358
0.87523425 0.0045500412 0.022434
0.88476324 0.0046959096 0.022381991
0.89503992 0.0043653958 0.022712409
0.9051035 0.0046007014 0.022741871
0.91492248 0.0046243244 0.02260384
0.92535698 0.0043369657 0.022532787
0.93487859 0.0046913088 0.022549229
0.94532788 0.0047739916 0.022443019
0.95521206 0.0049505704 0.022505017
0.96465671 0.0051534707 0.022596024
0.97474766 0.0047239624 0.022439584
0.98464018 0.0051171556 0.022251206
0.99481905 0.0045842906 0.022679413
1.0051669 0.0045303702 0.0225624
1.0151168 0.0045720236 0.022483502
1.0254054 0.0050816862 0.022450756
1.0355065 0.0048616491 0.022521388
1.0454869 0.0045489864 0.022733139
1.0552795 0.0053429939 0.022553271
1.0652876 0.0048943614 0.02258845
1.0752529 0.0045390218 0.022785071
1.085001 0.0048993677 0.022804176
1.0950418 0.004878269 0.022787141
1.1051081 0.0045022611 0.022899531
1.1153538 0.0046828776 0.022932522
1.1251836 0.0049316217 0.023150869
1.1352201 0.0048301173 0.02308373
1.1448842 0.0051511149 0.023184786
1.1547267 0.0047768885 0.02325795
1.1651717 0.0051169549 0.023407612
1.1752267 0.0047004698 0.023543708
1.1848264 0.0049115513 0.023594221
1.1948085 0.0050119576 0.023718428
1.2051432 0.0048751407 0.023921119
1.2153528 0.0050310679 0.025101626
1.2218884 0.0054519223 0.02751342
0.68468136 0.015028915 0.024974911
0.69386083 0.01496304 0.020948337
0.77521491 0.015418624 0.022052934
0.78619015 0.015211758 0.022541307
0.79564351 0.014633914 0.022214903
0.80522436 0.01473726 0.02215665
0.81407094 0.013896241 0.022097399
0.82396477 0.014502381 0.02190364
0.83381391 0.014668111 0.021949684
0.84320641 0.014505509 0.021777308
0.85542631 0.015126244 0.022319229
0.86516738 0.014902035 0.021871055
0.87501401 0.015082506 0.02198514
0.88560027 0.015377352 0.022106593
0.89528376 0.014595014 0.021915268
0.90500718 0.015107978 0.021768916
0.91484469 0.015095484 0.021938164
0.92452884 0.014866085 0.021742418
0.9353537 0.014669042 0.021852398
0.94583917 0.015137562 0.021648107
0.95529574 0.015245692 0.021818893
0.96490443 0.015709344 0.021855412
0.97501826 0.014734865 0.021870542
0.98462254 0.015624674 0.021766778
0.99513042 0.015052897 0.021905236
1.0050858 0.014884301 0.021834841
1.0155317 0.014674968 0.021762475
1.0257207 0.015020886 0.021954594
1.0354527 0.015067537 0.021829065
1.0451403 0.014852315 0.021807333
1.0554111 0.01540048 0.021775065
1.0653679 0.014954507 0.021793174
1.0746281 0.015100028 0.021964574
1.0847515 0.015053655 0.021852396
1.0947691 0.015252574 0.022074156
1.105202 0.01508902 0.022163045
1.1154212 0.015083826 0.022002235
1.1248386 0.015278392 0.022161674
1.1347628 0.01485239 0.022271588
1.1449063 0.01549963 0.022367034
1.1550405 0.015010574 0.02236706
1.1655477 0.014989681 0.022495665
1.1754616 0.015032447 0.022549843
1.1854241 0.015191486 0.022618603
1.1952099 0.015063729 0.022703025
1.2050269 0.014906244 0.022785394
1.215137 0.015347603 0.023995988
1.2220241 0.014873163 0.027273675
0.68459129 0.025113525 0.024863685
0.69324988 0.025300935 0.021546638
0.76950693 0.025738012 0.023135453
0.77539825 0.025294118 0.022815976
0.78535235 0.02617491 0.022907529
0.79495186 0.025362646 0.023079386
0.80503398 0.025656639 0.022709986
0.81491429 0.025131185 0.022616468
0.82458174 0.025436219 0.022596797
0.83463937 0.025651217 0.022732243
0.84425032 0.025132068 0.022381002
0.85466903 0.025328092 0.023094093
0.8652575 0.02521974 0.022334242
0.87500167 0.025159989 0.022571143
0.88494527 0.025456732 0.022593267
0.89481574 0.025167484 0.022464164
0.90485233 0.025721254 0.022620656
0.91488439 0.025427036 0.022704152
0.925201 0.025218153 0.022561537
0.93506014 0.025327273 0.022438552
0.94512314 0.025531176 0.022413658
0.95498782 0.025369924 0.02251582
0.96476787 0.025298985 0.02247238
0.97465473 0.025420411 0.022492792
0.98469841 0.025634203 0.022392172
0.99493849 0.025106696 0.02234957
1.0052549 0.025302362 0.022514254
1.0153713 0.025435068 0.022518275
1.0252635 0.025021479 0.02230987
1.0352868 0.025504442 0.022579912
1.0449911 0.025272448 0.022511525
1.054866 0.025477774 0.022768755
1.0647058 0.025367508 0.022631655
1.0749964 0.025350034 0.0227942
1.0851737 0.025238249 0.022891384
1.0951511 0.025713347 0.022934059
1.10497 0.025215751 0.022984011
1.1151305 0.025328664 0.023124477
1.1250418 0.025451461 0.023247873
1.1348057 0.025596363 0.023330558
1.1449083 0.025429567 0.02331458
1.1548611 0.025067778 0.023391871
1.164812 0.025245341 0.023573037
1.1748374 0.02494777 0.02353429
1.1850256 0.02523775 0.023818746
1.1952137 0.025117662 0.023915945
1.2050352 0.025165141 0.023951957
1.2151991 0.025373567 0.025381207
1.2217612 0.023968156 0.027520316
0.68532592 0.034152955 0.025973713
0.69409573 0.035265561 0.023713896
0.76836866 0.036233857 0.025725974
0.77533352 0.034677736 0.024731006
0.7851885 0.034759413 0.025263222
0.79498273 0.035168163 0.025115112
0.80462599 0.035398498 0.025152696
0.81500959 0.03559047 0.025120623
0.82545322 0.035361361 0.024931069
0.83526736 0.03512064 0.025016166
0.84511173 0.035487186 0.024885811
0.85502893 0.035427261 0.024522407
0.86467075 0.035079602 0.024864351
0.87508905 0.035551779 0.024791148
0.88500857 0.035306115 0.025047231
0.89516896 0.035402767 0.024934545
0.90542489 0.035233233 0.024561517
0.91531134 0.03584088 0.025236988
0.92490089 0.035335366 0.024924643
0.93488014 0.035461765 0.024889706
0.94496179 0.035231326 0.024999214
0.95502359 0.035540577 0.025121497
0.96475428 0.034937628 0.02509254
0.97464651 0.035234042 0.025236016
0.98527259 0.035260703 0.025073305
0.99554479 0.035229787 0.025245335
1.0046692 0.03521882 0.025477655
1.0150927 0.035372023 0.02533727
1.025197 0.03525481 0.025606614
1.0351229 0.035166692 0.025145486
1.044796 0.034975287 0.025623733
1.0548407 0.03531599 0.025383987
1.0650238 0.0348287 0.025583962
1.0749702 0.034921631 0.025514001
1.0848391 0.035057127 0.025846809
1.0946767 0.035196729 0.02599746
1.1051629 0.035018664 0.025910968
1.1150446 0.034830905 0.026220795
1.125015 0.034727991 0.025918253
1.1349502 0.034858599 0.02615745
1.1450326 0.034635901 0.026437797
1.1549666 0.034733199 0.026056185
1.1652309 0.034489762 0.026470676
1.1753031 0.034366161 0.02648636
1.1851798 0.034274794 0.026744399
1.194917 0.034280874 0.026625892
1.2049508 0.034158576 0.02687663
1.2140725 0.033549424 0.027388651
1.22154 0.032373857 0.028334223
0.6867882 0.040917665 0.028646944
0.69471705 0.045036849 0.025111753
0.76800811 0.045292165 0.024417378
0.77393806 0.044336785 0.024811637
0.78609329 0.041036874 0.027783541
0.79498529 0.042086206 0.028658727
0.80529207 0.042049196 0.027813628
0.81557089 0.04169168 0.027192416
0.82541639 0.041592851 0.027295889
0.83496577 0.041824166 0.027024839
0.84544379 0.042289238 0.028156593
0.8548755 0.041971911 0.027106669
0.86531532 0.042022735 0.027181521
0.8753944 0.04238534 0.027425496
0.88505995 0.042473845 0.02745788
0.89540631 0.042578768 0.027865846
0.904589 0.042168383 0.026860373
0.91459811 0.042254504 0.026915785
0.92538983 0.042412858 0.027665783
0.93463182 0.042687833 0.027798235
0.94581491 0.04199012 0.027038997
0.9558211 0.042103745 0.027719393
0.96511161 0.041886199 0.026809357
0.97543502 0.041855909 0.026880996
0.98444223 0.041886285 0.027527671
0.99381614 0.042091951 0.027336026
1.0053487 0.041999131 0.026970314
1.0155171 0.042135112 0.028055647
1.0255049 0.041947264 0.027272088
1.0342518 0.042380556 0.027668025
1.0445207 0.042296514 0.027710492
1.0549996 0.041992832 0.027713688
1.0642025 0.042043466 0.027707953
1.0745188 0.042034343 0.027392698
1.0851085 0.04199972 0.026946913
1.0956106 0.041787155 0.026643535
1.1049429 0.042374156 0.027988875
1.1150637 0.041878678 0.027479563
1.1251211 0.041958779 0.027550835
1.1359011 0.041653898 0.02798814
1.1465814 0.042068686 0.028093213
1.1550686 0.041346669 0.027931172
1.1632577 0.041327596 0.027587397
1.1755693 0.041521989 0.028001253
1.1854014 0.040797032 0.027625335
1.1961993 0.041441862 0.027776759
1.2034106 0.04186568 0.028338326
1.2118645 0.041042738 0.028576443
0.69475228 0.054756105 0.025048196
0.76783079 0.054721482 0.024560025
0.77343667 0.054486148 0.024616718
0.6946463 0.064979084 0.024819229
0.76770073 0.064605765 0.024596378
0.77343339 0.064859509 0.024772909
0.69470227 0.075189538 0.024779227
0.70394224 0.076157331 0.020302039
0.71863878 0.077940017 0.020352621
0.72516966 0.079156861 0.02050041
0.73383754 0.078089625 0.02060478
0.74673951 0.077774465 0.020663235
0.75296789 0.077186354 0.020427376
0.76779234 0.075063244 0.024701148
0.77342623 0.075159974 0.024892677
0.69464576 0.085259669 0.024697581
0.70459723 0.085505269 0.021056106
0.7164939 0.086277872 0.021241654
0.72481155 0.085560009 0.021317869
0.73643094 0.085418008 0.021055415
0.74639803 0.085564025 0.021160644
0.75376606 0.085920684 0.021076776
0.76668131 0.085016325 0.023956038
0.77335042 0.084952764 0.024921505
0.69492674 0.095253102 0.024872329
0.70534515 0.095368542 0.022241484
0.71486133 0.095328793 0.022155615
0.72489071 0.095374979 0.022161294
0.73533911 0.095290914 0.022213971
0.74544591 0.095310941 0.022184357
0.7551443 0.095378876 0.02236498
0.76603097 0.095213413 0.023953231
0.77324528 0.095090561 0.024934525
0.69532323 0.10503091 0.024691572
0.70493042 0.10573486 0.023209989
0.7153728 0.10576165 0.02348493
0.72554761 0.10569874 0.023384659
0.73507679 0.10567549 0.023485431
0.74487853 0.10554843 0.023310233
0.75504249 0.10564063 0.023238439
0.76522011 0.10541169 0.024030603
0.77257317 0.10486246 0.024245508
0.69534814 0.11420435 0.026186705
0.70519739 0.11500741 0.025760673
0.71479791 0.11488755 0.0257887
0.72486585 0.11448395 0.025515845
0.73516887 0.11484946 0.025793353
0.74536449 0.11490493 0.026003908
0.7553581 0.11447971 0.025860235
0.76518458 0.11496194 0.026038526
0.77285582 0.11454637 0.026544543
0.69611335 0.12287506 0.028542224
0.70469511 0.12353168 0.028541433
0.71515232 0.12303479 0.028349835
0.72431898 0.12279303 0.028261019
0.73446089 0.12318206 0.028285591
0.74455005 0.12322351 0.028345846
0.75475597 0.12230519 0.027955357
0.76451325 0.12339596 0.028399378
0.77159286 0.1223064 0.028159816
0.69662124 -0.092818163 0.035276666
0.70518744 -0.094296902 0.035106875
0.71519876 -0.094303407 0.034994733
0.72492659 -0.094289623 0.03482708
0.73461062 -0.094274566 0.035086941
0.74482065 -0.094294585 0.035114828
0.75523579 -0.094303444 0.034750573
0.76455635 -0.093859129 0.034856226
0.7722891 -0.092563555 0.034666285
0.69458228 -0.084708124 0.034802742
0.76802009 -0.085157879 0.034654614
0.77343976 -0.085611597 0.034426734
0.69436228 -0.074885026 0.034859598
0.76797962 -0.075868033 0.034645032
0.77349734 -0.075270489 0.034262218
0.69460672 -0.064954147 0.034940563
0.7679171 -0.06544663 0.034802981
0.77360874 -0.065134712 0.034536034
0.69460303 -0.055363137 0.034862883
0.76802617 -0.055190418 0.034713611
0.7736842 -0.05488193 0.03492694
0.69466013 -0.045459922 0.03520241
0.76787484 -0.045125846 0.034797687
0.77376866 -0.044653222 0.034488879
0.69461823 -0.03531263 0.035244547
0.76784539 -0.034805052 0.035225905
0.77370423 -0.035041422 0.034460254
0.69454098 -0.025036588 0.035423577
0.76780587 -0.02455079 0.035698541
0.773803 -0.025315281 0.034788359
0.68562323 -0.01295284 0.03584874
0.69384801 -0.01526529 0.034973651
0.76820517 -0.016200058 0.035124883
0.77506602 -0.014614535 0.03452722
0.7856012 -0.013608568 0.034896981
0.79454082 -0.0141699 0.035450961
0.80490965 -0.014402891 0.035179809
0.81534648 -0.014206827 0.034548126
0.82517582 -0.014397128 0.034804948
0.83508933 -0.014660875 0.035193909
0.84486747 -0.014483021 0.034771964
0.85470629 -0.014437713 0.034582976
0.86504263 -0.014687626 0.034912188
0.8752321 -0.014733726 0.034927223
0.88483363 -0.014989237 0.035230599
0.89502394 -0.014732692 0.034638617
0.90536749 -0.014866325 0.035033267
0.9148168 -0.01499896 0.035167951
0.92464972 -0.014669131 0.034667008
0.93483239 -0.01479559 0.034721099
0.94483751 -0.014772786 0.034752645
0.95512408 -0.014694183 0.034605406
0.96469265 -0.014953366 0.035057802
0.97492093 -0.01471387 0.034568872
0.98503089 -0.01469334 0.034889791
0.9951027 -0.014925814 0.035207134
1.0047201 -0.014631397 0.034773588
1.0147439 -0.014640503 0.034841631
1.0249976 -0.014673355 0.035146326
1.034802 -0.014513042 0.034932438
1.0450175 -0.014459024 0.035046
1.0550405 -0.014367775 0.035001814
1.0649101 -0.014297835 0.035007183
1.0749477 -0.014079791 0.035094582
1.0850086 -0.014275767 0.03532533
1.0950204 -0.013831123 0.035000373
1.1047964 -0.014028204 0.035354681
1.1149427 -0.013729198 0.034992993
1.1248968 -0.013611095 0.035067923
1.135147 -0.013585699 0.035233438
1.1450011 -0.013425804 0.035350446
1.1546742 -0.013262724 0.035347674
1.1651441 -0.013188618 0.035390224
1.1750733 -0.012964717 0.035253651
1.1848127 -0.012780772 0.035439834
1.1947877 -0.012803928 0.035813291
1.2047518 -0.012674128 0.035780951
1.2136862 -0.011931135 0.036480561
0.68457019 -0.0053008832 0.035559218
0.76943105 -0.0087883919 0.031477347
0.77592248 -0.0079378551 0.031143568
0.78553027 -0.008518192 0.031391714
0.79444802 -0.0088423733 0.031415977
0.80527371 -0.0084606949 0.031187616
0.81261724 -0.0091901096 0.031652682
0.82408196 -0.0081244092 0.031016385
0.83373904 -0.0090011125 0.031629644
0.84305608 -0.0094814915 0.031651199
0.85701263 -0.0094810575 0.031450167
0.86357981 -0.0087779928 0.030857626
0.87379134 -0.0090364432 0.030863186
0.88757145 -0.0088172872 0.030975888
0.89430755 -0.0091975722 0.030979753
0.90378964 -0.0086389584 0.030323958
0.9149251 -0.0086763371 0.030614965
0.9257375 -0.009242299 0.030739916
0.93643874 -0.0089366594 0.030703632
0.94551831 -0.0093928725 0.030653337
0.95395732 -0.0093419179 0.030604269
0.965666 -0.0091755586 0.030568015
0.97589505 -0.0093496498 0.030563161
0.98498553 -0.009225416 0.030553933
0.99393952 -0.0090285093 0.03057193
1.0076621 -0.0093283458 0.030680204
1.016619 -0.0089204824 0.030461127
1.0244017 -0.0093367305 0.030771516
1.0357049 -0.0090371845 0.030559216
1.0451638 -0.0090683764 0.030467296
1.0552387 -0.0092480183 0.030707149
1.0660638 -0.0089179426 0.030683562
1.0753353 -0.0091863256 0.031009104
1.0848486 -0.0095002502 0.030668449
1.0951153 -0.0090372795 0.030833226
1.1049227 -0.0091663348 0.030934192
1.1152085 -0.0092250593 0.030832775
1.1260978 -0.0086831953 0.030830443
1.1349854 -0.0087921191 0.030966228
1.1460934 -0.0088158818 0.031151278
1.1548402 -0.0088084089 0.031102277
1.1647294 -0.0087712714 0.031114778
1.1745833 -0.0088598384 0.031215791
1.1852422 -0.0085634701 0.031223625
1.1948484 -0.0083850659 0.031265926
1.2051022 -0.0083765537 0.031279575
1.2164685 -0.0071192631 0.033477809
1.2219549 -0.0039278204 0.03544838
0.68436676 0.0049752733 0.035313364
1.2198532 0.0049827397 0.031053185
1.2225772 0.0048286621 0.034856319
0.68437707 0.015153131 0.035308152
1.2225949 0.015116081 0.035048846
0.6843856 0.025179278 0.035399314
1.2196254 0.026577223 0.032294989
1.222648 0.025276612 0.034906402
0.68457365 0.035087749 0.035414387
0.77471173 0.038165849 0.031264417
0.78389418 0.038332969 0.03147452
0.79555219 0.038451787 0.031246781
0.80491918 0.038356598 0.031531718
0.81433916 0.038991205 0.031518597
0.82497191 0.038823672 0.031509083
0.83540761 0.038916674 0.031432822
0.84427828 0.038507491 0.030813072
0.85750693 0.039083585 0.031402119
0.86494565 0.038844787 0.031146858
0.87506521 0.038859464 0.031105567
0.88497782 0.039415803 0.030945236
0.89488029 0.039260205 0.031144623
0.90445238 0.039241098 0.031150365
0.91517407 0.039095156 0.030971527
0.92392719 0.038932353 0.030701512
0.93484676 0.039081801 0.03086553
0.94629598 0.039325789 0.030929707
0.95377195 0.039017074 0.03051264
0.96529722 0.039215438 0.030916771
0.97443742 0.039408334 0.030699898
0.98347521 0.039081667 0.030815503
0.99543911 0.038913287 0.030717172
1.0054343 0.039368898 0.03087843
1.0149815 0.039097883 0.030581329
1.0252831 0.038666286 0.030528214
1.0343405 0.03911851 0.030705666
1.0451925 0.039051514 0.030779704
1.054677 0.039231472 0.030914467
1.0653342 0.039059814 0.030769352
1.0752997 0.039000582 0.030780397
1.0836737 0.038831219 0.030688552
1.0951701 0.039066132 0.031262826
1.1052545 0.038783219 0.031059384
1.1142713 0.038632095 0.030853007
1.1243652 0.038888048 0.030948458
1.135353 0.038804229 0.031160779
1.1446466 0.038867909 0.031290341
1.15535 0.038712043 0.031144727
1.1651312 0.038393822 0.031266715
1.1751429 0.038596299 0.03132854
1.1847036 0.038432129 0.03135461
1.1947504 0.038431853 0.03157115
1.2051942 0.038240623 0.031637389
1.2161638 0.037039116 0.033527136
1.2218242 0.033659179 0.035672504
0.68598509 0.042568594 0.035240132
0.69397926 0.045452852 0.034607429
0.76800299 0.046862818 0.034862962
0.77516174 0.044385478 0.034687314
0.78522098 0.043728389 0.035287179
0.7951352 0.043992106 0.035259835
0.80518049 0.044096582 0.035239454
0.8155182 0.044409804 0.034945846
0.82519037 0.044405606 0.034998305
0.83484524 0.044554491 0.035101563
0.84462541 0.044697125 0.035462689
0.85463929 0.044658605 0.035138708
0.86511433 0.044876479 0.035340145
0.87509257 0.044645034 0.034947235
0.8849678 0.044592328 0.034864552
0.89482689 0.04478886 0.035012778
0.90516984 0.044569407 0.034667816
0.91514885 0.04462276 0.035055704
0.92496324 0.044951502 0.035144404
0.93479961 0.044708069 0.035071559
0.94515264 0.044642486 0.034747526
0.95517057 0.044852931 0.035222068
0.96500468 0.044823084 0.035232943
0.97515458 0.044658858 0.034915905
0.98493063 0.044586375 0.035117339
0.995049 0.04453098 0.034868531
1.0049242 0.044669054 0.035060927
1.0151441 0.044285651 0.035019524
1.0250158 0.044278171 0.034681123
1.0348219 0.044278815 0.03509656
1.0447696 0.044172961 0.035035718
1.0552722 0.044113874 0.034868233
1.0653515 0.044058904 0.035063088
1.0750387 0.043926131 0.034911741
1.085163 0.043734733 0.034888804
1.0951486 0.043927863 0.035209637
1.1051451 0.043634847 0.034989879
1.114949 0.04355792 0.035199363
1.1250209 0.043540198 0.035316061
1.1350871 0.04331148 0.03543222
1.1450924 0.043370627 0.035485368
1.1548418 0.042991258 0.035064302
1.1651442 0.042958673 0.035209652
1.1749285 0.042780071 0.035413533
1.1850666 0.042833522 0.035641488
1.1953093 0.042656578 0.035742186
1.2050147 0.042311255 0.035778884
1.2136601 0.041578796 0.036366329
0.69452685 0.055089988 0.03518654
0.76775384 0.055331878 0.035110224
0.77376246 0.054827068 0.034638554
0.6947009 0.064769462 0.035262432
0.76772982 0.065819047 0.034991954
0.77362788 0.06514205 0.034817457
0.69475496 0.075081348 0.035113756
0.76794529 0.075070076 0.034647949
0.77362245 0.075348459 0.034575213
0.69464284 0.085134849 0.034853101
0.76794946 0.084709495 0.034558173
0.77363783 0.08534757 0.034484386
0.69456601 0.095158257 0.034746069
0.76796031 0.094004475 0.034978203
0.77357036 0.094959043 0.034409132
0.69450909 0.10527608 0.034899369
0.76787019 0.10423177 0.034676608
0.77379918 0.10484644 0.03452491
0.69463384 0.11516502 0.034533121
0.70515239 0.11665751 0.031628199
0.71487957 0.11661776 0.031617425
0.7249462 0.11698321 0.031544846
0.73536694 0.11664563 0.031262025
0.74568993 0.11710219 0.031398043
0.7539804 0.11733762 0.031730678
0.7670449 0.11504297 0.03361769
0.77343178 0.11523248 0.03439628
0.69519585 0.12490274 0.034707323
0.7052834 0.1256543 0.033229895
0.71542758 0.12593298 0.033184156
0.72514397 0.12617518 0.033370171
0.73512924 0.12628882 0.033328701
0.74514163 0.1262953 0.033580519
0.7549628 0.12618069 0.033085477
0.76524359 0.12582691 0.034272943
0.77313399 0.12517336 0.034769483
0.69597554 0.13403974 0.036816388
0.70494699 0.13466991 0.036691889
0.71500242 0.13428766 0.03641716
0.724971 0.13455744 0.036696069
0.73509079 0.13463375 0.036820062
0.74524397 0.13443618 0.03654987
0.75533938 0.13457239 0.036727071
0.76473629 0.13465074 0.036837637
0.77195317 0.13338003 0.03627212
0.69668204 -0.092887558 0.044769224
0.7052598 -0.094165973 0.044833746
0.71536463 -0.094221912 0.044971861
0.7247324 -0.09422145 0.045329019
0.73501611 -0.094208322 0.045060989
0.74500513 -0.094206624 0.044571746
0.75517309 -0.094199203 0.045392551
0.76473248 -0.09352655 0.044979963
0.77235293 -0.092465937 0.044626817
0.69450063 -0.085021265 0.044995807
0.76798743 -0.084768474 0.045029238
0.77323455 -0.085164957 0.044826634
0.69472796 -0.074984543 0.045018341
0.7677449 -0.075125024 0.045425314
0.77317941 -0.075417213 0.044676494
0.69456893 -0.064808346 0.044729963
0.76806265 -0.065732434 0.045447845
0.77336437 -0.065285675 0.044615805
0.69442153 -0.054921109 0.044792611
0.76794761 -0.055219945 0.045697868
0.77360213 -0.054621663 0.044769417
0.69458932 -0.045135453 0.044938795
0.76791298 -0.044744994 0.045180891
0.77355653 -0.044853531 0.044889271
0.69439584 -0.035096068 0.044838242
0.767919 -0.034996927 0.044874549
0.77351731 -0.034724642 0.044697948
0.69458538 -0.024984432 0.044900153
0.76784527 -0.024618644 0.045889024
0.77350396 -0.024624869 0.044593975
0.68513215 -0.012190389 0.044254236
0.69396329 -0.015100461 0.04529563
0.76812333 -0.01615734 0.046495806
0.77543014 -0.015443164 0.045162488
0.78516406 -0.014859005 0.045635633
0.79529029 -0.015019642 0.04506943
0.80519205 -0.014926808 0.04571851
0.81508708 -0.015027143 0.045024004
0.82556438 -0.015203995 0.04491888
0.83530712 -0.014988644 0.045484632
0.84439194 -0.015144314 0.045318194
0.85516566 -0.015374411 0.044859026
0.8653971 -0.015170798 0.04542711
0.87527567 -0.015327735 0.045439608
0.88464409 -0.015567718 0.045385577
0.8947944 -0.015388556 0.045353346
0.90499312 -0.015663123 0.044946186
0.91498429 -0.015638851 0.045457657
0.92473763 -0.015733212 0.044612758
0.93511903 -0.015858773 0.044946738
0.94504273 -0.015727675 0.044948652
0.95518255 -0.015782746 0.044811681
0.96512872 -0.015681336 0.045309573
0.97520971 -0.015732763 0.04532592
0.98526269 -0.015660774 0.045037929
0.99511814 -0.015741231 0.045328509
1.0052178 -0.015696127 0.04490599
1.0153147 -0.015682217 0.045182314
1.0255148 -0.0154986 0.045329232
1.0351996 -0.015653685 0.044961408
1.0449326 -0.015437767 0.045381848
1.0550816 -0.015584035 0.044676524
1.0649788 -0.015396483 0.045184672
1.0747058 -0.015263327 0.045051374
1.0845708 -0.015282126 0.045168668
1.0946665 -0.015098802 0.044924986
1.1050272 -0.015182435 0.045024369
1.114961 -0.015009894 0.044607177
1.1251959 -0.014929702 0.044687971
1.1348336 -0.014564192 0.045410756
1.1450042 -0.014572239 0.045004159
1.1548716 -0.014512429 0.044671662
1.1650673 -0.0142873 0.044884373
1.1750158 -0.014203897 0.0449536
1.1850108 -0.013903813 0.045189776
1.1949571 -0.013956234 0.044708215
1.2049768 -0.013778426 0.044568837
1.2142035 -0.012279656 0.044581383
1.2207724 -0.011188964 0.041655533
0.6843484 -0.0049242727 0.045028258
0.69040561 -0.0095564313 0.048292391
0.81702542 -0.0094110966 0.049681112
0.8462525 -0.0099000409 0.049809784
0.87222028 -0.0099756718 0.049296875
0.88347089 -0.009934172 0.049386237
0.89594781 -0.0098341405 0.049481917
0.9045701 -0.0097229183 0.04968109
0.914666 -0.009647429 0.049621794
0.92473549 -0.0095689092 0.049734935
0.93020296 -0.0094833374 0.04970311
0.94148695 -0.0093430281 0.049828146
0.95342696 -0.0092470543 0.049870059
0.96801734 -0.0089865923 0.049969453
1.0047762 -0.0095275789 0.04990533
1.0128407 -0.0094230119 0.049393117
1.0293157 -0.0095350742 0.048888654
1.0307465 -0.0095590428 0.048783898
1.045974 -0.0090146512 0.049239233
1.0530045 -0.0090782642 0.049650725
1.0651274 -0.0089801326 0.049505275
1.0750411 -0.0086572021 0.049326338
1.093292 -0.0085177794 0.049206667
1.1045917 -0.0090762936 0.048855357
1.1157922 -0.0083228275 0.049370486
1.1250464 -0.0091900267 0.048493322
1.1366334 -0.0079972595 0.048557222
1.1443943 -0.0087729869 0.048585612
1.1536897 -0.0089401696 0.048855137
1.1648165 -0.0086141489 0.047589216
1.1734556 -0.0081500253 0.04886746
1.1851839 -0.009053573 0.047610566
1.1966978 -0.0083553363 0.04877333
1.2046329 -0.0081713889 0.048659015
1.2177933 -0.0081255622 0.046567176
1.2219568 -0.0041297842 0.04490447
0.68419117 0.0051952396 0.04510998
1.2227075 0.0048505557 0.045298334
0.68422186 0.015238147 0.045112249
1.2196448 0.014222503 0.04337189
1.2225778 0.014953028 0.045499317
0.68431026 0.025272692 0.044969853
1.2198869 0.025954962 0.046164155
1.2227329 0.0249415 0.045119163
0.68436676 0.035532936 0.045122806
0.69218987 0.038840458 0.049283992
0.78415686 0.039431691 0.049432281
0.80521929 0.039263785 0.049947083
0.81525183 0.039138377 0.049568012
0.82232755 0.039309375 0.049784206
0.83333164 0.039475888 0.049970403
0.84470385 0.039940625 0.049494386
0.8577584 0.039675839 0.049538311
0.86836833 0.039875448 0.049233813
0.87870973 0.039902478 0.04931559
0.89330512 0.039721675 0.049698543
0.90359306 0.039737843 0.049467154
0.91671628 0.03959021 0.049607161
0.92584765 0.039445937 0.049635995
0.93614459 0.039389953 0.049752478
0.94952393 0.039338619 0.049866609
0.95271862 0.03959474 0.049854621
0.96329731 0.039019942 0.049899299
0.97465515 0.039242022 0.049804322
0.98960948 0.039816387 0.049262851
0.99713725 0.03969606 0.049179923
1.0066969 0.039792001 0.049543172
1.019011 0.039519988 0.049924076
1.0229532 0.039861679 0.048789576
1.0348047 0.038649172 0.049806267
1.0464107 0.038789749 0.049722761
1.0551 0.039258182 0.049551383
1.0648296 0.038131893 0.049822815
1.0851986 0.038975604 0.048918188
1.0960467 0.039506167 0.0490405
1.106117 0.038538858 0.049384277
1.1171149 0.039051563 0.049004301
1.1240997 0.039033629 0.048432779
1.1369478 0.03914804 0.048998311
1.1426768 0.039244447 0.048694294
1.1548469 0.038290761 0.049158644
1.1661885 0.038796201 0.048198499
1.1744016 0.037952557 0.048996903
1.1833547 0.038399238 0.048568822
1.1949492 0.03768152 0.048583262
1.2038863 0.038678084 0.04881227
1.2175032 0.038202181 0.046149902
1.2219739 0.034046218 0.044904303
0.6852172 0.042045522 0.044456657
0.69401234 0.045419723 0.045035463
0.76823443 0.046457309 0.045610126
0.77517116 0.045667116 0.044953216
0.78501064 0.044929646 0.045112759
0.79468405 0.044878442 0.045032661
0.80519193 0.044816334 0.045122687
0.81580222 0.044966131 0.045077831
0.8248266 0.044876795 0.045357
0.83444566 0.044874806 0.045301538
0.84451389 0.045221239 0.044935439
0.85514289 0.045408797 0.044955883
0.86517155 0.045232676 0.045202348
0.87528878 0.045285258 0.045001701
0.88490677 0.045301206 0.04519365
0.89489299 0.045439102 0.045132436
0.90515423 0.045491785 0.045028884
0.91505355 0.04557671 0.044673093
0.92505115 0.045387723 0.045256644
0.93491662 0.045503553 0.045080204
0.94496518 0.045642592 0.045141269
0.95507532 0.045665585 0.04489981
0.96498811 0.045506693 0.044960983
0.97496736 0.045584578 0.045147464
0.98503244 0.045467056 0.04552542
0.99510074 0.045473341 0.044900686
1.0049335 0.045499243 0.045086715
1.0150274 0.045615293 0.04458848
1.0247235 0.045508053 0.044669684
1.0351417 0.045398969 0.044832893
1.0452366 0.045209482 0.04515522
1.0551537 0.045263033 0.04522302
1.0652332 0.045176946 0.04493276
1.0748007 0.045090079 0.044973701
1.0847051 0.045012452 0.045046672
1.0947585 0.044862777 0.045115732
1.1049461 0.044820286 0.045067042
1.1150056 0.044594914 0.045497414
1.1251513 0.044637982 0.045057777
1.1352342 0.044502426 0.044898611
1.1451805 0.044416141 0.044936709
1.1549126 0.044280045 0.044941608
1.1650771 0.044077504 0.045096975
1.1750042 0.043790545 0.044969767
1.185037 0.043718006 0.044993177
1.1947964 0.043600455 0.044822175
1.2047921 0.043401212 0.044732586
1.2139577 0.042029191 0.044882853
0.69474041 0.055144683 0.045016482
0.76782799 0.055607155 0.045237701
0.77320206 0.055407345 0.044957127
0.69451791 0.064951919 0.044706337
0.76788902 0.065365836 0.045236617
0.77339053 0.065204293 0.044673942
0.69448447 0.074914075 0.044709075
0.76796794 0.075196289 0.045811746
0.77335268 0.075410001 0.044531256
0.69470328 0.084971577 0.044893648
0.7680409 0.084511206 0.045074131
0.77326834 0.085325979 0.044615846
0.69450748 0.09549392 0.044895001
0.76780546 0.094584219 0.04526094
0.77335858 0.094712108 0.044772986
0.69449031 0.10511542 0.044827823
0.76792359 0.10482001 0.045028932
0.77330315 0.10471001 0.044862017
0.69486403 0.11469238 0.045024786
0.70758331 0.11956123 0.049878966
0.71143246 0.11967242 0.049507421
0.72586238 0.11967558 0.049782492
0.73605865 0.11937044 0.049847238
0.74604422 0.11953713 0.049859226
0.75955647 0.11937959 0.0497941
0.76780915 0.11504393 0.045378324
0.77342719 0.1150326 0.044743422
0.69520128 0.12459253 0.045401528
0.70507455 0.12623739 0.047421802
0.71499413 0.12601216 0.047819678
0.72509253 0.12611863 0.04738358
0.73529321 0.12634608 0.047492269
0.74517578 0.12615319 0.047476877
0.75532466 0.12597485 0.047479309
0.76589876 0.12553516 0.046119731
0.7734167 0.12495857 0.044704042
0.69574285 0.13392141 0.04361394
0.70465475 0.13448246 0.043712009
0.71474165 0.13469449 0.043771416
0.72495121 0.13456683 0.043786258
0.73507935 0.13463753 0.044054475
0.74489987 0.13466908 0.043731119
0.75473011 0.13476953 0.043623824
0.76470524 0.13457002 0.043998431
0.77299339 0.13349082 0.044312771
0.69672036 -0.093112804 0.055235483
0.7048403 -0.094138265 0.054979865
0.71484238 -0.094163485 0.055291142
0.72527224 -0.094148621 0.055026323
0.73495108 -0.094159551 0.054955624
0.74478835 -0.094165355 0.054979488
0.75511771 -0.094159923 0.055071723
0.76470852 -0.09368284 0.054846875
0.77215904 -0.092619099 0.055518512
0.69477719 -0.085319921 0.055255953
0.76789129 -0.085329033 0.055274881
0.77333689 -0.085533023 0.054827143
0.69440705 -0.075050734 0.054780141
0.76810622 -0.075142577 0.055201873
0.77361226 -0.075434677 0.055037223
0.69437176 -0.064700395 0.054933488
0.76807904 -0.064769775 0.05564722
0.77357966 -0.064888552 0.054741211
0.69464111 -0.055055555 0.054583456
0.76790929 -0.054753564 0.056074165
0.77360606 -0.05485383 0.054843199
0.69459164 -0.044700999 0.054802381
0.76798648 -0.044886392 0.055774119
0.77362156 -0.044966828 0.054749433
0.69448453 -0.035126925 0.055010498
0.76778573 -0.035033785 0.055659145
0.77332401 -0.034844864 0.054808158
0.69453806 -0.025103005 0.054956011
0.76790899 -0.024792053 0.055404287
0.77330202 -0.024996422 0.054829404
0.69419593 -0.014924739 0.055285342
0.76810616 -0.014548938 0.054610733
0.77422965 -0.013551028 0.05392734
0.7850787 -0.012408651 0.052629601
0.79405767 -0.012168701 0.052666057
0.80388284 -0.012075976 0.053204197
0.81499046 -0.012232633 0.053209271
0.82543457 -0.01228151 0.053394932
0.83610362 -0.012275968 0.053748824
0.84577286 -0.012691514 0.053262714
0.85481191 -0.012321903 0.053244721
0.8650431 -0.012648726 0.053303901
0.87466025 -0.012418927 0.053574637
0.88449532 -0.012645886 0.053287551
0.89493418 -0.012522291 0.053071011
0.90527016 -0.012688356 0.053238198
0.91546303 -0.01266386 0.053700525
0.92510855 -0.012943314 0.05350342
0.93461967 -0.01257212 0.053523935
0.94532132 -0.012871792 0.053205725
0.95558947 -0.012643164 0.053621825
0.96493894 -0.012995746 0.053316291
0.97482938 -0.012692403 0.053505562
0.98503953 -0.012675459 0.053182598
0.99469894 -0.012948429 0.053156946
1.0048306 -0.012984633 0.053334288
1.0150158 -0.012776675 0.053405385
1.0251093 -0.012732221 0.053143319
1.0348839 -0.012793276 0.053292423
1.0449727 -0.012670418 0.053356212
1.055155 -0.012566563 0.053243954
1.0654472 -0.012476318 0.053435951
1.0750331 -0.012528972 0.052928414
1.0851218 -0.012268302 0.053058852
1.0947133 -0.012325537 0.052961677
1.1050606 -0.012203863 0.053077973
1.1151081 -0.01233134 0.052876804
1.1249191 -0.012585532 0.052500058
1.135402 -0.012218975 0.052735813
1.1451592 -0.012169795 0.052571654
1.154893 -0.012042078 0.052424852
1.1648568 -0.011902994 0.052542824
1.1750491 -0.011575826 0.052633125
1.1850896 -0.011809212 0.052160211
1.1949573 -0.011647698 0.051983919
1.2050831 -0.011392467 0.052165989
1.2129716 -0.01102347 0.051431369
0.68513614 -0.0040001404 0.053334143
0.69344604 -0.0056668748 0.055279929
0.76836365 -0.0063735675 0.056903504
0.77555794 -0.0057297996 0.057159644
0.78535509 -0.0058438196 0.056365795
0.79487163 -0.0055012703 0.056428343
0.80506581 -0.0054482529 0.056110684
0.81524992 -0.0053210938 0.056011777
0.82530046 -0.0057030101 0.055868257
0.83513355 -0.0053153103 0.056187764
0.84526056 -0.0060880631 0.055747114
0.85504049 -0.006152438 0.055879615
0.86563349 -0.005738833 0.056500912
0.8750459 -0.0055191219 0.056256555
0.88545883 -0.0055521927 0.056155078
0.89514321 -0.0058214022 0.056617256
0.90507746 -0.0061775944 0.056384366
0.91497308 -0.005735782 0.056627937
0.9247579 -0.0056918296 0.056185346
0.9351697 -0.0057046004 0.056395974
0.94517559 -0.006154228 0.056609336
0.95556802 -0.0057701385 0.056499783
0.9650259 -0.0058121486 0.056905221
0.97437525 -0.0062910984 0.05611011
0.98495972 -0.0062173172 0.056645729
0.99528402 -0.0061163753 0.056341272
1.0054364 -0.0064015975 0.056367617
1.015179 -0.0061492245 0.056467086
1.0251547 -0.0061368155 0.056583617
1.0349301 -0.0063361609 0.056453913
1.0449963 -0.0061328183 0.056668088
1.0546342 -0.0064827502 0.056311216
1.0651551 -0.0063980571 0.056721345
1.0750457 -0.0060895258 0.056677345
1.0847445 -0.0057097757 0.056976251
1.0953449 -0.006084139 0.057009425
1.1050667 -0.0060466104 0.056412295
1.1152123 -0.0062080938 0.05632278
1.1251929 -0.006271767 0.056732435
1.1348873 -0.0058579608 0.056713115
1.1452403 -0.0059361765 0.056596387
1.1549777 -0.0059276763 0.056709755
1.1649764 -0.0057715224 0.056435905
1.1748602 -0.0056408565 0.056603491
1.1849231 -0.0055194702 0.05652526
1.1949061 -0.0054319166 0.056626003
1.2051086 -0.0055580023 0.056218415
1.2148356 -0.0049511851 0.05465271
1.2215314 -0.0022588661 0.051855236
0.68471044 0.0052288813 0.055175845
0.69299304 0.0048400788 0.05796925
0.76857859 0.00090602337 0.059152044
0.77604109 0.0032927457 0.058998071
0.78479695 0.004216101 0.058672938
0.79508805 0.0037977779 0.05853695
0.80519366 0.0045681535 0.058425818
0.81530374 0.0038625365 0.05840452
0.82451522 0.0045728204 0.058076341
0.83509558 0.0044786353 0.058066867
0.84483379 0.0042888098 0.058119588
0.85424882 0.0037727293 0.05844098
0.8650263 0.0044232924 0.058071919
0.87691772 0.0042195292 0.058552824
0.88557953 0.0044351965 0.058347385
0.89586842 0.0042992597 0.058430471
0.90583146 0.0038266475 0.058302667
0.91410166 0.0042961352 0.058219776
0.92463118 0.0039729355 0.057897806
0.93455178 0.004828366 0.058119263
0.94514799 0.0040741283 0.058267318
0.95489162 0.0046706502 0.058019638
0.96584892 0.0040658792 0.058140866
0.97586638 0.0039000695 0.0582719
0.98504716 0.0039571966 0.058254898
0.99386817 0.004736885 0.058434132
1.0050002 0.0039924677 0.058106754
1.0161263 0.0036081111 0.057967287
1.0265802 0.0052647502 0.057884909
1.0358675 0.0044843308 0.058171671
1.0458081 0.0038669473 0.057468206
1.0540473 0.0042595724 0.058235109
1.0651176 0.0048736273 0.057993114
1.0742065 0.0038530489 0.057777025
1.0843155 0.0039723264 0.058015708
1.0948172 0.0049205725 0.05777343
1.1049186 0.0051122792 0.05794083
1.1151701 0.0045266007 0.057592928
1.1255997 0.0041977311 0.058152474
1.1354434 0.0043695453 0.057815924
1.1449288 0.0039130719 0.057320703
1.1552434 0.0042670821 0.057765327
1.1649674 0.0040895464 0.057426769
1.1746843 0.0036510008 0.057447944
1.1838562 0.0038324599 0.057297718
1.194147 0.0047648447 0.057837583
1.2051712 0.0048188115 0.057840962
1.2163825 0.004181412 0.057738818
1.2219503 0.0053809918 0.053770065
0.68465441 0.015102007 0.055699583
0.6925419 0.015167613 0.058612157
0.76805669 0.019726872 0.059729815
0.77755219 0.014192807 0.059386242
0.78539646 0.015767952 0.059084058
0.7955336 0.014108677 0.058880195
0.80504918 0.015255791 0.058851119
0.81452596 0.014856739 0.058760088
0.82495522 0.01516129 0.058928289
0.83402014 0.015335449 0.058780711
0.84436256 0.01495001 0.058765385
