# .PCD v0.7 - Point Cloud Data file format
VERSION 0.7
FIELDS x y z
SIZE 4 4 4
TYPE F F F
COUNT 1 1 1
WIDTH 1418
HEIGHT 1
VIEWPOINT 0 0 0 1 0 0 0
POINTS 1418
DATA ascii
0.022238797 0.13454106 0.055389795
0.21975502 0.13163638 0.059314083
0.22443497 0.13485944 0.054991193
0.018726457 0.14561912 0.053740826
0.021286253 0.1443769 0.056239169
0.22610283 0.14493342 0.055048294
0.018094482 0.1554427 0.054251127
0.020733621 0.15390244 0.057194881
0.22710703 0.15483326 0.055345166
0.23067991 0.15607555 0.051982358
0.017904736 0.16477576 0.054481659
0.020594265 0.16574778 0.058072738
0.22751676 0.16495501 0.055313155
0.23086865 0.16418846 0.052333746
0.01850188 0.17438263 0.053875729
0.021048307 0.17558368 0.056492839
0.22643417 0.17497815 0.055078544
0.23054728 0.17381345 0.050942715
0.018945901 0.18408866 0.053504776
0.021708084 0.18535087 0.055695333
0.22528546 0.18502134 0.054873586
0.01933419 0.1920235 0.052565265
0.023983555 0.1950736 0.05498156
0.21910176 0.19769275 0.056998763
0.22289877 0.19452485 0.054598954
0.027403418 0.20446092 0.054551207
0.030988405 0.2079214 0.057102088
0.21743752 0.20555118 0.055346891
0.22111559 0.20276028 0.053288937
0.0288902 0.21256992 0.053066004
0.03332404 0.21545973 0.055318229
0.040114373 0.21991038 0.059392631
0.20885313 0.21833882 0.056880206
0.21380946 0.21478286 0.054864891
0.037591707 0.22306524 0.054168273
0.042464159 0.22702125 0.055664442
0.19935463 0.2296204 0.058318183
0.20567337 0.22534882 0.055082005
0.21115436 0.22153616 0.052937459
0.046501517 0.23406771 0.054547612
0.052425496 0.23809698 0.055987049
0.18929601 0.2393107 0.057688493
0.19625762 0.23650432 0.055468947
0.20187829 0.23248424 0.053861655
0.048276834 0.24045715 0.050547525
0.056498714 0.24288356 0.054449562
0.063755259 0.24719155 0.055671778
0.070378736 0.24961273 0.058636874
0.17845203 0.24880303 0.057051793
0.1852418 0.24557991 0.055138011
0.19210079 0.24183246 0.053744353
0.06737572 0.25182939 0.05391008
0.074872255 0.25484189 0.054996174
0.084015884 0.25805372 0.055818338
0.091597751 0.25954777 0.058716487
0.15763731 0.25892591 0.056968879
0.16533163 0.25715944 0.055318803
0.17482787 0.25339198 0.054800343
0.18151031 0.25114259 0.052508093
0.079269566 0.26016134 0.051639561
0.087112382 0.2611692 0.053241424
0.094974756 0.26295361 0.054862887
0.10501351 0.26464343 0.055194732
0.11502504 0.26599547 0.054977
0.12502541 0.26680318 0.054989636
0.13497537 0.26569381 0.055124126
0.1449587 0.26436299 0.055012494
0.15439382 0.26224566 0.054553494
0.16175607 0.26081842 0.052484475
0.12670353 0.28825757 0.054903582
0.13199174 0.28823429 0.054871995
0.1270538 0.29335293 0.055143692
0.13205963 0.29314879 0.055137582
0.1080515 0.038844388 0.06779509
0.11336435 0.038576119 0.068008281
0.099747509 0.049542703 0.069361836
0.1055714 0.045196466 0.065159991
0.11571878 0.043549318 0.064553075
0.12166519 0.047090348 0.066333994
0.099730216 0.055897906 0.065392971
0.10243718 0.054718573 0.064940006
0.11937533 0.054994795 0.065180078
0.12342324 0.055688303 0.064115144
0.13424654 0.059400041 0.062630698
0.14301693 0.05970262 0.061822198
0.077956975 0.069277331 0.062991053
0.085537232 0.067636408 0.064507999
0.094689205 0.064369924 0.064916819
0.10193916 0.062291343 0.065750666
0.11637613 0.060920715 0.067649692
0.12637933 0.061063424 0.06665308
0.13532238 0.06167911 0.065641023
0.14520608 0.062686168 0.065005362
0.15487994 0.065377004 0.064896382
0.163592 0.06829159 0.064012229
0.17122714 0.069444045 0.061858896
0.058315288 0.079524457 0.061304461
0.066299975 0.077144593 0.064325199
0.074523568 0.07282038 0.065227158
0.08214882 0.070855692 0.067323379
0.15881918 0.070448667 0.069222569
0.16696799 0.071400553 0.066248216
0.17520845 0.07452257 0.065013811
0.18229632 0.078274034 0.063687362
0.04881778 0.088782765 0.062683187
0.055483054 0.085833177 0.064709656
0.062546775 0.081822515 0.066292822
0.17923008 0.080731131 0.068256594
0.18603851 0.08305686 0.065413617
0.1931956 0.08730986 0.064386651
0.039364293 0.099566504 0.062648252
0.0460798 0.095430464 0.064742818
0.051468037 0.091412894 0.066703439
0.19738695 0.093430802 0.065545611
0.20216337 0.09704423 0.063836969
0.037229579 0.10638754 0.064315647
0.041961096 0.10239199 0.065821752
0.19979572 0.10029228 0.069335282
0.20619498 0.10435916 0.065230414
0.21143611 0.10795319 0.063551612
0.028989583 0.11801922 0.063146211
0.033281852 0.11445122 0.065157309
0.20917642 0.11130664 0.067390531
0.21349788 0.11502977 0.064842775
0.027656723 0.12605166 0.064261116
0.031133065 0.12266948 0.066524677
0.21695288 0.12464841 0.065091543
0.22091544 0.12751517 0.063081302
0.019482855 0.1394244 0.060392573
0.024760634 0.13517527 0.065113604
0.21893959 0.13332245 0.066722229
0.2220166 0.13558558 0.064506151
0.019584542 0.14722195 0.062012222
0.02317087 0.14491303 0.06511806
0.21969354 0.14290227 0.068477131
0.22306925 0.14488611 0.064931117
0.019175068 0.15602508 0.06262511
0.022167196 0.15472972 0.065475509
0.22435798 0.15494215 0.065078504
0.01904944 0.16428122 0.062963843
0.021889687 0.16501313 0.06548062
0.22487733 0.16486607 0.064896025
0.0192376 0.17344551 0.061758656
0.022747682 0.17490058 0.065064915
0.21983795 0.17752467 0.068837881
0.22355518 0.17491812 0.065027259
0.019657241 0.18155524 0.060987823
0.024036448 0.18526487 0.065100178
0.21940443 0.18696116 0.067871004
0.22246291 0.18499362 0.064707957
0.026797561 0.19498397 0.064588346
0.030677252 0.19840221 0.06746766
0.21790221 0.19597112 0.065454975
0.22136359 0.19318768 0.063516587
0.028678011 0.20311181 0.063376166
0.032155856 0.20602745 0.065495595
0.2090826 0.20988728 0.069364548
0.21475165 0.20529212 0.064845987
0.22024664 0.20095119 0.06194254
0.02960901 0.21139124 0.063651025
0.035855144 0.21480738 0.064760484
0.040941089 0.21828808 0.067465767
0.20768754 0.21664284 0.06589397
0.21209724 0.21346986 0.064089939
0.038663477 0.22155111 0.062628761
0.044215169 0.22532997 0.065130956
0.050228193 0.22872379 0.069638968
0.19843329 0.22791488 0.066271357
0.2036365 0.22409269 0.064534262
0.21006985 0.22057965 0.060757946
0.047951821 0.23236552 0.063859336
0.05412722 0.2363195 0.065262929
0.060871825 0.23957881 0.067433357
0.18795384 0.23833068 0.066485234
0.19459301 0.23470674 0.064721458
0.20083287 0.23106226 0.062559403
0.057982016 0.24154502 0.063360363
0.064886495 0.24495228 0.065081209
0.071917884 0.24879518 0.066642605
0.1695389 0.24955992 0.067761816
0.17672138 0.24757078 0.06577868
0.18394275 0.24342074 0.064553268
0.19088173 0.24064577 0.061892498
0.068711907 0.25076884 0.062848054
0.075499035 0.25227147 0.06435141
0.084764287 0.25569841 0.065007642
0.093703903 0.25857681 0.066000141
0.10335716 0.25954652 0.068523183
0.13617823 0.25975823 0.06869223
0.14661916 0.25935018 0.067509525
0.15576299 0.2576727 0.065526597
0.16502012 0.25432408 0.064946055
0.17316449 0.25158435 0.064232156
0.089088567 0.26057512 0.06120348
0.096462727 0.26126772 0.063439637
0.10512217 0.26181018 0.064704396
0.11513954 0.2630735 0.065042831
0.12505665 0.26385528 0.064873964
0.13480182 0.26282823 0.064868636
0.14475301 0.26172039 0.064443819
0.15244296 0.26099828 0.062953107
0.12665233 0.28914014 0.064772353
0.13213997 0.28913394 0.064621575
0.12684359 0.29415223 0.065092251
0.13202684 0.29400498 0.06530831
0.1066848 0.036816642 0.07588242
0.11466926 0.035955839 0.075336121
0.12146467 0.038495649 0.077173539
0.099714279 0.047260672 0.076161057
0.10323601 0.044392593 0.074734628
0.11865214 0.042380333 0.073657535
0.1219708 0.045363117 0.075240269
0.099572077 0.053557284 0.07366702
0.10240858 0.054911979 0.075115301
0.11949392 0.056076672 0.076696746
0.1219507 0.054525539 0.07415396
0.087570868 0.068835922 0.072931625
0.094983913 0.067329176 0.074806251
0.10336097 0.064229511 0.075597018
0.11843771 0.062243178 0.076521084
0.1254008 0.0628151 0.074931212
0.13501973 0.064253755 0.075052932
0.14513332 0.065721951 0.07507164
0.15410127 0.067852683 0.07436756
0.16163497 0.06923651 0.072051406
0.068081565 0.078602165 0.073439874
0.074934773 0.075658895 0.074886188
0.084346354 0.072060362 0.075564735
0.091212407 0.070565 0.077702925
0.15746726 0.071116194 0.076718934
0.16518684 0.073063098 0.075137906
0.1741575 0.076955944 0.074616581
0.18069333 0.079340793 0.072372951
0.057064284 0.087738216 0.074080981
0.064224981 0.083452992 0.075337037
0.070793502 0.080878772 0.07823009
0.17803048 0.081514791 0.075959146
0.18479034 0.085334174 0.075037301
0.19170912 0.088681176 0.073261738
0.047794338 0.096994974 0.074030884
0.052907955 0.092990182 0.075633019
0.18886389 0.091150641 0.077929087
0.19517076 0.094578162 0.074988306
0.2012402 0.098521009 0.07253927
0.038377225 0.10798243 0.073414207
0.043653253 0.10433258 0.075274371
0.050077885 0.1008281 0.07932812
0.19862641 0.10156088 0.076798074
0.20402509 0.10546144 0.074711703
0.21029374 0.10877247 0.071396217
0.029440112 0.11779063 0.070457965
0.035971962 0.11507968 0.074863292
0.040714134 0.11126839 0.078300081
0.20810457 0.11343831 0.075881951
0.21183802 0.11625883 0.073912345
0.028923674 0.12750803 0.07323876
0.032476507 0.12448922 0.075201347
0.20963413 0.12089859 0.078233749
0.21436819 0.12508111 0.074677631
0.2201591 0.12918386 0.070468172
0.027432038 0.135483 0.074499004
0.030957444 0.13236257 0.07752689
0.21756098 0.13471924 0.075245231
0.22118828 0.13679728 0.072901592
0.025963271 0.14491782 0.074914604
0.21872881 0.14466093 0.076134391
0.22135669 0.14543876 0.07355693
0.01991339 0.1596375 0.073262095
0.024666436 0.15498552 0.074953012
0.21923926 0.1541463 0.07740543
0.2219353 0.15519753 0.07406766
0.019261077 0.16308716 0.072017789
0.024266526 0.16485144 0.075056843
0.21931553 0.16638114 0.077488519
0.22209045 0.16475429 0.074535295
0.025401479 0.17478147 0.074881062
0.21888849 0.17552367 0.07661058
0.2215849 0.1744583 0.073911481
0.026796279 0.18503761 0.074822582
0.030530592 0.18859537 0.078565523
0.2182409 0.18560877 0.07546334
0.22115791 0.18388215 0.073550873
0.028452521 0.19352281 0.073660076
0.031676233 0.19610253 0.075964369
0.21568328 0.19513382 0.074919365
0.22058555 0.19109128 0.072350115
0.029311746 0.20114708 0.071779817
0.034574464 0.20522818 0.074922368
0.20882104 0.20731184 0.076602258
0.21250546 0.20436342 0.074419007
0.0375413 0.2131476 0.074294269
0.042293515 0.21704814 0.075800516
0.19911742 0.21956666 0.077432111
0.20577964 0.21528117 0.075165547
0.2110348 0.21194622 0.07294102
0.038738348 0.22025882 0.071993232
0.046323657 0.22417757 0.074430309
0.051438157 0.22814088 0.076412708
0.19685964 0.22630812 0.075605333
0.20192355 0.22256656 0.073701411
0.048916724 0.23115543 0.072737962
0.055404507 0.23419663 0.074767753
0.062145799 0.23811458 0.076138146
0.17892744 0.23946919 0.078741483
0.18618706 0.23686254 0.075441562
0.19303401 0.23275237 0.074142776
0.059457723 0.24051298 0.072579771
0.066301033 0.24294052 0.07438983
0.074120291 0.24740061 0.075530507
0.081458122 0.24926238 0.078185365
0.16716 0.24883185 0.076560147
0.17521234 0.2456343 0.075214647
0.18247631 0.24176596 0.073823489
0.077376954 0.25091642 0.073101126
0.085190333 0.25287172 0.074652888
0.094738543 0.25649133 0.075039893
0.10475042 0.25836724 0.075408183
0.11428242 0.25895187 0.076687016
0.12536325 0.25929007 0.077606335
0.13553281 0.25891155 0.07621289
0.14532869 0.25800291 0.075486422
0.15514755 0.25517684 0.074901484
0.16434218 0.25186357 0.074336551
0.17148197 0.25053906 0.072629072
0.097294174 0.26026219 0.071426496
0.10609758 0.26070347 0.072347857
0.11563347 0.26101729 0.073564813
0.12482884 0.26136652 0.074071467
0.13437037 0.26098931 0.072999604
0.14320159 0.26060113 0.071722731
0.15005302 0.26001769 0.072471589
0.12656902 0.28876346 0.075044565
0.13199997 0.28878304 0.075841509
0.1268895 0.29375976 0.0748199
0.13197365 0.29373008 0.074881554
0.10748679 0.028560255 0.087195836
0.11396491 0.028193761 0.08697246
0.12098805 0.029641844 0.087759107
0.099464566 0.038606003 0.088012829
0.10461815 0.034642026 0.08503329
0.11626541 0.03284153 0.083832249
0.12179506 0.036395185 0.085760288
0.099538676 0.044293925 0.085139371
0.10230868 0.044755839 0.084943593
0.11949768 0.047479268 0.086301669
0.12207168 0.044593669 0.084705643
0.099756718 0.051095065 0.08296182
0.10430795 0.054976538 0.08518713
0.11728426 0.056061938 0.086255707
0.12136421 0.054243732 0.084153876
0.096691698 0.068795644 0.08328186
0.10544214 0.066491053 0.084407181
0.11493306 0.065319575 0.085572734
0.12500651 0.06588015 0.08509548
0.13490631 0.067224979 0.085023694
0.14460307 0.06823501 0.084396832
0.1524725 0.069060154 0.082946382
0.069275133 0.079076357 0.082568564
0.076096721 0.077850848 0.084215797
0.08490932 0.074630708 0.085124999
0.093614459 0.071702756 0.085901201
0.10214016 0.070429124 0.088537596
0.13768573 0.070265733 0.088983335
0.14686978 0.070755415 0.087476619
0.15552369 0.072562791 0.085428968
0.16492078 0.07599847 0.085016981
0.17242408 0.07846114 0.083756171
0.058802996 0.088705994 0.082841597
0.065396614 0.085777722 0.084799618
0.072629735 0.081627637 0.086349882
0.16862665 0.080436803 0.089195676
0.17611554 0.083099775 0.08562851
0.18340439 0.087382175 0.084473394
0.19026344 0.089329027 0.080892771
0.048771806 0.098730661 0.083535627
0.054748945 0.094712362 0.085037507
0.06125544 0.091079593 0.087108381
0.18737619 0.092130803 0.085965686
0.19324993 0.096112363 0.084572509
0.20020986 0.099518508 0.08072567
0.038993817 0.10880617 0.081314482
0.045975439 0.10524673 0.08476384
0.051091343 0.10141403 0.086459696
0.19735691 0.10324014 0.085635424
0.20221083 0.10699327 0.08428622
0.037964642 0.11616574 0.084369496
0.041875731 0.11288284 0.086134814
0.19992094 0.11020777 0.087957308
0.20601533 0.11447235 0.085214369
0.21103565 0.11809967 0.082121462
0.028984558 0.12798758 0.081378624
0.03495317 0.1251625 0.084981374
0.040080577 0.12002221 0.089051485
0.20869468 0.12316915 0.086249948
0.21211666 0.12607163 0.084351532
0.028690953 0.1365003 0.083147272
0.032014396 0.13434903 0.085851617
0.21490961 0.13499917 0.085036337
0.220066 0.13891821 0.081506863
0.028234297 0.14519723 0.084130377
0.030909209 0.14444116 0.087066486
0.21686347 0.1448445 0.085073024
0.22065067 0.1465079 0.081655763
0.027515138 0.15512234 0.084716305
0.030467967 0.15362906 0.088345341
0.21773957 0.15479028 0.085422479
0.22094405 0.15595324 0.082885489
0.02725989 0.1648137 0.085057087
0.030264053 0.16705799 0.088672951
0.21811882 0.16500036 0.085515
0.22121765 0.1647374 0.083107926
0.028069908 0.17476504 0.084374607
0.030792391 0.17614692 0.087711766
0.21713771 0.17508985 0.085326061
0.2205667 0.17432988 0.082563005
0.02850507 0.18412745 0.083720423
0.031411234 0.1858964 0.086161293
0.21597366 0.18518424 0.085018337
0.2203013 0.18305723 0.081191868
0.029434673 0.19229358 0.082574382
0.033755817 0.19538188 0.085152745
0.20914337 0.19784762 0.087153308
0.21299145 0.19467768 0.084683299
0.037136383 0.20473854 0.084642172
0.040778752 0.20804167 0.086972207
0.20759703 0.20572597 0.085223116
0.21122311 0.20310041 0.083373465
0.038836338 0.21191642 0.083495915
0.044083532 0.21531668 0.085177138
0.050139479 0.2197462 0.087132648
0.19839314 0.21806023 0.086551115
0.20352396 0.21420442 0.08467143
0.21021636 0.210686 0.081745386
0.047951717 0.22254983 0.084006451
0.052925207 0.22633538 0.085568689
0.1888032 0.22900659 0.087960295
0.19489402 0.22488362 0.084992036
0.20122984 0.22100705 0.081886046
0.056849435 0.23218635 0.084106341
0.064157993 0.23655044 0.085481539
0.070664354 0.23923352 0.088254325
0.17782803 0.23835906 0.086584546
0.18479495 0.23486111 0.084889472
0.19169861 0.23125954 0.08323697
0.068021253 0.24165885 0.083504111
0.074830733 0.2447798 0.084920131
0.083788425 0.24829507 0.085798018
0.090901867 0.24955431 0.088534281
0.15770437 0.24906565 0.087102331
0.1655183 0.24724428 0.085436031
0.17416099 0.24326994 0.084598579
0.18117845 0.24070762 0.081635773
0.079666525 0.25016844 0.080099225
0.086862244 0.2513057 0.083567031
0.094939157 0.25345144 0.084924683
0.10492813 0.25567165 0.085062966
0.11514723 0.25702745 0.084903009
0.12506902 0.25773227 0.085054979
0.13513309 0.25673255 0.084878206
0.14517094 0.25519145 0.085043922
0.15450822 0.25250956 0.084523812
0.16205455 0.25082642 0.082601659
0.11689804 0.26039076 0.081219502
0.12375408 0.26066196 0.081369877
0.13053495 0.26032448 0.080716178
0.12634917 0.28719565 0.085736722
0.13186772 0.28778613 0.085734837
0.12692426 0.29246995 0.084761567
0.1318526 0.29258576 0.084786355
0.10928348 0.019336604 0.099841818
0.11270209 0.019455761 0.098645814
0.099679329 0.02886951 0.099645853
0.105864 0.025956212 0.095585473
0.11517203 0.024791194 0.095183879
0.12153625 0.027803019 0.096827343
0.099619031 0.036230344 0.094894782
0.10247407 0.03481112 0.094762653
0.11926048 0.033536553 0.09403903
0.12199888 0.034642931 0.095056184
0.099387422 0.041907206 0.09262304
0.10369451 0.045183741 0.095233537
0.11789324 0.046357464 0.096112348
0.12161824 0.043988455 0.094213776
0.10677925 0.053190883 0.093638293
0.11466488 0.053651888 0.094162509
0.12089235 0.052199114 0.092174284
0.098664902 0.069704726 0.091622099
0.10627323 0.069423497 0.092552118
0.1156464 0.068668932 0.09378688
0.12479891 0.068540677 0.094171986
0.13405773 0.069058888 0.093228094
0.1430818 0.069379456 0.092284516
0.15070868 0.069874346 0.090392806
0.077908657 0.079144709 0.092824951
0.085517049 0.077372864 0.094806381
0.094964258 0.073618442 0.094887882
0.10448999 0.071578227 0.095737688
0.11412455 0.070936263 0.09752135
0.12601419 0.070679769 0.097705789
0.13541622 0.071227901 0.096493423
0.14532875 0.072091833 0.095333211
0.15505613 0.075161852 0.094922923
0.16390802 0.078215949 0.094300859
0.1706862 0.07923416 0.092366904
0.067014888 0.087665796 0.094310895
0.074283011 0.083328404 0.095372431
0.081891619 0.080785729 0.097957186
0.15932888 0.080528021 0.099901013
0.16684695 0.081308141 0.096385181
0.17484193 0.085235916 0.094984978
0.18149842 0.088597253 0.093524776
0.056657523 0.096279792 0.094528578
0.063096814 0.092337109 0.095918231
0.1789003 0.090846732 0.097195789
0.1857613 0.094131179 0.095419884
0.19175909 0.097660184 0.093652077
0.047686324 0.1068806 0.094268337
0.052444838 0.1032313 0.095729209
0.18932167 0.10069176 0.098805524
0.19545136 0.10478647 0.095202602
0.20122203 0.1086108 0.093426757
0.039036456 0.11757338 0.093264922
0.043698713 0.11429671 0.095335178
0.19877125 0.11169904 0.096804701
0.20365331 0.11538322 0.094686091
0.037589438 0.12570609 0.094623275
0.04100962 0.12248956 0.096800357
0.20718054 0.12467337 0.095329493
0.21103549 0.12778661 0.093443811
0.029365981 0.13786182 0.091238245
0.034178689 0.13504496 0.095063351
0.20899029 0.13259597 0.097044729
0.21239464 0.13562904 0.094565697
0.029356485 0.14583704 0.092591748
0.032387417 0.14498319 0.095420264
0.21398975 0.14498997 0.094922319
0.028832868 0.15571363 0.093734838
0.031584248 0.15463868 0.095646605
0.21523373 0.15499124 0.095143951
0.028822666 0.16451728 0.093939938
0.031391341 0.16540191 0.095948912
0.21569294 0.16491778 0.095081963
0.22021498 0.16244656 0.090938412
0.029143555 0.17411245 0.09286949
0.03210314 0.17528223 0.095603563
0.21443777 0.1749476 0.095048718
0.029475605 0.18318401 0.092216782
0.033232264 0.18524729 0.095198423
0.20941883 0.18823947 0.098024391
0.21310055 0.18481728 0.094704881
0.03645337 0.19486687 0.094883353
0.040614195 0.19844055 0.098103434
0.20801876 0.19608583 0.095761783
0.21145913 0.19336659 0.093820266
0.038640194 0.20327909 0.093707815
0.042146593 0.20617446 0.095685273
0.19929123 0.20924602 0.098825172
0.20494567 0.20524371 0.094963416
0.21047275 0.20124833 0.091349423
0.039103255 0.21124567 0.091027349
0.046269458 0.21422192 0.094745412
0.051451962 0.21818447 0.096789874
0.19702041 0.21622249 0.09571787
0.20200099 0.21239717 0.09393692
0.048906699 0.22116978 0.093189821
0.054985892 0.22512707 0.094874233
0.061333217 0.22905488 0.097638376
0.18735772 0.227698 0.096065767
0.19284233 0.22371747 0.09418492
0.05862429 0.23136483 0.092905186
0.065249234 0.23428713 0.094810337
0.07216841 0.23814932 0.096271999
0.16942894 0.23944411 0.0967227
0.17626604 0.23683368 0.095627517
0.18351237 0.23271444 0.094466969
0.19084263 0.23043813 0.090353712
0.069007851 0.24092455 0.091222867
0.075973615 0.24256743 0.094410174
0.084978364 0.24616383 0.095000163
0.093059562 0.2486676 0.096339695
0.10082152 0.24984691 0.099472865
0.14797822 0.24925347 0.097937152
0.15590891 0.24787553 0.09557569
0.16503112 0.24457352 0.094997935
0.17235212 0.24183001 0.09370999
0.089097485 0.25095856 0.092340693
0.096429259 0.25156331 0.093980648
0.10502521 0.2527467 0.094906636
0.11499419 0.25408801 0.094942972
0.1250096 0.25476786 0.095054291
0.13494779 0.25375208 0.094900072
0.14489339 0.25240123 0.094690755
0.15275781 0.25114128 0.093338385
0.12663621 0.27856949 0.09825588
0.13220291 0.27873769 0.097918488
0.12678459 0.28588516 0.095364019
0.13186996 0.28603205 0.095439292
0.12702772 0.29094887 0.091970131
0.13158758 0.2911081 0.092342399
0.10707165 0.017640244 0.10648404
0.1144062 0.017417103 0.10621429
0.1211235 0.018731495 0.1081533
0.09964975 0.027288752 0.10617895
0.10363917 0.024390446 0.10475884
0.11707221 0.022342803 0.10316631
0.12191077 0.025709847 0.10555597
0.099588707 0.033438396 0.10386954
0.10317869 0.035268832 0.10521265
0.11835156 0.036460739 0.10641259
0.12186812 0.034188628 0.10434035
0.10632502 0.043580167 0.10395522
0.11500306 0.044087976 0.10451674
0.12133495 0.042141676 0.1025584
0.10822088 0.05119326 0.10086708
0.11477014 0.050456028 0.10084467
0.11736825 0.069480911 0.10073953
0.12448959 0.069311097 0.10126222
0.078840099 0.079847634 0.10080963
0.087248124 0.078840673 0.103313
0.095059149 0.076674849 0.10482139
0.10501063 0.074090034 0.10499687
0.1150552 0.072702378 0.10535407
0.12496965 0.072187886 0.10526803
0.13496284 0.073297799 0.10504521
0.14524049 0.07496392 0.10504577
0.15435997 0.077735618 0.10440511
0.16174503 0.079347745 0.10299622
0.068387754 0.089014195 0.10285852
0.075310998 0.085855521 0.10505031
0.084006168 0.081885874 0.10564487
0.091351047 0.080236539 0.10786954
0.15756617 0.080974326 0.10656686
0.16550164 0.083141647 0.10533001
0.17341349 0.087312929 0.10444345
0.18069443 0.08949104 0.10162248
0.058020111 0.098106742 0.10400126
0.06464915 0.094272032 0.10529255
0.071214586 0.090975508 0.10683154
0.17727448 0.09217 0.10607574
0.18434298 0.096010312 0.10466115
0.19072205 0.098625094 0.10246085
0.048724335 0.10840593 0.10296492
0.054412026 0.1046266 0.10517421
0.060464509 0.10063799 0.10775919
0.1883678 0.10219408 0.10604104
0.19330452 0.10599606 0.104641
0.038964815 0.11969333 0.10071358
0.04585094 0.11534791 0.10482384
0.051097061 0.11152247 0.10708275
0.19740979 0.11340591 0.10579748
0.20194043 0.11688011 0.10406588
0.038756941 0.12712768 0.10335515
0.042306043 0.12436207 0.10563473
0.199771 0.12075386 0.10872515
0.20446655 0.12509744 0.10495173
0.21046393 0.12953773 0.10128703
0.036907811 0.13529499 0.10474065
0.040793091 0.13194698 0.10724298
0.20774934 0.13457492 0.10551145
0.21135096 0.13668247 0.10316892
0.034978185 0.14488479 0.10507486
0.20905343 0.14421025 0.10718662
0.2117772 0.14533135 0.10414977
0.029577732 0.15592039 0.10251895
0.033636302 0.15497586 0.10513633
0.20950115 0.15315877 0.10814259
0.21233568 0.15512076 0.10480642
0.029455025 0.16359171 0.10101874
0.033155099 0.16495091 0.10499696
0.20961657 0.16724703 0.10820986
0.21265422 0.16490071 0.10501866
0.034501672 0.17500587 0.10518219
0.20928659 0.17634627 0.10754615
0.21195047 0.1746085 0.10436793
0.036029924 0.18498608 0.10498922
0.04044047 0.18825993 0.10980328
0.20841697 0.1858055 0.1060305
0.21143615 0.18414164 0.10352342
0.038137119 0.19354326 0.1039277
0.041594833 0.19660035 0.10615499
0.20586614 0.19515771 0.10512988
0.21085884 0.19138896 0.10180334
0.039482266 0.20203869 0.1022023
0.044319052 0.20518768 0.10512832
0.05044679 0.20965919 0.10781362
0.19862819 0.207698 0.10655478
0.20267344 0.20421366 0.10441395
0.047791012 0.21263771 0.10395937
0.05276053 0.21640027 0.10560831
0.18899749 0.21894397 0.10767196
0.19495647 0.21490411 0.10504477
0.20090841 0.21130104 0.10251473
0.056964494 0.22365198 0.10455275
0.06280677 0.22756116 0.10593875
0.17866184 0.22911322 0.10815438
0.18577692 0.22585161 0.10500423
0.19168052 0.22177657 0.10349868
0.058828503 0.23027545 0.10031272
0.066905364 0.23242491 0.10420948
0.074178152 0.23673506 0.10550795
0.080887042 0.23926231 0.10802289
0.1675106 0.23863101 0.10652655
0.17493753 0.23476169 0.10500632
0.18179096 0.23150718 0.10335249
0.077706769 0.24116392 0.10344317
0.085175566 0.24319983 0.1047747
0.094827682 0.2469395 0.10511474
0.10417556 0.24878947 0.10647136
0.11394224 0.24928625 0.10787983
0.12575853 0.24951129 0.10888746
0.13585661 0.24917479 0.10744094
0.14568193 0.24838045 0.10577688
0.15496352 0.24541089 0.10496967
0.16424954 0.24215686 0.10424499
0.17103429 0.24051037 0.10292093
0.0980087 0.25071135 0.10209771
0.10610976 0.25094432 0.10293205
0.11540911 0.25154892 0.10426334
0.12480216 0.25206208 0.10456514
0.13482982 0.25134516 0.10396128
0.1440253 0.25086686 0.10278989
0.15071613 0.25044677 0.10150518
0.12614802 0.26822439 0.10887018
0.13288182 0.2688548 0.10856518
0.12651032 0.27615592 0.10598551
0.13175043 0.27650529 0.10677128
0.12689237 0.28299898 0.10368265
0.13184404 0.28298584 0.10374237
0.10757578 0.0091045136 0.11815914
0.11336537 0.0090558585 0.11832415
0.099393308 0.01839515 0.11797382
0.10490716 0.015139376 0.11522917
0.11557577 0.013625109 0.11465398
0.12165292 0.017078057 0.11612916
0.099560976 0.02412517 0.11509497
0.1027465 0.025207873 0.11523467
0.11885423 0.02689882 0.11663088
0.12191696 0.024402868 0.11462416
0.099156857 0.031340808 0.11026162
0.1057665 0.034012705 0.11419033
0.11525127 0.034689844 0.11476707
0.12135981 0.03264001 0.11327927
0.10802816 0.04049965 0.11108369
0.11300399 0.041027926 0.11139324
0.088520244 0.079560608 0.11140814
0.096471876 0.07857357 0.11395201
0.10503921 0.077033319 0.11490662
0.11514704 0.076008111 0.11544155
0.12477338 0.075353429 0.11534183
0.13483563 0.076409109 0.11525627
0.14475505 0.077734627 0.11475797
0.15222839 0.079043038 0.11335658
0.069737434 0.089660287 0.1120556
0.076806247 0.087742522 0.11454449
0.085054711 0.084703401 0.11546966
0.093892574 0.082312196 0.11692393
0.10455635 0.081755288 0.11918207
0.11459602 0.081088878 0.11938272
0.12139208 0.081204608 0.11984351
0.13708149 0.080928296 0.11953662
0.14660172 0.081446283 0.11832057
0.15573317 0.082967117 0.11598776
0.16496891 0.086120702 0.11509804
0.17179245 0.088591918 0.11317247
0.059235737 0.099113017 0.11192781
0.065964222 0.096526012 0.11492378
0.073476575 0.092936873 0.11668072
0.082565926 0.091562934 0.11950669
0.090402722 0.090058118 0.11982769
0.15953448 0.091257676 0.11975223
0.16737917 0.092096239 0.1187359
0.17546071 0.094130948 0.11565216
0.18270545 0.097912692 0.11406187
0.049458504 0.10941941 0.11207443
0.056574836 0.1059431 0.11477891
0.062481187 0.10273106 0.11724647
0.071589813 0.10088824 0.11965631
0.17803778 0.10163227 0.11922783
0.18635988 0.10409845 0.11588383
0.19193043 0.10783206 0.11396265
0.047755804 0.11699928 0.1145166
0.053200543 0.11366536 0.11678144
0.06052972 0.11146447 0.11959504
0.18813883 0.11253384 0.11899441
0.19533576 0.11501133 0.11535304
0.20089291 0.11812798 0.11294746
0.039556477 0.12824066 0.11151259
0.045114085 0.12504706 0.11546493
0.051898822 0.12269697 0.11960927
0.19798355 0.12356888 0.11739174
0.20222688 0.12587596 0.11426374
0.038580481 0.13661635 0.11357485
0.042617526 0.13416778 0.11671022
0.19854431 0.1329433 0.11937253
0.20503624 0.13513362 0.11535563
0.21033628 0.13874261 0.11288987
0.037614077 0.14528716 0.11491638
0.04168931 0.14423248 0.11865754
0.19919746 0.14181289 0.11970145
0.20700015 0.144885 0.1157549
0.21087977 0.14600639 0.11273353
0.036764346 0.15518671 0.11534274
0.041026082 0.15473658 0.11911581
0.20791183 0.15470606 0.11603328
0.21114574 0.15559466 0.11375447
0.036453199 0.16496031 0.11538253
0.040890306 0.16509098 0.11927816
0.20806348 0.16514368 0.11646806
0.21145053 0.1643406 0.11356247
0.037284251 0.174858 0.11495657
0.04143041 0.17566879 0.11892683
0.20730583 0.17512058 0.11596778
0.21101683 0.1742748 0.11340635
0.038132619 0.18433271 0.1142107
0.042121287 0.18603376 0.11744145
0.19911169 0.1862984 0.11948969
0.20612344 0.18519035 0.11549418
0.2106977 0.1828516 0.1119833
0.039119046 0.19193654 0.11264846
0.044010319 0.19527003 0.11593643
0.051345285 0.1978465 0.11972125
0.19822505 0.19697611 0.11843703
0.20303452 0.19481534 0.11485597
0.047010235 0.20465173 0.1147899
0.052474473 0.20729175 0.11780176
0.18897262 0.20819668 0.11927946
0.19673967 0.20577675 0.11590268
0.20132211 0.20309414 0.11348071
0.049075458 0.21104129 0.11351895
0.055112645 0.21492365 0.11543106
0.061930906 0.21719283 0.11905875
0.17807192 0.21924663 0.11950265
0.18731636 0.21682565 0.11691114
0.19288112 0.21359745 0.11440871
0.058311798 0.22191776 0.11400834
0.064695023 0.22546001 0.11562132
0.072595172 0.22772585 0.11846185
0.08012715 0.22819722 0.11987123
0.16871658 0.22892472 0.11959017
0.17673963 0.22744392 0.11681726
0.18401945 0.22391532 0.11480243
0.1907355 0.2208799 0.11096942
0.0685592 0.23129317 0.11325475
0.07528422 0.23427586 0.11514329
0.083791941 0.23736764 0.11693479
0.093340658 0.23824516 0.11919551
0.10194098 0.23900302 0.1196316
0.11125594 0.23980469 0.11969537
0.14667654 0.23871724 0.11966145
0.15692131 0.23821132 0.11821239
0.16567691 0.23663302 0.11587191
0.17360081 0.23272781 0.11442737
0.079401419 0.24041262 0.11178078
0.086677216 0.24141537 0.11373667
0.095201343 0.24377033 0.11525841
0.10506211 0.24603197 0.1156757
0.11491402 0.24699025 0.1160958
0.12466452 0.2480672 0.11597637
0.13543543 0.24751188 0.11532043
0.14511502 0.24560729 0.11526448
0.15463714 0.24252179 0.11475924
0.16256145 0.24096105 0.1126783
0.10796592 0.25033119 0.11019467
0.11678483 0.25048029 0.11207236
0.12577643 0.25427765 0.11612564
0.13182117 0.25529119 0.11715463
0.12648652 0.26585379 0.11582222
0.1316534 0.26580778 0.11620689
0.12682326 0.27410579 0.11332713
0.13181525 0.27392086 0.11374988
0.12887497 0.28063372 0.11034182
0.13156308 0.28070354 0.11096212
0.11190239 -0.00012618303 0.12804762
0.09939611 0.0084300414 0.12902775
0.10595631 0.0065804189 0.12594809
0.11491866 0.0060723876 0.12555379
0.12146609 0.0081492029 0.12749486
0.099285886 0.015362564 0.12570734
0.10275155 0.014634469 0.12475427
0.11835247 0.013423048 0.12379514
0.12186399 0.014903196 0.12510866
0.099327169 0.021513782 0.1228691
0.10527265 0.024491828 0.12475087
0.11550969 0.025304077 0.12526613
0.12152484 0.022920353 0.12356929
0.10755205 0.031347908 0.12120079
0.11352878 0.031429969 0.12180998
0.1203185 0.031242978 0.12076476
0.098157115 0.079282597 0.12068528
0.10555286 0.078355603 0.12091517
0.11514954 0.07785143 0.12113994
0.12547737 0.078077674 0.12465914
0.1330695 0.078208238 0.12449646
0.14378998 0.078815661 0.12086076
0.15049642 0.079884499 0.12104756
0.078101695 0.088466898 0.12090252
0.085757904 0.087325551 0.12111584
0.095239997 0.086184509 0.12169629
0.10504664 0.085496753 0.12236507
0.11485754 0.085414104 0.12269776
0.12385173 0.085409097 0.12534167
0.13454759 0.08491274 0.1246656
0.14482984 0.085293926 0.12241261
0.1545773 0.086374134 0.12164064
0.16410831 0.087881938 0.12119082
0.17096791 0.089703076 0.12063935
0.059739888 0.099374473 0.1201328
0.066661291 0.098190375 0.12090455
0.075889491 0.096113987 0.121608
0.085125402 0.095275864 0.12309287
0.094849564 0.095116317 0.12475482
0.10498958 0.094793133 0.12604281
0.11502448 0.094700381 0.12663689
0.12478644 0.09505301 0.12685569
0.13519213 0.09488216 0.12696403
0.14504014 0.094920643 0.1260439
0.1550366 0.095173188 0.1244989
0.16483854 0.095272034 0.1226691
0.17409237 0.096488655 0.12146514
0.18160146 0.099003009 0.12140982
0.057704821 0.1069002 0.12108009
0.065819182 0.10573737 0.12197379
0.07503631 0.10494154 0.12396004
0.084935725 0.10475792 0.12635356
0.094731517 0.10424215 0.12788907
0.10428568 0.10306089 0.12861019
0.11502 0.10214894 0.12899777
0.12523125 0.10194297 0.12907672
0.1352514 0.10230392 0.12878741
0.14571755 0.10334294 0.12859334
0.15548144 0.1043845 0.12759766
0.16505589 0.10490594 0.12581632
0.17478275 0.10524464 0.12327527
0.18379645 0.10567075 0.12155701
0.19079028 0.10891601 0.12133036
0.048204388 0.11736453 0.12088112
0.056322198 0.11594348 0.12168013
0.065060548 0.11507677 0.12388717
0.074686833 0.11465293 0.12682681
0.084261835 0.11361527 0.12857813
0.093181901 0.11103646 0.1295139
0.14850363 0.11125402 0.12967794
0.15669985 0.11198179 0.12913623
0.16580003 0.11419284 0.12817727
0.17523007 0.11475898 0.12605658
0.18466015 0.11517784 0.12302874
0.19333686 0.11657526 0.12138152
0.046985939 0.12566184 0.12127777
0.055240881 0.12519524 0.12292147
0.064922497 0.12498669 0.1263293
0.073866747 0.1241179 0.12861162
0.081036352 0.12120984 0.12945426
0.1677296 0.12302364 0.12937811
0.17560959 0.12445763 0.12801176
0.1850682 0.12508778 0.12530161
0.19432159 0.12522635 0.12213877
0.20130594 0.12681331 0.12104353
0.039104763 0.13783094 0.12076437
0.04647962 0.13528949 0.12169617
0.055067975 0.13496046 0.12440176
0.064251535 0.13457447 0.12769192
0.071860075 0.13277017 0.12951949
0.17744392 0.13387023 0.12892428
0.18509631 0.13490131 0.12693447
0.19469093 0.13488232 0.12325331
0.20291854 0.13563402 0.121297
0.038308501 0.14583555 0.12095623
0.045813441 0.14498273 0.12223548
0.054712899 0.14491324 0.12568763
0.063502319 0.14459349 0.12869552
0.17845565 0.1433201 0.12935622
0.18580888 0.14480045 0.12793499
0.19504054 0.14494021 0.12438875
0.20353505 0.14511159 0.12168854
0.037735254 0.15555859 0.12117753
0.045641754 0.15515073 0.12263015
0.0547674 0.15506284 0.12634726
0.062703609 0.15494499 0.12892123
0.17910525 0.15405855 0.12968278
0.18611991 0.15496168 0.1283583
0.19511449 0.15509325 0.1249894
0.20420149 0.15514737 0.12176386
0.21033983 0.1545679 0.12078857
0.037585255 0.16491883 0.1210805
0.045494564 0.16498786 0.12270394
0.054675613 0.16504715 0.126533
0.062530607 0.16546197 0.12898792
0.17962995 0.16687313 0.1297124
0.18628757 0.16521186 0.12846155
0.19516328 0.16502707 0.12518547
0.20424248 0.16485609 0.12186106
0.21070121 0.16399522 0.12051761
0.038524162 0.17450468 0.12111719
0.045550942 0.17484552 0.12232354
0.054587372 0.17501 0.12589815
0.062976107 0.17534137 0.12877344
0.17864121 0.17581342 0.12957703
0.18593593 0.17523 0.12810676
0.19510543 0.17479645 0.12466633
0.20382991 0.17480853 0.12174436
0.21036074 0.17162985 0.12117159
0.038625021 0.18394968 0.12071758
0.046091784 0.18451267 0.12194595
0.054897953 0.18496574 0.12498951
0.064086713 0.18506478 0.12817231
0.071176596 0.1881198 0.12968215
0.17788798 0.1862807 0.12908255
0.1853431 0.18503483 0.12736395
0.19488184 0.18475768 0.12384174
0.20299155 0.18450513 0.12143821
0.046981394 0.19406429 0.12148833
0.055257324 0.19511367 0.12344762
0.064635247 0.19512324 0.1270256
0.073203914 0.19642812 0.12902096
0.16848557 0.19781137 0.12946419
0.17611341 0.19593689 0.12850241
0.18512778 0.19506229 0.12601718
0.1945423 0.19495195 0.12250554
0.20175895 0.19363704 0.12113925
0.047655586 0.20355621 0.12096047
0.055721108 0.20438823 0.12217113
0.064994432 0.20492949 0.12482052
0.074425474 0.20528798 0.12766825
0.083146214 0.20681509 0.12910852
0.091134213 0.20976079 0.12985227
0.15751255 0.20815337 0.12951039
0.16630736 0.20651923 0.1286951
0.17528854 0.20513439 0.12688825
0.18485019 0.2049872 0.12382411
0.19387944 0.20436999 0.1215916
0.20086752 0.20202035 0.12030169
0.049040377 0.21052666 0.12018169
0.056847416 0.21368873 0.12120661
0.065463893 0.21451226 0.12253293
0.074902505 0.21490817 0.12520225
0.0847473 0.2154754 0.12734896
0.094176598 0.21656899 0.12863821
0.10357828 0.21791886 0.12925632
0.11501316 0.21911642 0.12939167
0.12603652 0.21908826 0.12980787
0.13643831 0.2186095 0.1293671
0.14595976 0.21761389 0.12904178
0.15581653 0.21625747 0.12839732
0.16513482 0.21515223 0.12691757
0.1749559 0.21494406 0.12444551
0.1843079 0.21440604 0.12197072
0.19198433 0.21241026 0.12106334
0.059114121 0.22173047 0.12053441
0.066474907 0.22311075 0.1213816
0.075557217 0.22440635 0.12234171
0.08505629 0.22515433 0.1242078
0.094946325 0.22526081 0.12601599
0.10484738 0.22535813 0.12730886
0.11502235 0.22568725 0.12774518
0.12481343 0.22576359 0.12792183
0.13525923 0.22564675 0.12800349
0.1452437 0.22543192 0.12722877
0.15521631 0.22524594 0.12575741
0.16497169 0.22483176 0.12373142
0.17447898 0.22424951 0.12185401
0.18282534 0.22240007 0.1212102
0.076962397 0.23246078 0.12110798
0.085559227 0.23376259 0.12172249
0.095241629 0.23442486 0.12264717
0.10506004 0.23502395 0.12351292
0.11484487 0.23499745 0.12408908
0.12439215 0.23528431 0.12583466
0.13489911 0.23513941 0.1253686
0.14503697 0.23482522 0.12364921
0.15475826 0.23439805 0.12242138
0.16412918 0.23371246 0.12156123
0.17182255 0.23176883 0.12102894
0.087889977 0.24086092 0.12042081
0.095807828 0.2418355 0.12100574
0.10510818 0.24281004 0.12119292
0.11520506 0.24293923 0.12120872
0.1251051 0.24546663 0.12518106
0.13336414 0.24497776 0.12467001
0.14436933 0.24262564 0.12138716
0.15318742 0.24150947 0.12114724
0.12674239 0.25485575 0.12387584
0.13170911 0.254843 0.12412426
0.12673405 0.26329303 0.12170352
0.13184483 0.26379722 0.12204374
0.1277132 0.270632 0.12021928
0.13088316 0.27073729 0.12061184
0.10715497 -0.00035965443 0.13284358
0.099280722 0.0076734279 0.13317557
0.1044741 0.005109116 0.13199967
0.11569086 0.0034393764 0.13192129
0.12183578 0.0072654756 0.13343729
0.099180616 0.012585811 0.13331769
0.1042963 0.015716599 0.13398109
0.11589845 0.017060893 0.13489586
0.12182501 0.013396683 0.13342586
0.10689954 0.021515241 0.13206948
0.11419439 0.021848587 0.13218041
0.12028407 0.022456372 0.13162458
0.12619211 0.078770161 0.13465835
0.13243949 0.078780808 0.13474534
0.12478238 0.085372128 0.13536724
0.13267124 0.084453449 0.13513511
0.098573446 0.099890471 0.13011903
0.10904431 0.098805569 0.1310851
0.11476395 0.098519377 0.13091476
0.12445218 0.098307155 0.13091454
0.13489889 0.098338522 0.13073435
0.14432915 0.099017352 0.13054539
0.079320312 0.1090325 0.1302655
0.087432779 0.10831706 0.13052998
0.095991232 0.10697006 0.13123915
0.10548402 0.1062123 0.13169192
0.11507907 0.10586432 0.13214074
0.12508148 0.10601071 0.1324688
0.13501886 0.10582594 0.13218746
0.1443975 0.10642178 0.13159777
0.1533867 0.10716085 0.1310858
0.16179933 0.10823049 0.13037819
0.077760383 0.11731536 0.13084342
0.085943215 0.11618927 0.13168107
0.095159076 0.11530951 0.13297337
0.10494416 0.11496359 0.13460752
0.11492901 0.11498644 0.13576357
0.12512948 0.11486183 0.13603352
0.13499624 0.11492407 0.13558945
0.14499889 0.1150871 0.13439895
0.15481158 0.11538728 0.13252036
0.16357639 0.11643342 0.13146292
0.17215012 0.11795207 0.13053599
0.067446463 0.12796094 0.1306186
0.076350711 0.12609382 0.13163371
0.085108176 0.12502939 0.13359009
0.094861463 0.12486352 0.13622689
0.10470929 0.12441034 0.13786609
0.11458655 0.12342519 0.138594
0.12519366 0.12297123 0.13877721
0.13527744 0.12363078 0.13843811
0.14535728 0.12464204 0.13751221
0.15515319 0.12496264 0.13545427
0.16470687 0.1252619 0.13283347
0.17315079 0.12645069 0.13114664
0.18047309 0.12717675 0.13035515
0.067037694 0.13587289 0.13121916
0.075244822 0.13505898 0.13283834
0.084971949 0.13497955 0.13628101
0.094051562 0.13413383 0.13839445
0.10227681 0.1317037 0.13947473
0.11046743 0.13085496 0.13993704
0.13924547 0.1311442 0.13969842
0.14664476 0.13296068 0.13908109
0.1553392 0.134491 0.13791193
0.1649698 0.13490732 0.13501032
0.17420599 0.13528848 0.1322058
0.18239367 0.13595031 0.13064346
0.059231807 0.14625721 0.1305858
0.066416077 0.14533702 0.13174878
0.074888304 0.14489494 0.13439324
0.084210113 0.144935 0.1376497
0.091636591 0.14318265 0.13944677
0.14907956 0.14050591 0.13985366
0.15733863 0.14421813 0.13891996
0.16541667 0.1449305 0.13674155
0.17491315 0.14494097 0.13309288
0.18264167 0.14576299 0.13119501
0.058561668 0.15567641 0.13083881
0.065872908 0.15497826 0.13197857
0.074897155 0.15508504 0.13546306
0.083555751 0.15490213 0.13838053
0.090076357 0.1506739 0.13992074
0.15900335 0.15510863 0.13921279
0.16601497 0.15505688 0.13756151
0.17513715 0.15496337 0.13388313
0.18329261 0.15547687 0.13133587
0.05838478 0.16435109 0.13074262
0.065934047 0.16490349 0.13216245
0.074998192 0.16504712 0.13567123
0.083264135 0.16523726 0.13838492
0.15899099 0.16570495 0.13935031
0.16590884 0.1650615 0.13776343
0.17527422 0.16505799 0.13399863
0.18316241 0.16503921 0.13153008
0.19084004 0.16686966 0.13020374
0.059296548 0.17439575 0.13068883
0.066436306 0.1747129 0.13190907
0.074886613 0.17497395 0.13489679
0.083934888 0.17560348 0.13801229
0.091078483 0.17784172 0.13970853
0.15807933 0.17614511 0.13911296
0.16561551 0.17514785 0.13718162
0.17499687 0.17494822 0.1335008
0.18284371 0.17468251 0.13128899
0.066821098 0.18425794 0.13135764
0.075046092 0.18499337 0.13350242
0.084644295 0.18511264 0.13685913
0.093389668 0.18642683 0.13883317
0.10267097 0.18867205 0.13996658
0.14808504 0.18836211 0.13930498
0.15604205 0.18570757 0.13837023
0.1651516 0.18501763 0.13583244
0.17454581 0.18474486 0.13250346
0.1825182 0.18328841 0.13096826
0.067711666 0.19299601 0.13083689
0.075859785 0.19448781 0.1320129
0.085192673 0.19494376 0.13472509
0.094606109 0.1952523 0.13730764
0.10416113 0.19657834 0.13851829
0.11469222 0.19791231 0.13920897
0.12524922 0.19848178 0.13927694
0.13567242 0.19778779 0.13895784
0.14575428 0.19590305 0.13830689
0.15514572 0.19511457 0.13663651
0.16468354 0.19490072 0.13364479
0.17351057 0.19403359 0.13164778
0.18096493 0.19257474 0.13070425
0.069129497 0.2004317 0.13077146
0.077010155 0.20363553 0.13117252
0.085515328 0.20426585 0.13230588
0.094983816 0.20491658 0.13418312
0.10510244 0.20496035 0.13619792
0.11482679 0.2053794 0.13700557
0.12503505 0.20526201 0.1373904
0.13510576 0.20545809 0.13697909
0.14499989 0.20480557 0.13580485
0.15496856 0.20494013 0.13348047
0.16423297 0.20398992 0.13182226
0.17219579 0.20290069 0.13080668
0.079329297 0.21059808 0.13055973
0.086484432 0.21324562 0.13105753
0.09546753 0.21354342 0.13171323
0.10506732 0.21446259 0.13247089
0.11503016 0.21463999 0.13322356
0.12498725 0.21465468 0.13360991
0.1349659 0.2148035 0.13326633
0.14473478 0.21419147 0.13248509
0.15409169 0.21376236 0.13151182
0.16307195 0.21198268 0.13078065
0.17045501 0.21009666 0.13041224
0.08845067 0.22104557 0.13047129
0.096219346 0.22115625 0.1306328
0.10599905 0.22246507 0.13121304
0.11548845 0.22244257 0.13128291
0.12505195 0.22269897 0.1313782
0.13493282 0.22273919 0.13122632
0.14405172 0.22219111 0.13078278
0.15194473 0.22091107 0.13062619
0.12519222 0.23706146 0.13508378
0.13237163 0.23730451 0.13496152
0.12537105 0.24412923 0.13512424
0.1326232 0.24386381 0.13516301
0.10753462 0.015816659 0.14093262
0.11371341 0.016139409 0.14064297
0.12090534 0.013862647 0.14049923
0.12616968 0.079310618 0.14469887
0.13239823 0.079241529 0.14427556
0.12500088 0.085028872 0.14538738
0.13260441 0.08467868 0.14526929
0.12463748 0.090674996 0.14738218
0.13198736 0.090691179 0.14872187
0.10696983 0.11876544 0.14009792
0.1166499 0.11828676 0.14056796
0.1249152 0.11887262 0.14072946
0.13577412 0.11885362 0.14024375
0.09772636 0.12808518 0.14052074
0.10578999 0.12682718 0.14123565
0.11547766 0.12659763 0.14172204
0.12501635 0.12640435 0.14190787
0.13448733 0.12661001 0.14164148
0.1435096 0.12690881 0.14114739
0.15171848 0.12839073 0.14048421
0.088287897 0.13731556 0.14064679
0.096238561 0.1362194 0.14150967
0.10526489 0.13530941 0.14289677
0.11512003 0.13494399 0.14452331
0.1251515 0.13502835 0.14501208
0.1349877 0.13508256 0.14408325
0.14482261 0.13560104 0.14238057
0.15356766 0.13655563 0.14110573
0.16072649 0.13896066 0.14012471
0.078855813 0.14916305 0.14077339
0.087093316 0.14546789 0.14134991
0.095234245 0.14531595 0.14282317
0.10483611 0.14491408 0.14591137
0.11504579 0.1446114 0.14780031
0.12500721 0.14455064 0.14806883
0.13491395 0.14478967 0.14734952
0.14493716 0.1450365 0.1448576
0.15428045 0.14552282 0.14216846
0.1623932 0.14646609 0.14076562
0.079550639 0.152777 0.14022279
0.086431041 0.15505765 0.14154783
0.095034249 0.15504114 0.144269
0.10448753 0.15485047 0.14760685
0.1151327 0.15499166 0.14832862
0.12496019 0.15488307 0.14835191
0.13477647 0.15499052 0.14828071
0.14539677 0.15499416 0.1465369
0.15480208 0.15489985 0.14283632
0.16253129 0.15550655 0.14131579
0.079214387 0.16327731 0.14013766
0.086411461 0.16475768 0.14162555
0.094825529 0.1651437 0.14448614
0.10446438 0.16497727 0.14785957
0.11519822 0.16510537 0.14840569
0.12490457 0.1648867 0.14836891
0.13475454 0.1651026 0.14833841
0.14529745 0.16512051 0.1468652
0.15492761 0.16495593 0.14308663
0.16287266 0.16481823 0.14120997
0.079193711 0.17053568 0.14045906
0.086509243 0.17432489 0.14133476
0.094964564 0.17486653 0.14336258
0.10461694 0.1750949 0.14680836
0.11501984 0.17515066 0.14830841
0.12485044 0.17489675 0.14830741
0.13498047 0.17510813 0.14803208
0.14515793 0.17505951 0.14564897
0.15447213 0.17479651 0.14241634
0.16225019 0.17401764 0.14115828
0.087849557 0.1830553 0.14096679
0.095791556 0.18430983 0.14199372
0.10494808 0.18493599 0.14403746
0.11516694 0.18494116 0.14609836
0.12510522 0.18505582 0.14656232
0.1348618 0.18507369 0.14546749
0.14479244 0.18485096 0.14323008
0.15363176 0.1841038 0.14149751
0.16093659 0.18350379 0.14044346
0.08964476 0.1904553 0.14011943
0.096981116 0.19264078 0.14088079
0.1057316 0.19374165 0.14169598
0.11528802 0.19440712 0.14246133
0.12508991 0.19468397 0.14272556
0.13477267 0.19422796 0.14229517
0.14405181 0.19380035 0.14143649
0.15292959 0.19251639 0.14082102
0.10697677 0.20127331 0.14059424
0.11515529 0.20248644 0.14081673
0.12486048 0.20217535 0.1411698
0.13385582 0.20205952 0.14090045
0.14374278 0.20166378 0.14045474
0.1250046 0.23662309 0.14530358
0.13249438 0.23700604 0.14527252
0.12556279 0.24359854 0.14501925
0.13248782 0.24350099 0.14497501
0.12670437 0.079393215 0.15373194
0.13251732 0.079418711 0.15401301
0.12517309 0.084415093 0.15503085
0.13271216 0.084231593 0.15498286
0.12537475 0.090954147 0.15730552
0.1323829 0.090892665 0.15739077
0.1184127 0.13811144 0.15006986
0.12433159 0.13873014 0.15040109
0.10814369 0.14773113 0.15046212
0.11563973 0.14588711 0.15087718
0.12548096 0.14531222 0.15090881
0.13407277 0.14670074 0.15065488
0.1422886 0.14942673 0.15047269
0.10611295 0.15536501 0.15075746
0.11539452 0.15498571 0.1509686
0.12534747 0.15518574 0.15088534
0.1346323 0.15477052 0.1507349
0.14159486 0.15564306 0.15078092
0.10575521 0.16466166 0.1507311
0.11532961 0.16489293 0.15094054
0.12522563 0.1653299 0.15089223
0.13492754 0.16496873 0.15059724
0.14188984 0.16411272 0.15085232
0.10732798 0.17325334 0.15069903
0.11491971 0.17474453 0.15100096
0.12538902 0.17498063 0.15086412
0.13437544 0.17474981 0.15069963
0.14127819 0.17129664 0.15065299
0.11707276 0.18161374 0.15058991
0.12541468 0.18181767 0.15085365
0.13184319 0.18187833 0.15058792
0.1249482 0.23569582 0.15526456
0.13265334 0.23634225 0.15515499
0.12572546 0.24294144 0.15503693
0.1325575 0.24278364 0.15495732
0.1283026 0.079865754 0.16035368
0.13128263 0.079680592 0.1623031
0.12529536 0.084404692 0.16489306
0.13266499 0.084789366 0.16489071
0.12538196 0.09206751 0.1654292
0.13259512 0.091869034 0.16549179
0.12616713 0.22955386 0.16841544
0.13186762 0.22959654 0.16708562
0.12513743 0.23470178 0.16532151
0.13266596 0.23527202 0.16541143
0.1260128 0.24145854 0.16451359
0.13260913 0.24156712 0.16439563
0.12542732 0.086121038 0.17500314
0.13264048 0.086304598 0.17477943
0.12527777 0.093759604 0.1752612
0.13274661 0.093363486 0.17532353
0.12545815 0.22886354 0.17621267
0.13224597 0.22891569 0.17631768
0.12523857 0.23559883 0.17494833
0.13268276 0.23546408 0.17485669
0.12605348 0.24046366 0.17276008
0.13235117 0.24061768 0.17249635
0.12579641 0.087921731 0.18476884
0.13253325 0.08793699 0.18472509
0.12487222 0.095525369 0.18503444
0.13266751 0.094866306 0.18519799
0.12625906 0.10072208 0.18839023
0.13298249 0.1008656 0.18890807
0.1251369 0.22675683 0.18540324
0.13249449 0.22705904 0.18560135
0.12529764 0.2349354 0.18489945
0.1325866 0.23471986 0.18485703
0.13160697 0.24010447 0.18159091
0.1263485 0.089066632 0.19197764
0.13244228 0.088957831 0.19226414
0.12512648 0.09430486 0.19514653
0.1327517 0.094371051 0.19502789
0.12530884 0.10250425 0.19557862
0.13251755 0.10219756 0.19581167
