# .PCD v0.7 - Point Cloud Data file format
VERSION 0.7
FIELDS x y z
SIZE 4 4 4
TYPE F F F
COUNT 1 1 1
WIDTH 1349
HEIGHT 1
VIEWPOINT 0 0 0 1 0 0 0
POINTS 1349
DATA ascii
-0.095540464 0.085746147 0.0022840302
-0.085520744 0.086005881 0.0019533494
-0.075626321 0.0853903 0.0022361148
-0.065790609 0.085519694 0.0022997514
-0.055346735 0.085429676 0.0023447308
-0.045302723 0.084666148 0.0021209021
-0.035665803 0.084743619 0.0020783062
-0.024816727 0.084223419 0.0020717101
-0.014917624 0.084599644 0.001793839
-0.005565688 0.084502101 0.0026930161
0.0056325244 0.085007608 0.0024928516
0.015284135 0.084039994 0.001914005
0.025254024 0.085464559 0.0023802524
0.035307843 0.083839461 0.0022716736
0.045786902 0.085891239 0.001860856
0.055260453 0.08585953 0.0018673443
0.064980365 0.084865548 0.0027658865
0.076237492 0.084302872 0.00219884
0.085408725 0.085474096 0.0019980394
0.095689438 0.086200953 0.002007927
0.10496199 0.084611803 0.0025201335
0.11639087 0.083901711 0.0046862727
0.12482953 0.08559566 0.0044920291
0.13265423 0.087576084 0.006228114
-0.1429355 0.097656302 0.0051286579
-0.1343195 0.094934702 0.00528483
-0.12553135 0.094514638 0.0039599538
-0.1142026 0.09426254 0.0019451575
-0.10413433 0.095312208 0.0021046572
-0.09540756 0.095440805 0.0023287609
-0.084366314 0.094189733 0.0020501418
-0.073537126 0.094277255 0.0017919152
-0.066065535 0.093892768 0.0025147526
-0.055467863 0.095459864 0.0023920536
-0.04456066 0.094928436 0.0019956201
-0.035887811 0.094183601 0.0021248634
-0.025273236 0.093984388 0.0018308483
-0.015213438 0.094543241 0.0025236949
-0.0055744527 0.095879972 0.0023349116
0.0055014095 0.09473335 0.0026573217
0.014542801 0.094226211 0.0019846004
0.024679011 0.095033407 0.0016991763
0.035164714 0.093819179 0.0024338341
0.046072491 0.095432714 0.0022151736
0.05533202 0.09484417 0.0020104896
0.065430924 0.093836494 0.0023782183
0.076447241 0.095489189 0.002186585
0.084590793 0.094941296 0.0022894354
0.096159942 0.094831698 0.002270103
0.1048516 0.095393628 0.0022510735
0.11597623 0.094155394 0.0016670626
0.12548137 0.094091177 0.003039584
0.13555449 0.094251812 0.0057251188
0.1426152 0.097565271 0.0053845327
-0.15217598 0.1063195 0.0052028648
-0.14456286 0.10505231 0.0041471226
-0.13552651 0.10408074 0.0035880089
-0.12481681 0.10676307 0.0026146492
-0.1147932 0.10530646 0.0019952576
-0.10516275 0.10523084 0.0025923401
-0.095148303 0.10475548 0.0026199834
-0.084543034 0.1045535 0.0024583696
-0.074235499 0.10514762 0.0025990861
-0.064814433 0.10534457 0.0018595308
-0.055784792 0.10564481 0.0028134685
-0.04485422 0.10623104 0.0027912813
-0.035799056 0.10510056 0.0021776757
-0.024898743 0.10654519 0.001815674
-0.014591044 0.10542377 0.0023050841
-0.0055673132 0.10489617 0.0026974599
0.0052698324 0.10538268 0.0025938947
0.015356471 0.10548511 0.0027486049
0.025417158 0.10605685 0.0019909416
0.034625851 0.10405578 0.0024475132
0.044732951 0.10540246 0.0020903598
0.055442404 0.10585758 0.0025144792
0.065382414 0.1056032 0.002452997
0.076265119 0.10500643 0.002466463
0.084933065 0.10565507 0.0017739619
0.095278159 0.10326358 0.0024982477
0.10525154 0.10522175 0.0024724996
0.11610185 0.10506782 0.0016023233
0.12493654 0.10439225 0.0023970553
0.13554204 0.1035538 0.0023292652
0.14541037 0.10413488 0.0055596773
0.15254296 0.10707206 0.0058798832
-0.16150057 0.11724328 0.0061242119
-0.15482831 0.11489621 0.0051718829
-0.14530306 0.11372539 0.0042167599
-0.13445246 0.11358422 0.0024526687
-0.12510423 0.11606971 0.0032507735
-0.11439839 0.11518779 0.0024514084
-0.10529311 0.11495239 0.0021458231
-0.095095962 0.11471379 0.0019500196
-0.084832668 0.11480103 0.0021944402
-0.073373646 0.11623969 0.0023181755
-0.06559734 0.11443958 0.0026319069
-0.055387881 0.11444087 0.0020391862
-0.045180883 0.11441456 0.0030452693
-0.03533138 0.11366391 0.0024010574
-0.025298487 0.11631823 0.0026383093
-0.014653911 0.11371132 0.0024758943
-0.004936011 0.11481225 0.0026125968
0.0053501236 0.11587169 0.0025660049
0.015484023 0.11573296 0.0022175405
0.025417315 0.11493802 0.0026163037
0.034875177 0.11489914 0.0027572336
0.045263715 0.1148114 0.0025392012
0.055254322 0.11462495 0.0017922046
0.064969264 0.11507379 0.0027136346
0.075370364 0.11484426 0.0018728095
0.084313795 0.11501096 0.0019033658
0.094958745 0.11459746 0.0022920654
0.10422724 0.11430366 0.0022771109
0.11558045 0.11613543 0.0015599198
0.12420121 0.11495444 0.0023684292
0.13514636 0.11496317 0.0019711761
0.1460515 0.1142937 0.0019010142
0.1561244 0.11444136 0.0053968532
0.16277736 0.11730757 0.0068680989
-0.17034245 0.12712383 0.0046880692
-0.16440319 0.12580635 0.0055031893
-0.1570466 0.12404783 0.0041810861
-0.14532769 0.12488198 0.0025792692
-0.13500191 0.12438924 0.0020933489
-0.12462188 0.12456796 0.0023609393
-0.11444321 0.12595159 0.0024214915
-0.10534782 0.1250464 0.0026250596
-0.094938062 0.12454578 0.0028663795
-0.085283548 0.12521526 0.0024176133
-0.073512033 0.12495765 0.0034829474
-0.06592869 0.12443718 0.0020417857
-0.055856936 0.12448915 0.0027290145
-0.044974212 0.12466735 0.0034078949
-0.035876725 0.12427336 0.00192184
-0.024428524 0.12554258 0.0025369178
-0.014086204 0.12484866 0.0029025355
-0.0049569374 0.12483958 0.0020057668
0.0050498941 0.12481143 0.0030707144
0.015081226 0.12605473 0.002487629
0.025220411 0.12384604 0.0021639708
0.035071284 0.1254258 0.0029771246
0.045362547 0.12544011 0.0027049421
0.055142429 0.12456821 0.0020207819
0.064783908 0.12480649 0.0027118297
0.076018482 0.12478518 0.0023394797
0.084980659 0.12479351 0.0020721422
0.094846793 0.12506478 0.0023399217
0.10416354 0.12500831 0.0025408724
0.11585472 0.12482819 0.0021808415
0.12450713 0.12506738 0.0023496896
0.13580252 0.12472926 0.0019125437
0.14490014 0.12464335 0.001982288
0.15589401 0.124332 0.0037238998
0.16417055 0.12488338 0.0047879298
-0.17288969 0.13641223 0.0043557384
-0.16574979 0.13481416 0.0053658704
-0.15603685 0.1365388 0.0021571487
-0.14406292 0.13516219 0.0025193617
-0.13457502 0.13456821 0.0018550284
-0.1250765 0.13426304 0.0029624223
-0.11459329 0.13382052 0.002785471
-0.10581151 0.13413462 0.0031868154
-0.094677679 0.1356905 0.0025281392
-0.085575446 0.13500948 0.0020370281
-0.073242575 0.13524218 0.0029857743
-0.064583518 0.13444538 0.0024238469
-0.054781921 0.13492936 0.0026615947
-0.044697426 0.13587962 0.0023190717
-0.035704307 0.13598651 0.0023241611
-0.024111308 0.13412736 0.0022353439
-0.013849405 0.13471471 0.0026619835
-0.0054847687 0.13474382 0.0023605605
0.0048033055 0.1348404 0.0022708592
0.014978662 0.13499184 0.0034697147
0.025118785 0.13481894 0.0019901691
0.03478808 0.13524303 0.0032782825
0.046083752 0.13618967 0.0026907553
0.056393191 0.13568257 0.0020379971
0.065329075 0.13595383 0.0026035735
0.076313354 0.13498548 0.0020990835
0.083970465 0.13580297 0.002529446
0.094269834 0.13512771 0.0019366884
0.10363758 0.13464928 0.0025516327
0.11568476 0.13433875 0.0021997874
0.12524168 0.13529271 0.0022811613
0.13464773 0.13446552 0.0022308084
0.14542988 0.1350821 0.0019230696
0.15557615 0.13468014 0.0019505769
0.16541979 0.13411486 0.0033866204
0.17201954 0.135533 0.0057013403
-0.18148679 0.14754702 0.0072339922
-0.17434375 0.14509626 0.0050867437
-0.16711375 0.14395475 0.0046591694
-0.15585478 0.14566806 0.0021751695
-0.14652477 0.14501849 0.0026082387
-0.13539016 0.14519089 0.0021343853
-0.12438631 0.14536826 0.0029938768
-0.1153781 0.1436052 0.0016998521
-0.10645253 0.14444044 0.001345978
-0.09389887 0.1447475 0.0026268132
-0.084654301 0.14563239 0.0019012655
-0.074521616 0.14457537 0.0019576419
-0.065495484 0.14395009 0.0021920428
-0.054308545 0.14481096 0.0022458762
-0.044690941 0.14501995 0.0026091686
-0.035450734 0.14497635 0.0021788478
-0.024395896 0.14513768 0.0019643002
-0.014469994 0.14426036 0.0026632494
-0.0044666165 0.14512318 0.001825273
0.0062506758 0.14459184 0.0029426545
0.014622366 0.14537266 0.0024700086
0.024562968 0.14606318 0.0022690396
0.034595259 0.14552915 0.002752482
0.045022715 0.14604598 0.0022716089
0.056015421 0.14607367 0.0023438474
0.065725364 0.14605832 0.0020873905
0.075466335 0.14485922 0.0017114112
0.08540988 0.14491825 0.0021502166
0.094658494 0.14580642 0.0026274791
0.10394879 0.14465368 0.0021438606
0.11518338 0.14415516 0.0019453613
0.12388679 0.14514816 0.0019183208
0.13465965 0.14462346 0.0023133322
0.14537235 0.14437892 0.0018907796
0.15648003 0.1450658 0.0021982854
0.16524437 0.14408611 0.0022363432
0.17444292 0.14536303 0.0048039183
0.18075812 0.14766224 0.0075566694
-0.18099914 0.15420771 0.0049029216
-0.17521589 0.15530652 0.0043174694
-0.16494501 0.15411279 0.0022609734
-0.1558703 0.15653597 0.0023188165
-0.14586656 0.15578535 0.0021860839
-0.1339931 0.15584758 0.0020382116
-0.12413023 0.15562409 0.0027915996
-0.11576968 0.15627155 0.0019682716
-0.10594513 0.15524909 0.002549659
-0.09420687 0.15501699 0.0027551488
-0.084735088 0.15479927 0.0029900451
-0.07424733 0.1547994 0.0026637176
-0.064693041 0.15506425 0.001967357
-0.054734133 0.15571614 0.0024923997
-0.046701837 0.15518288 0.0027905065
-0.035941184 0.15483224 0.0021464436
-0.025376106 0.15556334 0.002295488
-0.014725663 0.15531397 0.0027078851
-0.0048570493 0.1556727 0.0016606617
0.0057027782 0.15478152 0.001866442
0.013581722 0.15527204 0.0028208247
0.024277121 0.15524173 0.001665203
0.034665581 0.15595016 0.0025407779
0.045273896 0.1559131 0.0022945744
0.055690411 0.15413621 0.0019208184
0.065608397 0.15515116 0.0024420551
0.075905509 0.15471742 0.0018292611
0.085199535 0.15535152 0.0018687816
0.095939957 0.15567219 0.0018129975
0.10315541 0.15588832 0.0026254803
0.11496674 0.15500717 0.0020842021
0.12342606 0.15539414 0.0017767631
0.13423215 0.15499446 0.0020447997
0.14509249 0.15441024 0.001895257
0.15580907 0.15463099 0.0018838536
0.16445979 0.15468653 0.0021639091
0.17557234 0.15476677 0.0041030119
0.1809742 0.1559521 0.0071392115
-0.18245165 0.16485348 0.0057743592
-0.17575905 0.16602467 0.0034422937
-0.16426174 0.16638842 0.0020628683
-0.15450121 0.16388737 0.0024051913
-0.14485244 0.16519682 0.0028507821
-0.13543956 0.16528863 0.0023320941
-0.12460025 0.16599964 0.002985514
-0.11625493 0.16583073 0.0021441698
-0.10434744 0.1650928 0.0034344206
-0.094757199 0.16485219 0.0034344934
-0.08474268 0.16489652 0.0024970248
-0.073784284 0.16675667 0.0025424787
-0.064676128 0.16682553 0.0021663755
-0.052607384 0.16515596 0.0026676978
-0.045193218 0.16358405 0.0031574517
-0.035197314 0.16633219 0.0019649104
-0.025075037 0.16582075 0.0026438111
-0.015403854 0.16479857 0.0030153254
-0.0042311847 0.16414912 0.0023049074
0.0059569641 0.16460115 0.0019476017
0.013861679 0.16429207 0.0022622326
0.024092782 0.16590403 0.0017794847
0.035360806 0.16615342 0.0028771467
0.04499796 0.16467594 0.0022329451
0.055982232 0.16446827 0.0016886138
0.065227516 0.1658726 0.0025689495
0.075359792 0.16549419 0.002233997
0.08582332 0.16426294 0.0022605509
0.094425127 0.16430436 0.0023240927
0.10349844 0.16569379 0.002367703
0.11476573 0.16512351 0.0021133763
0.12361259 0.16498749 0.0023278687
0.13407212 0.16487134 0.0023747149
0.14443766 0.16478138 0.0019039726
0.1552514 0.16526634 0.0019759671
0.16419178 0.16464563 0.0020934814
0.17477523 0.16502963 0.0038287495
0.18173227 0.16455257 0.0055130729
-0.18300496 0.17414185 0.0041501364
-0.17670424 0.17430492 0.004402265
-0.16452625 0.17470044 0.0020686907
-0.15473145 0.17512563 0.0024812073
-0.14545448 0.17502494 0.0023657084
-0.1349445 0.17502707 0.0019137743
-0.12546133 0.17486064 0.002568562
-0.11525983 0.17516656 0.0014980254
-0.10531994 0.17551486 0.0027582673
-0.094537407 0.1749752 0.002744772
-0.084634289 0.17538084 0.0026008082
-0.07462246 0.17615966 0.0027250387
-0.064817242 0.17545743 0.0016602312
-0.054202817 0.17485642 0.002512319
-0.045287188 0.17556956 0.0025273503
-0.036007337 0.17632127 0.0015315474
-0.024787439 0.17497221 0.0029253901
-0.014865167 0.17386594 0.0026147419
-0.0052489513 0.17481829 0.0018079203
0.0053220117 0.17439687 0.0024160724
0.014437996 0.17466228 0.0030301632
0.024074512 0.17501551 0.0011306893
0.034505889 0.17504255 0.0022224351
0.045449119 0.17572241 0.0021363464
0.05481559 0.17565842 0.0020915261
0.064839154 0.1757976 0.0023693023
0.075592279 0.17460977 0.0019243078
0.085683659 0.17477049 0.001970055
0.095480628 0.17368376 0.0018302987
0.10443614 0.17538875 0.0026390404
0.11457451 0.174119 0.0022869497
0.12388023 0.17477006 0.0017468865
0.13509342 0.17462537 0.0024959866
0.14447913 0.1761944 0.0022463601
0.15556 0.17485069 0.0020218224
0.16409262 0.17411216 0.0021985692
0.17503822 0.17456144 0.0031099045
0.18255363 0.17485428 0.0048091603
-0.18294711 0.18587089 0.003883861
-0.1768375 0.18514553 0.0043438734
-0.16452524 0.18485974 0.0021136757
-0.15445068 0.1844099 0.0024289489
-0.14457242 0.18494362 0.0024714437
-0.13550459 0.182999 0.0023118455
-0.1256071 0.18496637 0.0027819001
-0.11523877 0.18461728 0.0019598168
-0.10510652 0.18433407 0.0023981249
-0.094644763 0.18436423 0.0027947803
-0.085338682 0.18445519 0.0029247329
-0.074980237 0.18267797 0.0029039141
-0.06451796 0.1842526 0.0017738526
-0.053575344 0.18465215 0.0028976761
-0.045162685 0.18509965 0.0029833666
-0.034976739 0.18407708 0.0022806039
-0.024657607 0.18444441 0.0026550267
-0.01480179 0.1854174 0.0028062973
-0.0044752141 0.18549338 0.002136156
0.0052757915 0.18609928 0.0025833079
0.014545428 0.18449588 0.0026611546
0.025185009 0.18385972 0.0016574368
0.035241067 0.18472017 0.002548994
0.045461532 0.18418685 0.002073074
0.055825908 0.1842932 0.0020237337
0.064909719 0.18370688 0.0024823037
0.075344883 0.1845935 0.0019139302
0.085683167 0.18527892 0.0021685541
0.095504679 0.18526207 0.0017303374
0.10391785 0.18453288 0.0023400509
0.11387909 0.18445364 0.0024369373
0.12317088 0.18456452 0.0019968194
0.13515043 0.18494116 0.0024981636
0.14474969 0.18359368 0.0021371555
0.1553458 0.1844587 0.0022114092
0.16461578 0.18534982 0.0022954266
0.17521475 0.18519373 0.0031129029
0.18244202 0.18555696 0.0048721088
-0.18228382 0.19501451 0.0053989366
-0.17550009 0.19453788 0.0032704831
-0.16346072 0.19405331 0.002324366
-0.15360352 0.19565143 0.0025012828
-0.14435051 0.19482999 0.0027412663
-0.13538682 0.19378486 0.0023277579
-0.12522852 0.19430695 0.0028638244
-0.11565893 0.19466522 0.0018785679
-0.10437207 0.19427104 0.0033115065
-0.09453778 0.19533351 0.0032552625
-0.084968373 0.19465439 0.0024796291
-0.074777544 0.19269696 0.0023268394
-0.064952679 0.19302133 0.0020921249
-0.053023666 0.19442271 0.0024331918
-0.045992304 0.19541179 0.0033152997
-0.03526045 0.19321737 0.0019959901
-0.024321716 0.1938848 0.0029126832
-0.014958187 0.19495475 0.0029645434
-0.0047736964 0.19594842 0.002276303
0.0064242114 0.19540496 0.0017472472
0.014031028 0.19593415 0.0022997893
0.023983316 0.19405663 0.0016358211
0.035498902 0.19388324 0.0027896373
0.045045536 0.19455813 0.0019391523
0.055312213 0.19514047 0.0018838346
0.065196201 0.19413991 0.0024258394
0.07528194 0.19406202 0.0020822296
0.085607015 0.19561869 0.0021101211
0.094910085 0.19479097 0.00242576
0.10340339 0.19441132 0.0023940746
0.11489788 0.19439608 0.0021449788
0.12390006 0.19519749 0.0020324467
0.1344181 0.19525371 0.0024244287
0.14453934 0.19496813 0.0018306626
0.15512648 0.19428968 0.002015328
0.16400479 0.19533966 0.0023192053
0.17513834 0.19509706 0.0035656563
0.1818191 0.19529308 0.0056098485
-0.18076579 0.20567408 0.0057064197
-0.17542119 0.20490605 0.0043290374
-0.16401723 0.20457816 0.0018775699
-0.15474768 0.20594981 0.0019706935
-0.14605218 0.20458616 0.0020813677
-0.13524918 0.2052926 0.0019202405
-0.12535587 0.20440665 0.0021775698
-0.11525028 0.20465031 0.0020873668
-0.105586 0.20525758 0.0025122017
-0.094526924 0.20559239 0.0027480703
-0.08528959 0.20511416 0.0026355297
-0.074922763 0.20465401 0.0027859742
-0.064657174 0.20485957 0.0019007617
-0.053697217 0.20425828 0.0027553034
-0.046051133 0.20430748 0.0029823361
-0.03599726 0.2051177 0.002326116
-0.025576832 0.20457247 0.0023348331
-0.015281732 0.204311 0.0027109443
-0.0052508088 0.20465979 0.0016774656
0.0054602404 0.20532849 0.0019113201
0.014308949 0.20458694 0.0024298865
0.02456845 0.20561056 0.0024290436
0.034839481 0.20425747 0.002641334
0.045173209 0.204583 0.0026298033
0.055480167 0.20581114 0.0019605474
0.06545075 0.20459543 0.002370755
0.07498794 0.20530362 0.0018927358
0.085192867 0.20454559 0.0020775667
0.095518157 0.20444094 0.0018658882
0.10353816 0.2039979 0.0024076586
0.11517245 0.20465778 0.0019630573
0.12367716 0.20494691 0.002119317
0.1347688 0.2049306 0.0021079814
0.14546199 0.20616448 0.0018910187
0.15603028 0.20569915 0.0016924811
0.16457714 0.20560046 0.0018906204
0.17496416 0.20563854 0.0038535153
0.18081865 0.20483385 0.0070247613
-0.18118349 0.21210828 0.0066232085
-0.17397994 0.21460716 0.0050228583
-0.167486 0.21659043 0.0046916166
-0.15525861 0.21466117 0.0027459594
-0.1451409 0.21460375 0.0029056179
-0.13508105 0.21472457 0.0025002109
-0.1245745 0.21506596 0.00298885
-0.1154125 0.21560517 0.0018450232
-0.10616957 0.2157795 0.0013684873
-0.093895338 0.21545568 0.0027338958
-0.084488608 0.21463783 0.0023166665
-0.074858837 0.21578787 0.0019627369
-0.064694628 0.21654552 0.0018809047
-0.052830048 0.21522196 0.002415118
-0.044594165 0.21430054 0.0028632965
-0.035588011 0.21427047 0.0025533491
-0.025574174 0.21552986 0.0022970098
-0.015263044 0.21540904 0.00278619
-0.0047161649 0.21456002 0.001975453
0.0061515481 0.21510155 0.0030836426
0.014155124 0.21424533 0.0024267824
0.024542281 0.21430917 0.0017678873
0.034378428 0.21400346 0.0028652062
0.044819545 0.21389815 0.0023248561
0.056039784 0.21349485 0.0022323511
0.065787755 0.21346354 0.0022674922
0.075384974 0.2147966 0.0020252056
0.08533112 0.21515508 0.0021532245
0.094776787 0.21394227 0.0028167185
0.10369366 0.21524912 0.0021439921
0.1148194 0.21454188 0.0021534616
0.12415701 0.21520257 0.0017795705
0.13443102 0.21541505 0.0023123692
0.14495827 0.21569096 0.0021201675
0.15653586 0.21494587 0.0022118594
0.16523927 0.21586545 0.0027404223
0.1749106 0.21525225 0.0051307059
0.18085396 0.2111582 0.0078706965
-0.17225602 0.22407839 0.0050037624
-0.16584803 0.22528656 0.0052860249
-0.15606742 0.22332709 0.0017704973
-0.14502294 0.22528288 0.0027748737
-0.13566017 0.22432855 0.0019455673
-0.12525041 0.22587061 0.0030990376
-0.11472268 0.22580084 0.0027572408
-0.10490782 0.225146 0.0030420038
-0.094780229 0.22422574 0.002650813
-0.086096369 0.22407112 0.0020842324
-0.073876642 0.22499114 0.0033782062
-0.064572848 0.22514406 0.0023505997
-0.054305445 0.22448693 0.0024261058
-0.044427607 0.22425725 0.0029537317
-0.036498249 0.22383836 0.0022247159
-0.024803311 0.22575371 0.0024283659
-0.013988947 0.22508734 0.0032088703
-0.0048373719 0.22425747 0.0018326814
0.0054629128 0.22518872 0.0023419727
0.015660163 0.22503667 0.0035196615
0.025033144 0.22474083 0.0018106386
0.034631725 0.22436967 0.0033415218
0.045747612 0.22375138 0.0027153117
0.056110345 0.22369164 0.0019174729
0.065043896 0.22373199 0.00272059
0.075801253 0.22465466 0.0023176188
0.083726585 0.2244323 0.0023353519
0.094379991 0.2240963 0.0020549688
0.10387404 0.22559412 0.0025299005
0.11544418 0.22518432 0.0022929667
0.12433138 0.2248238 0.002092534
0.13487577 0.22505119 0.0021708414
0.14580552 0.22453383 0.0020650811
0.15583627 0.22535942 0.0024383853
0.16508134 0.22593872 0.0035996677
0.17193031 0.22463445 0.0051259762
-0.17040214 0.23283812 0.0046951324
-0.16410141 0.23439477 0.0053606969
-0.15652205 0.23566425 0.0036187954
-0.14529817 0.2351715 0.0026244759
-0.13514215 0.23552072 0.0019626853
-0.12465741 0.23551823 0.0020681401
-0.1143036 0.23477846 0.0025141193
-0.10566085 0.23463073 0.0027971144
-0.094974056 0.23475388 0.0025817174
-0.085785002 0.23423 0.0025878863
-0.07382229 0.23506878 0.0034148162
-0.065454058 0.23522973 0.0017252564
-0.055376522 0.23546319 0.0027973896
-0.044763658 0.23512346 0.003626436
-0.035540648 0.23531476 0.0020105995
-0.02481436 0.23447198 0.0029773845
-0.014879741 0.23494013 0.0026910549
-0.0052107596 0.23482715 0.0020138903
0.0058060028 0.23569377 0.0029119067
0.015333307 0.2341613 0.0026664117
0.025254237 0.23586282 0.002507162
0.035354048 0.23443511 0.0028742112
0.045268729 0.23443487 0.0030083577
0.054916866 0.2354698 0.0018534855
0.064826071 0.23536292 0.0028402708
0.076225713 0.2354742 0.0022401055
0.085137509 0.23476179 0.0020880322
0.0952226 0.23518617 0.0022646235
0.10370103 0.2349353 0.0027512601
0.11568772 0.23547438 0.0019860445
0.12479769 0.2349474 0.0024434682
0.13555178 0.23536655 0.0022178686
0.14537683 0.23488948 0.0020750612
0.15599176 0.23575951 0.0031299358
0.16420375 0.23513101 0.0049259095
-0.16256469 0.24239114 0.0058100796
-0.15523282 0.24490534 0.005130297
-0.14534841 0.24620114 0.0038380739
-0.13443074 0.24594101 0.0026348701
-0.12580183 0.24436128 0.0032111742
-0.11404218 0.24502531 0.0019247041
-0.10505573 0.24506944 0.0020763148
-0.094298296 0.24366263 0.0020804571
-0.085194685 0.24553217 0.0024556834
-0.073354088 0.24482822 0.0025304209
-0.064568147 0.24487787 0.0025255959
-0.054794166 0.24555792 0.0021472308
-0.044883333 0.24571791 0.0034159981
-0.035840675 0.24609147 0.0021861934
-0.02517675 0.24395777 0.0024869889
-0.014228371 0.2455662 0.0029895802
-0.0051152036 0.2453988 0.0025235231
0.0053761224 0.2444295 0.0024626739
0.01567886 0.24361788 0.0028828706
0.025748646 0.2454157 0.0025594346
0.034931313 0.24480636 0.0024994994
0.045187317 0.24532716 0.0023038161
0.055460315 0.24484368 0.0019747084
0.06515266 0.24481858 0.002597681
0.075488396 0.24475011 0.0018356583
0.084924124 0.24546909 0.0018636158
0.095277451 0.24566817 0.002126602
0.10437028 0.24541219 0.0023961826
0.11608928 0.24402417 0.0018677746
0.1245712 0.24526903 0.0021500662
0.13486224 0.24461561 0.001771073
0.14522202 0.24554624 0.0017776219
0.15638824 0.24515299 0.0051543419
0.16287597 0.2429743 0.0064056595
-0.15305686 0.25359994 0.0058423993
-0.14499819 0.25475395 0.0046914602
-0.13525911 0.25623408 0.0032740843
-0.12483927 0.25374246 0.003134317
-0.11552671 0.25475687 0.0022524411
-0.10508843 0.2543979 0.0028822699
-0.095451437 0.25480595 0.0025626142
-0.084985442 0.25510454 0.0026542661
-0.074443355 0.25484374 0.0024155155
-0.06510897 0.25415769 0.0018818529
-0.055601336 0.2544589 0.0027241202
-0.044763222 0.25438154 0.0028032609
-0.035495188 0.25490561 0.0022900894
-0.025036832 0.25350493 0.0017964932
-0.015417178 0.25415364 0.0025543224
-0.0053170817 0.25543696 0.00219382
0.0058253971 0.25465819 0.0025344272
0.015753128 0.25415906 0.0029429218
0.025667386 0.25368729 0.0020680595
0.03478875 0.25590143 0.0028335967
0.04500911 0.25503966 0.0022119372
0.055435844 0.25410995 0.0023982623
0.064939938 0.2539773 0.002560077
0.075223118 0.25502735 0.002320857
0.084309503 0.25366899 0.0019406192
0.094993673 0.25667641 0.0025528704
0.10497602 0.25422367 0.0023821527
0.11575662 0.25472048 0.0015562641
0.1245942 0.2556935 0.0026306252
0.13560723 0.25589952 0.0028552115
0.14543629 0.25587121 0.0053220647
0.1530243 0.25278759 0.0063040988
-0.14307329 0.26303428 0.0053320723
-0.13448294 0.26511186 0.0051126885
-0.12574117 0.26477361 0.0038578785
-0.11462632 0.26530826 0.0018784124
-0.10406453 0.26422903 0.0021218515
-0.094968364 0.26524675 0.0025056088
-0.084873088 0.26522961 0.0019408292
-0.074460298 0.2658532 0.0019522184
-0.06542711 0.26571855 0.002493114
-0.054842882 0.26425534 0.0022557166
-0.044528775 0.26524842 0.0023514847
-0.036242444 0.26545522 0.0021941166
-0.025549397 0.26580381 0.0023063158
-0.01578116 0.2653203 0.0025105549
-0.0058975406 0.26427895 0.0024174175
0.0060815425 0.26462382 0.002637133
0.015794555 0.26575103 0.0023360632
0.02471742 0.26487216 0.0017915086
0.035175692 0.26582873 0.0027950841
0.045913171 0.26503551 0.0023570252
0.05548308 0.26514784 0.0018012222
0.065011963 0.26554734 0.002638693
0.076069683 0.26452932 0.0020498096
0.085026421 0.26484877 0.0021659797
0.096783653 0.2654807 0.0025516874
0.10460126 0.26439705 0.0021186518
0.11587983 0.265659 0.0016343739
0.12535459 0.26574892 0.0029794751
0.13574217 0.26577559 0.0051062987
0.14306076 0.26240093 0.0050747418
-0.13373998 0.27220044 0.0055510793
-0.12472164 0.27449447 0.005662085
-0.11575671 0.2765961 0.0038494694
-0.10509554 0.27586785 0.0015365025
-0.095238462 0.27528572 0.0022218323
-0.085043371 0.27424121 0.0020592837
-0.074831836 0.27490544 0.0019090176
-0.06561102 0.27528051 0.0025569417
-0.055108704 0.275114 0.0021382773
-0.044974301 0.27505532 0.0023097354
-0.035798829 0.27519616 0.0022597827
-0.025348468 0.27663863 0.0015982047
-0.015402427 0.2760345 0.0018561725
-0.0057152081 0.27557865 0.002512008
0.0058603454 0.27505839 0.0026030308
0.014882719 0.27619311 0.0014928895
0.024960887 0.27433157 0.0025071602
0.035246834 0.2759718 0.0023255337
0.046232279 0.27421084 0.001970801
0.055914156 0.27459672 0.0020580881
0.065615088 0.27570176 0.0028112207
0.075840451 0.27576509 0.0019516021
0.085077539 0.27471256 0.0017910091
0.095789902 0.2738798 0.0018181092
0.10540523 0.27592954 0.0025342167
0.11653153 0.276528 0.0045268671
0.12462533 0.27465543 0.0045240861
0.13299245 0.27251196 0.0062070675
-0.12206607 0.28077489 0.0075301528
-0.11384842 0.28212711 0.0047761924
-0.10512939 0.28411129 0.0050157551
-0.095985003 0.28716633 0.0047213319
-0.085439295 0.28561601 0.0021348223
-0.075980335 0.28405628 0.0028194743
-0.065353908 0.28376397 0.0016523647
-0.055174641 0.28484908 0.0027795432
-0.043771528 0.28585047 0.0017629955
-0.035988934 0.28523546 0.0028622847
-0.025718158 0.28567237 0.0016949774
-0.015432336 0.28339323 0.0024560967
-0.0051055653 0.28609303 0.0023196628
0.0060608946 0.28634736 0.0024811795
0.015667312 0.28495085 0.0022033027
0.025759347 0.28476742 0.0027212738
0.035445265 0.28356904 0.0023835003
0.045763224 0.28510115 0.0020192412
0.055225797 0.2842035 0.0020046756
0.065102488 0.28509489 0.0020810044
0.07578782 0.28541303 0.0023999047
0.085778475 0.28462213 0.0017402461
0.096250564 0.28571355 0.0033892333
0.10462829 0.28548816 0.0044256258
0.11406476 0.28291583 0.0066336365
0.12184209 0.28130811 0.0057714581
-0.10351074 0.2906037 0.0055756075
-0.094630331 0.29231927 0.0056576254
-0.085177183 0.29447106 0.0048368508
-0.074749261 0.29642805 0.0042752591
-0.065286793 0.29692897 0.0041857879
-0.054866157 0.29548231 0.0030742029
-0.044223871 0.29553884 0.0019904559
-0.036025997 0.29395744 0.0028067967
-0.026236819 0.29379532 0.0019199392
-0.015263398 0.29439226 0.0018052889
-0.0052825222 0.29457638 0.0021980933
0.0057680765 0.29591909 0.0027613668
0.014890142 0.29513395 0.0018491298
0.024870642 0.29497749 0.0023536468
0.03439964 0.2943455 0.0023857858
0.045618821 0.29505357 0.0018636212
0.054111704 0.29526335 0.0023988441
0.065209769 0.29589251 0.0036315843
0.075791568 0.29591903 0.003719744
0.084629238 0.29456419 0.0047186487
0.094885118 0.29290897 0.0058465796
0.10239582 0.29149914 0.0068887286
-0.080980137 0.30035174 0.0064059049
-0.073208548 0.30107602 0.0073494823
-0.064067192 0.30219004 0.0049723079
-0.05445879 0.30374885 0.0056201774
-0.046050362 0.30592602 0.0051101213
-0.035063379 0.30687457 0.0048669968
-0.025524743 0.30709371 0.0046063452
-0.01508528 0.30689055 0.0050340607
-0.0048548523 0.30675489 0.0042126668
0.0054048086 0.30622524 0.0029237547
0.014871213 0.30698401 0.0043773837
0.025273126 0.30725789 0.0045016562
0.03440313 0.30629808 0.0044711414
0.044686832 0.30624801 0.0049705924
0.055400301 0.30429444 0.005269682
0.065187551 0.30176666 0.0051358608
0.071931049 0.30146286 0.0064274981
-0.035104357 0.31009904 0.0062604249
-0.022308184 0.31053919 0.0062028961
-0.014682643 0.31093863 0.0049298471
-0.0056287092 0.31135389 0.0066411775
0.0048270379 0.31153545 0.0054321671
0.014557603 0.31093284 0.0061346069
0.025391221 0.31073496 0.0058872239
0.040462293 0.310036 0.0068866983
-0.034719102 0.049552485 0.014782503
-0.023892483 0.049082249 0.014716542
-0.014183445 0.049167942 0.01567493
-0.0042503914 0.049008247 0.015159512
0.0046147145 0.048946656 0.014926411
0.014720881 0.049070306 0.014763457
0.02653363 0.049383711 0.013518794
-0.080778815 0.059467018 0.01876089
-0.072962597 0.058694553 0.01694962
-0.064728342 0.058246233 0.014635252
-0.05578813 0.055992063 0.01547181
-0.045498338 0.053979795 0.014951783
-0.035074282 0.052867047 0.013527531
-0.024954908 0.051952001 0.01483019
-0.015500414 0.051455796 0.014672138
-0.005390102 0.051096901 0.015516732
0.0055469591 0.051052224 0.014509154
0.014654785 0.051178098 0.016127324
0.02482276 0.051829796 0.015149008
0.035279259 0.052583404 0.015780184
0.044672471 0.0535862 0.015178404
0.054731756 0.055567555 0.015331066
0.064509891 0.057807695 0.016013831
0.072509483 0.058279932 0.013929049
-0.10247035 0.068680435 0.016972333
-0.093880415 0.066745825 0.015745055
-0.085566752 0.065512501 0.014917868
-0.07476569 0.06264329 0.015475634
-0.066184618 0.061359875 0.014441281
0.058826365 0.06095029 0.013748607
0.066603646 0.061433259 0.013809669
0.074895561 0.062281646 0.01447176
0.084866278 0.064741708 0.014568788
0.094062716 0.067112401 0.015484814
0.10191994 0.068840131 0.015273698
-0.12133938 0.079113394 0.016961347
-0.11378651 0.077712364 0.01570932
-0.10488891 0.075019278 0.015074923
-0.09645661 0.071947902 0.013924475
0.09675651 0.072316967 0.015340576
0.10511734 0.074285038 0.015009168
0.1144145 0.077711865 0.014469173
0.12035887 0.078599975 0.018795956
-0.13318433 0.08713235 0.015001538
-0.12503019 0.085354105 0.015587828
-0.11563853 0.081998371 0.014998933
-0.10845335 0.080893859 0.015614252
0.10741951 0.080846831 0.014377385
0.11587129 0.082708031 0.01555267
0.12491545 0.084806338 0.015733205
0.13207509 0.087351426 0.015647033
-0.14440429 0.096656963 0.015955098
-0.13493641 0.094388507 0.015172109
-0.12835765 0.092919186 0.015406897
0.12721519 0.092252277 0.014817997
0.13539672 0.094026051 0.015887743
0.14330336 0.097399905 0.01591056
-0.15424837 0.10732037 0.014752945
-0.14487582 0.10520935 0.015026029
-0.13791336 0.10256591 0.014939483
0.13754308 0.10317315 0.015421775
0.14600484 0.10393257 0.014984876
0.1534549 0.10754526 0.015290124
-0.1622009 0.11598381 0.014428802
-0.1546706 0.11518817 0.015643632
-0.14866121 0.11155381 0.01449044
0.14753546 0.11280788 0.016553074
0.15567172 0.11466666 0.015375857
0.16159678 0.11631075 0.014537358
-0.17209545 0.12914826 0.013366332
-0.16427542 0.12510617 0.014745729
-0.15782462 0.12322097 0.015932621
0.15770508 0.1238356 0.013928432
0.16526549 0.12493999 0.015380335
-0.17343932 0.13570116 0.014262659
-0.16627856 0.13473497 0.014980611
-0.15829369 0.13001211 0.013084471
0.15685397 0.13656899 0.012541354
0.16672516 0.13358898 0.014327237
0.17279972 0.13564856 0.014721069
-0.18162599 0.1471424 0.012925267
-0.17444265 0.14532037 0.014743583
-0.16821294 0.14248797 0.015767206
0.16806683 0.14464298 0.014234471
0.17518947 0.14474788 0.014914276
0.18060385 0.14701818 0.017385639
-0.18146005 0.15639725 0.015306218
-0.17529811 0.1547939 0.015239908
0.16970327 0.15287825 0.015558213
0.17680888 0.15460524 0.0147249
0.18131271 0.15588421 0.015121883
-0.18187961 0.16496371 0.015317299
-0.17600255 0.16544989 0.014842882
0.17646129 0.16356482 0.01503078
0.18199132 0.16669284 0.014896008
-0.18287884 0.17471699 0.014317434
-0.17699687 0.17489664 0.014877833
0.17772013 0.17448629 0.015009157
0.18297151 0.17461175 0.014890382
-0.18305825 0.18511024 0.014280278
-0.17719948 0.1852295 0.014519252
0.17768595 0.18536504 0.014924264
0.18308397 0.18478142 0.014809603
-0.18169931 0.19426663 0.014959532
-0.17580615 0.19472259 0.014459155
0.17579401 0.19603506 0.014892893
0.18185742 0.19444986 0.015253252
-0.18171842 0.20150015 0.01411087
-0.17531858 0.20532566 0.015370386
0.16962075 0.20687596 0.015053242
0.17642055 0.20580728 0.014542915
0.18115976 0.2044104 0.015591505
-0.1810935 0.21192807 0.01428173
-0.1743276 0.21443182 0.015044546
-0.16812791 0.21759471 0.016734846
0.16804554 0.21558127 0.01332421
0.17531095 0.21559924 0.015168684
0.18044336 0.21303029 0.016611565
-0.17330089 0.22388996 0.014673745
-0.16607341 0.22526102 0.014812481
0.15742281 0.22402553 0.010034502
0.16682535 0.22607233 0.014399071
0.17286906 0.22475962 0.014733308
-0.17240016 0.23096421 0.015292312
-0.16434008 0.23497857 0.014754103
-0.15824269 0.2365541 0.015631123
0.15772554 0.23488688 0.013367958
0.16529167 0.23499507 0.015471726
0.17075869 0.23145081 0.011416644
-0.16214035 0.24438244 0.0145934
-0.15468299 0.24537626 0.015522586
-0.14913665 0.24881187 0.013928956
0.14799142 0.24525392 0.015045583
0.1555495 0.24531654 0.015157634
0.16171639 0.24381435 0.014462334
-0.15391718 0.25325775 0.014881628
-0.14493896 0.2552366 0.015158565
-0.13846447 0.25818378 0.013185921
0.13875584 0.25804996 0.014357316
0.14650501 0.25589389 0.014532825
0.15389667 0.25247505 0.015767727
-0.14388794 0.26363868 0.014865422
-0.13505417 0.26573548 0.014830446
-0.12908205 0.26707423 0.01510871
0.12759581 0.26780546 0.014730582
0.1353675 0.26599586 0.015540216
0.14360023 0.26252371 0.015249447
-0.1338032 0.27271435 0.015916029
-0.12494764 0.27483976 0.01498621
-0.11573656 0.2781541 0.015454632
-0.10780025 0.27967396 0.014778435
0.11576807 0.27795842 0.014479428
0.12459787 0.27590322 0.015651453
0.13246602 0.2727637 0.015595884
-0.12180755 0.28094831 0.01603598
-0.11441699 0.28221056 0.015094299
-0.10508776 0.28519836 0.014885223
-0.097106241 0.28812039 0.013954828
0.096959017 0.28789234 0.015346648
0.10532157 0.28574502 0.015136905
0.11403064 0.28278503 0.015424567
0.12028354 0.28178141 0.017481904
-0.10282438 0.29131401 0.016712878
-0.093872301 0.29336077 0.015143092
-0.085345812 0.29528677 0.014946168
-0.075392149 0.29760358 0.015311952
-0.0673493 0.29945391 0.015248274
0.066710331 0.29878548 0.013071422
0.075307623 0.29793108 0.013866377
0.085200652 0.29594743 0.014601611
0.094309688 0.29327035 0.014841449
0.10184696 0.29129386 0.015063043
-0.081412397 0.30056205 0.016952515
-0.073509768 0.30124384 0.016004758
-0.064410411 0.30210924 0.014561604
-0.055402022 0.30491355 0.015636712
-0.044826813 0.30703723 0.014887676
-0.035312627 0.30788699 0.013875502
-0.025064027 0.30861002 0.014405711
-0.015348807 0.30882424 0.014686862
-0.0039896667 0.30948561 0.015577136
0.0053971391 0.30919132 0.014626971
0.015237708 0.30930415 0.016005037
0.025123807 0.30885252 0.01511059
0.034863848 0.30824995 0.015985547
0.045156319 0.30702335 0.015115758
0.054888509 0.3052991 0.015492924
0.064811192 0.30257738 0.015769485
0.073584378 0.30129755 0.016060602
0.081804648 0.30038327 0.013138518
-0.034716003 0.31069845 0.012597255
-0.024847284 0.31066284 0.014790501
-0.014566208 0.31091806 0.015177094
-0.0051534851 0.31126824 0.01501174
0.0050507435 0.31151006 0.014450699
0.015137499 0.31106848 0.015123984
0.025289852 0.31057596 0.014092959
0.037651755 0.31031761 0.011575377
0.040597625 0.31019163 0.017524436
-0.034719117 0.049469471 0.022465199
-0.025952812 0.049477275 0.024390668
-0.014382198 0.04910538 0.023856739
-0.0037079989 0.049032476 0.024072621
0.0056182467 0.048828114 0.024845745
0.014698245 0.049174264 0.025774879
0.023948606 0.049359147 0.023531776
0.032601833 0.04989405 0.024363581
-0.07214205 0.058543816 0.026215652
-0.063934654 0.058008991 0.02548057
-0.055036839 0.056533616 0.024002288
-0.045369696 0.053823028 0.024628278
-0.035365414 0.052691154 0.02547735
-0.025255827 0.051818796 0.024429535
-0.015949409 0.051303271 0.024665384
-0.0049340171 0.050941158 0.02600006
0.0056286622 0.050976157 0.024110811
0.015343396 0.051434111 0.025635825
0.025068404 0.051583141 0.025461877
0.03455127 0.052487187 0.025494758
0.044841126 0.053599969 0.02445546
0.055489693 0.055921219 0.024688005
0.064735122 0.057825409 0.02453102
0.072933733 0.058861453 0.023655467
-0.10386865 0.069266424 0.024813309
-0.094457462 0.067599997 0.024756638
-0.085157469 0.065266207 0.02603513
-0.075296171 0.062771074 0.025894087
-0.066435829 0.060858846 0.025412152
-0.059940301 0.061041221 0.027033269
0.0544485 0.061467528 0.025085013
0.066179462 0.060831297 0.024730036
0.075895756 0.062367789 0.024732197
0.084805042 0.06493222 0.025095468
0.094539352 0.067150727 0.025114585
0.1026227 0.068935007 0.023947205
-0.12082981 0.079394147 0.024321601
-0.11391682 0.077749304 0.024791207
-0.10469145 0.074946932 0.024737481
-0.096038394 0.07223887 0.024645865
-0.089378357 0.070284083 0.024307966
0.086174995 0.070550293 0.025398076
0.096284196 0.072429992 0.024952769
0.10550839 0.074343778 0.024845453
0.1135103 0.077111743 0.024636008
0.12206739 0.078654617 0.025811821
-0.13296039 0.087692574 0.026362328
-0.12521335 0.085581675 0.025000418
-0.1151886 0.082212493 0.025567923
-0.10921176 0.080525659 0.026482671
0.10719043 0.080505528 0.026598275
0.11613227 0.08282312 0.025036709
0.12486862 0.084635727 0.025218002
0.13331498 0.088097051 0.025704026
-0.14325924 0.096486866 0.024673808
-0.13516834 0.095129609 0.025389049
-0.1276217 0.092029661 0.025138821
0.12677802 0.093443431 0.025368672
0.13517401 0.093634233 0.02510621
0.14293961 0.097074427 0.024727648
-0.15359271 0.10757324 0.025389347
-0.14527869 0.10466519 0.025068691
-0.13739507 0.10174688 0.02536713
0.13758545 0.10197136 0.025551809
0.14540896 0.10421583 0.024729412
0.15331148 0.10711699 0.025147917
-0.16337174 0.11666651 0.024851786
-0.15563586 0.11476256 0.024713306
-0.147585 0.11178014 0.024212753
0.14688098 0.11115862 0.025033861
0.15569843 0.11396153 0.025408788
0.16201033 0.11658191 0.024829663
-0.17126665 0.12831326 0.025766725
-0.16451234 0.12564632 0.025226429
-0.15806916 0.12428317 0.025769969
0.15819949 0.12308482 0.025071573
0.16457461 0.12487856 0.024749184
0.17085475 0.12877908 0.024455011
-0.17357145 0.13663107 0.026122384
-0.16631679 0.13484861 0.024240194
0.15902595 0.1327799 0.028239429
0.16595946 0.1337166 0.02553352
0.17306541 0.13586041 0.025010902
-0.18067014 0.1446881 0.023559034
-0.17463911 0.14589454 0.024493536
-0.16809523 0.14379416 0.023273179
0.16814268 0.1432471 0.024713546
0.17553788 0.14438029 0.025049612
0.18027264 0.14777115 0.02318323
-0.18192571 0.15792035 0.023188274
-0.17561276 0.15560794 0.025614554
-0.169195 0.15400429 0.028498083
0.17698701 0.15467578 0.02511104
0.18094106 0.15437563 0.023002788
-0.18183564 0.16511959 0.025317293
-0.17619644 0.16638428 0.024759017
0.17657305 0.1631887 0.024906024
0.18153276 0.16455564 0.023537049
-0.18268891 0.17492355 0.02478129
-0.1769893 0.17465793 0.02564933
0.17714387 0.17431217 0.025602268
0.1826939 0.17421304 0.024649747
-0.18276224 0.18504369 0.024869829
-0.17721286 0.18503928 0.025425803
0.1773895 0.1852828 0.025374208
0.18294966 0.18511809 0.024678996
-0.18204756 0.19431888 0.025612792
-0.17622432 0.19411375 0.024949223
0.17653349 0.19623683 0.025133697
0.18133868 0.19616254 0.02373291
-0.18174271 0.20279278 0.023830839
-0.17542055 0.20476718 0.025795154
-0.16920602 0.20655334 0.028009325
0.17683123 0.2054069 0.025461221
0.18096112 0.206251 0.023392171
-0.18077597 0.21558252 0.023762912
-0.17477533 0.2145571 0.024613904
-0.16887078 0.21630721 0.025417514
0.16884123 0.21742766 0.024516514
0.17587005 0.21510795 0.024725871
0.18036227 0.21178278 0.022184864
-0.17345208 0.22400403 0.026228111
-0.16619788 0.22530301 0.024327304
0.15730357 0.22415817 0.027647138
0.16663565 0.2257905 0.026001003
0.1731405 0.22428925 0.025152626
-0.17178854 0.23170397 0.026252881
-0.16462144 0.23386088 0.025338333
-0.15807314 0.23620163 0.025912482
0.15809064 0.23683047 0.024755608
0.16462485 0.23490429 0.024695767
0.17055729 0.23095205 0.022901829
-0.16333632 0.24385765 0.023817949
-0.15575621 0.24526063 0.024970995
-0.14796335 0.24871197 0.022664336
0.14826654 0.24891968 0.023692787
0.15581089 0.24599597 0.025099849
0.16245095 0.24316475 0.025027154
-0.16057487 0.2501322 0.022866368
-0.15385127 0.25245982 0.02518224
-0.14521386 0.25543955 0.025177488
-0.13752487 0.25924587 0.02337152
0.13862254 0.25694609 0.024291977
0.14530434 0.25585943 0.024469126
0.15366068 0.25331703 0.025256533
-0.14438142 0.26320198 0.025083136
-0.1350988 0.26500013 0.025558602
-0.12829314 0.26847169 0.024686808
0.12721126 0.26734507 0.024385981
0.13528374 0.26617134 0.024933176
0.14292559 0.26323825 0.024454048
-0.13320152 0.27292961 0.025958588
-0.12535237 0.27427521 0.024834482
-0.1161394 0.27760047 0.025822338
0.10937887 0.27954483 0.025764465
0.11624076 0.27760786 0.024165133
0.12491421 0.27577174 0.025085477
0.13331264 0.27203864 0.024695814
-0.12182783 0.28075501 0.026637584
-0.11443621 0.28259489 0.024861032
-0.10550305 0.28536117 0.025191542
-0.096470714 0.28803337 0.024591362
0.097019017 0.28841186 0.024604565
0.10532454 0.28611839 0.024902325
0.11385678 0.28325167 0.024656566
0.12206447 0.281654 0.025774043
-0.10285392 0.29099736 0.023881759
-0.094106279 0.29264218 0.024774509
-0.085311919 0.29567394 0.026151039
-0.075468563 0.29785001 0.025682973
-0.066398822 0.29929638 0.025437444
0.052778833 0.29979295 0.024474502
0.067527182 0.29937255 0.02414315
0.075801902 0.29804185 0.024733452
0.085277893 0.29567185 0.025018103
0.094570778 0.29354301 0.024723014
0.10216866 0.29168782 0.023302455
-0.082167372 0.30051601 0.026654035
-0.072254896 0.3016654 0.025909221
-0.064312674 0.30223829 0.025334779
-0.055539902 0.30438793 0.024494061
-0.045169644 0.30697885 0.024938868
-0.035004374 0.30813798 0.025075717
-0.025617713 0.30895776 0.024560889
-0.016720401 0.30886176 0.024931487
-0.0046627983 0.30912894 0.026194362
0.0051056012 0.30947933 0.025499633
0.01612867 0.30900556 0.025879607
0.024921875 0.30901647 0.025677903
0.034699 0.30838585 0.025430122
0.045154642 0.30719 0.024356531
0.055258736 0.30467138 0.02457116
0.064814463 0.30248418 0.024919689
0.074418955 0.30128083 0.024805527
0.082285687 0.30024487 0.02406276
-0.040835671 0.31009018 0.024123073
-0.037290331 0.31044996 0.025343969
-0.024411131 0.31069183 0.025186297
-0.014678174 0.31112185 0.023952194
-0.0039467528 0.31155807 0.024478793
0.0060358294 0.31157389 0.024830282
0.014241193 0.31098506 0.025801318
0.023953637 0.31071702 0.023988036
0.034687638 0.31060439 0.023265585
0.040746115 0.31018013 0.028209545
-0.034719102 0.049555883 0.033518225
-0.023086146 0.049366277 0.034169894
-0.012787633 0.048663944 0.034625582
-0.0049059349 0.048939679 0.034760181
0.0036044999 0.04882098 0.035561681
0.013753996 0.049243439 0.03457237
0.02421437 0.049357973 0.033604693
0.030041911 0.049216211 0.038886152
-0.080682583 0.059446514 0.030841827
-0.073378816 0.059089296 0.036988564
-0.064192116 0.057815187 0.033898074
-0.055028159 0.056322642 0.03477392
-0.046084967 0.054440591 0.034059208
-0.034991816 0.053479176 0.035316631
-0.025001017 0.052230075 0.034119837
-0.01510723 0.052340817 0.035033349
-0.0057611098 0.052441187 0.036216576
0.0046522631 0.052005369 0.035046238
0.014900957 0.051855169 0.034609828
0.024551382 0.052053485 0.034648657
0.035322357 0.052979831 0.034724317
0.045029461 0.054089859 0.034625556
0.055112544 0.055849116 0.035068851
0.065118618 0.058068383 0.034297246
0.0734469 0.058513403 0.034612127
-0.10286026 0.068890713 0.035078838
-0.094595194 0.06735608 0.034675803
-0.084967613 0.065659031 0.035110828
-0.075576253 0.063399799 0.036108445
-0.066542365 0.062679678 0.036840484
-0.058254052 0.061782982 0.036797184
0.03836593 0.060571462 0.039204106
0.044860691 0.061945051 0.039823785
0.053560227 0.060842801 0.037990596
0.066193126 0.062234942 0.036144119
0.075483695 0.062988549 0.035350893
0.084502608 0.064269371 0.034453131
0.094240449 0.067140959 0.033864729
0.10254207 0.069178179 0.037286218
-0.12180328 0.079108566 0.034182176
-0.11348173 0.077311397 0.034640644
-0.10433952 0.07493832 0.034663964
-0.095996052 0.0726946 0.035215434
-0.08558169 0.071250007 0.037445124
0.077252343 0.070677109 0.039639562
0.089873597 0.072346926 0.03663864
0.096286677 0.073098212 0.035575718
0.10527527 0.074589744 0.033930052
0.11413652 0.077548102 0.035097826
0.12133853 0.078859404 0.031846557
-0.13434906 0.088165931 0.036481854
-0.12512356 0.085312106 0.034375336
-0.11486492 0.083440609 0.034852959
-0.10501544 0.081235766 0.037243765
0.10930128 0.081923574 0.031760484
0.11577159 0.082401134 0.034797937
0.12577662 0.085257024 0.035085447
0.1327626 0.087725319 0.035366997
-0.14256698 0.096134827 0.033812433
-0.13375144 0.095051683 0.034615993
-0.12767059 0.093636096 0.036390852
-0.11932461 0.091058746 0.039228223
0.11716735 0.090589181 0.03868036
0.12732704 0.093075581 0.035631537
0.13510765 0.093986407 0.034912065
0.1430497 0.096787207 0.034038082
-0.15338771 0.10705802 0.034662139
-0.14527753 0.10477372 0.034225784
-0.13703148 0.1039595 0.037633315
0.13752842 0.10319804 0.035825185
0.14530484 0.10423481 0.035057925
0.15343039 0.10721849 0.034971103
-0.16253933 0.11673896 0.035496224
-0.15539533 0.11542714 0.033595279
-0.14731444 0.11290725 0.037516661
0.14742523 0.1128974 0.036470722
0.15565856 0.11345842 0.035693176
0.16162714 0.11689064 0.03563397
-0.17142414 0.12863025 0.034101486
-0.16434966 0.12563206 0.03468119
-0.15630065 0.12343257 0.035478782
0.15776367 0.12379298 0.034996923
0.16496268 0.12516706 0.034934092
0.17044425 0.1260432 0.031856969
-0.17412688 0.13601241 0.034550104
-0.16555108 0.13542882 0.034989543
-0.15844792 0.13360119 0.039229658
0.15715206 0.13033253 0.034602463
0.16570194 0.13401183 0.035004355
0.17281199 0.13573924 0.034943569
-0.18058696 0.14403601 0.03624963
-0.17454933 0.14644589 0.034433067
-0.1673457 0.14346379 0.035472613
0.16832024 0.14321643 0.035288408
0.17477284 0.14494798 0.034697492
0.1808691 0.147246 0.0371015
-0.18249181 0.15538202 0.036475878
-0.1755172 0.15536283 0.034986515
0.17668502 0.15518926 0.034532983
0.18116428 0.1549084 0.035381272
-0.1840373 0.16521333 0.034830239
-0.17793097 0.16433409 0.033425972
0.17662567 0.16455612 0.034872264
0.1821405 0.16519439 0.034152642
-0.19226798 0.17369056 0.036182009
-0.18511568 0.17520827 0.034119941
-0.17877303 0.17474119 0.033784982
0.17769043 0.17543919 0.035842489
0.1828988 0.1743132 0.034688603
-0.19166057 0.18600307 0.036766715
-0.18482655 0.1845164 0.034169976
-0.17900275 0.18393499 0.033826299
0.1771367 0.18356033 0.035375044
0.18310727 0.18497063 0.034795333
-0.19044915 0.1956062 0.037250869
-0.1842926 0.19462058 0.035021357
-0.17866087 0.19558661 0.035184409
0.17635535 0.19456787 0.034784526
0.18194045 0.19530725 0.034258235
-0.18315004 0.20341055 0.036581095
-0.17591165 0.20540412 0.03449155
-0.16968112 0.20813996 0.039617598
0.17667277 0.20465067 0.034915503
0.18121497 0.20490551 0.035555713
-0.18133764 0.21408819 0.036079109
-0.17452195 0.21403739 0.034661431
-0.16664393 0.21743254 0.036205567
0.1685494 0.21972048 0.036780953
0.17496839 0.21510358 0.034609493
0.18057911 0.21234924 0.037501641
-0.17382613 0.22429299 0.034290284
-0.16548462 0.22466698 0.035385001
-0.15816267 0.22617482 0.039208412
0.1659773 0.22626989 0.03546029
0.17290582 0.22463973 0.035162006
-0.17170316 0.23149242 0.032193273
-0.16459259 0.23503762 0.034676168
-0.15663238 0.23707403 0.035874821
0.15774131 0.23526192 0.035708155
0.16519177 0.23506171 0.034887265
0.17045105 0.23387045 0.031951889
-0.16252062 0.24325567 0.035109241
-0.15480268 0.24480404 0.033767853
-0.14773105 0.2471635 0.036858272
0.14750259 0.24745433 0.03649589
0.15577088 0.24663706 0.035700604
0.1616194 0.24393077 0.035802461
-0.15344845 0.25283441 0.034631338
-0.14516099 0.25578171 0.034560777
-0.1370869 0.25638932 0.038133465
0.13786417 0.25744143 0.034723666
0.14569744 0.25576043 0.0352562
0.15384655 0.25304848 0.034981858
-0.14308032 0.26409036 0.034492809
-0.1339066 0.26523262 0.035098203
-0.12739629 0.26726642 0.035960265
-0.11909313 0.26912272 0.03910223
0.11766326 0.26992655 0.039459735
0.12759326 0.26751748 0.035611719
0.13519374 0.26557708 0.035177249
0.14314242 0.26356611 0.033901982
-0.13388589 0.27217209 0.035151903
-0.12497671 0.27463689 0.034654349
-0.11482457 0.27739722 0.034706827
-0.1066282 0.27970356 0.037552614
0.10946627 0.27802426 0.035005271
0.1155 0.27755249 0.034621935
0.12583575 0.27519506 0.035358712
0.13278884 0.27245247 0.03451208
-0.12166096 0.28090009 0.033346824
-0.11385101 0.28301904 0.034692999
-0.1045859 0.28517088 0.034847692
-0.096549943 0.28786865 0.034407452
-0.084755808 0.2880528 0.03827852
0.088464111 0.28846031 0.037491128
0.095582008 0.28776503 0.035802685
0.10509815 0.28565156 0.034670789
0.11423668 0.28289938 0.035158832
0.12117277 0.28125948 0.03220658
-0.10310335 0.29122531 0.036445595
-0.095013186 0.29301164 0.034548353
-0.084855318 0.29507402 0.035254132
