# .PCD v0.7 - Point Cloud Data file format
VERSION 0.7
FIELDS x y z
SIZE 4 4 4
TYPE F F F
COUNT 1 1 1
WIDTH 1146
HEIGHT 1
VIEWPOINT 0 0 0 1 0 0 0
POINTS 1146
DATA ascii
-0.013543926 -0.020601517 -0.00038436271
-0.0044722911 -0.021010108 -0.00062770344
0.0027916762 -0.020482171 -0.00053826405
-0.023886764 -0.014011164 -0.00066994334
-0.014971139 -0.01633721 -0.0006788015
-0.0054988274 -0.01665665 -0.00067152636
0.0055545685 -0.015886258 -0.00075713132
0.014921845 -0.013273133 -0.00072764768
0.0221112 -0.010492131 -0.00071492046
-0.033063535 -0.0043970812 -0.00075247098
-0.026538039 -0.0053982735 -0.00064982474
-0.017210264 -0.008637622 -0.0004461527
0.0050095916 -0.0088032261 -0.00010998547
0.016462382 -0.0069184932 -0.00075424701
0.024020923 -0.0040067509 -0.00062103913
-0.040659655 0.0068767765 -0.0006594017
-0.035471577 0.0050151809 -0.00071061042
-0.028761944 0.0026334287 -0.00032870026
0.019412994 0.0007104231 -0.00032639503
0.025513776 0.0047187894 -0.00076324324
0.03116706 0.0051343325 -0.00021969677
-0.04120557 0.014547084 -0.00085070112
-0.035905894 0.015318678 -0.00072265317
-0.029614061 0.018818676 -0.00036534667
0.025819629 0.014950493 -0.00071343459
0.031475548 0.015951416 -0.00017638008
-0.040629677 0.021771144 -0.0010231212
-0.035002865 0.025758006 -0.00077497383
-0.028239999 0.027557334 -0.00046043968
0.019440234 0.02819372 -0.00075299293
0.025620352 0.025075264 -0.00072016148
0.030879814 0.024260594 -0.00049327314
-0.03311564 0.033555441 -0.00085404434
-0.026248926 0.035849404 -0.0007224544
-0.016816957 0.03784271 -0.00050257641
-0.0071322024 0.038603 -7.2434545e-05
0.0060393573 0.039134424 -0.00062707363
0.016246885 0.036068831 -0.00074663648
0.024325484 0.033420928 -0.00065356225
-0.023792282 0.04262517 -0.00072082906
-0.014815561 0.045000028 -0.00070985837
-0.0052305367 0.046251006 -0.00068678003
0.0046452968 0.045505032 -0.00063200935
0.014622388 0.042916104 -0.00060878013
-0.0050104512 0.050552599 -0.00042319548
-0.020583261 -0.020247072 0.0043856502
-0.012905833 -0.020834573 0.0052709668
-0.005152409 -0.02156017 0.0049430691
0.0043486035 -0.021113886 0.0050851814
0.010837933 -0.020385783 0.0066165584
-0.031326938 -0.011215756 0.005568793
-0.024567189 -0.013995379 0.0044235876
-0.015516905 -0.016118631 0.0031665193
-0.0049014464 -0.014898442 0.0021199046
0.0053769485 -0.015557494 0.0026556307
0.014947055 -0.015279516 0.0040880083
0.022084616 -0.012092477 0.0050890986
-0.04014859 -0.0012321174 0.0055824816
-0.03347389 -0.0046414617 0.0045687454
-0.025355211 -0.0052936869 0.002323495
-0.015041482 -0.0050078458 0.0046321629
-0.0051981197 -0.0063372827 0.006176915
0.0052761729 -0.0056180754 0.0057514515
0.014835195 -0.0046838839 0.0030637644
0.025358276 -0.0051339711 0.004090406
0.030726589 -0.0016460873 0.0053178631
-0.041012391 0.0061596385 0.0057255975
-0.035894863 0.0049404204 0.0036583028
-0.024829807 0.0049390537 0.0039035003
-0.017273774 0.0032190117 0.0078068185
0.0082347877 0.00098854676 0.0086236531
0.015896261 0.0045495764 0.0059710452
0.02555551 0.0047257715 0.0027169953
0.031949598 0.0055626314 0.0051310295
-0.04137972 0.0147222 0.0052938913
-0.036276892 0.014944414 0.0033494104
-0.024942366 0.015067806 0.0049375086
-0.018283665 0.015929088 0.0092194853
0.017191758 0.015056691 0.0066134087
0.025112106 0.015090599 0.0024576145
0.032521378 0.014999054 0.0047478136
-0.040908307 0.023007357 0.0054200208
-0.035646591 0.024965635 0.0037140362
-0.024843436 0.025013095 0.0034512817
-0.016686222 0.026847353 0.0073694736
-0.0070309308 0.029343946 0.0095380628
0.0072617629 0.028695954 0.0086260149
0.015456837 0.025647547 0.00547125
0.0258018 0.025321791 0.0029894437
0.031749126 0.024069058 0.0052264575
-0.033010326 0.034029841 0.0047319359
-0.025606696 0.035509683 0.0026175661
-0.014889135 0.035047468 0.003680055
-0.0050424477 0.035595894 0.0054037394
0.00507004 0.035413172 0.0046542147
0.014984511 0.035023503 0.002567295
0.024853714 0.034802172 0.0043523405
0.030665796 0.030873086 0.005920372
-0.031355869 0.040779244 0.005227583
-0.024050942 0.042999726 0.0045774234
-0.014970087 0.046108067 0.00377632
-0.0051366189 0.046474449 0.0031498424
0.0050716745 0.046477217 0.0035969373
0.014737841 0.044284362 0.0043460205
0.021526786 0.041287612 0.0049583116
-0.011858715 0.050302014 0.0059523475
-0.0046264217 0.050531697 0.0053578611
0.0026906172 0.050439965 0.0057502482
-0.01304181 -0.020887459 0.015087683
-0.0050350642 -0.021762569 0.014945988
0.0041217599 -0.021203507 0.014853576
0.010996672 -0.020416446 0.014481907
-0.031102456 -0.0113747 0.015290984
-0.02485648 -0.014621893 0.01505773
-0.016707921 -0.018866835 0.015035247
0.0075758258 -0.019320602 0.015191479
0.015292071 -0.016481403 0.014955428
0.022173692 -0.012048203 0.014965869
-0.040613305 -0.00072941184 0.018475473
-0.03387836 -0.0049960106 0.015131474
-0.02914005 -0.0091451202 0.015507221
-0.011983841 -0.0012119532 0.01105362
-0.0048905709 -0.0015210552 0.011893292
0.0030240787 -0.0012171288 0.011495732
0.026360033 -0.005619219 0.015142645
0.030730136 -0.0014996909 0.014753121
-0.040850967 0.0063424627 0.015584311
-0.03757691 0.0047478331 0.014903904
-0.020509742 0.008775007 0.01036112
-0.014148376 0.0057139946 0.013047115
-0.0049952245 0.0047011296 0.016027929
0.0052677151 0.0050008227 0.014605171
0.011937855 0.007129475 0.011537686
0.029037343 0.003391003 0.01523879
0.032093 0.005645968 0.015032456
-0.041269362 0.014922043 0.015193558
-0.038560364 0.015104581 0.015113764
-0.020769505 0.014549979 0.01058323
-0.014960204 0.015028792 0.014385893
-0.0052482961 0.015099806 0.018275099
0.0054514455 0.015071662 0.017042497
0.012402409 0.015101022 0.012334633
0.029686131 0.014890862 0.014313975
0.032642424 0.015095167 0.014987417
-0.040798511 0.023635961 0.014663941
-0.037193693 0.02519503 0.014926254
-0.020137429 0.020957392 0.010382931
-0.013584703 0.023934159 0.012683974
-0.004895336 0.025240937 0.01497007
0.0049394211 0.024748748 0.013783302
0.011511041 0.022434065 0.011288712
0.028714797 0.026424097 0.01513285
0.031787097 0.024351291 0.015077893
-0.033279218 0.034290582 0.014964577
-0.028439503 0.03854787 0.014998709
-0.011491552 0.030771874 0.010387346
-0.0045932075 0.031199565 0.010924097
0.0017627912 0.031015459 0.010696886
0.019318033 0.039140094 0.014426081
0.02552725 0.035285804 0.015012239
0.030525072 0.031025179 0.015344794
-0.030837663 0.040479351 0.014325318
-0.024318589 0.043431405 0.014832269
-0.015088353 0.047829505 0.01501532
-0.0050436254 0.049389549 0.014952014
0.0055189063 0.048643108 0.014921636
0.01499655 0.044927493 0.014801751
0.021569742 0.041312717 0.015149337
-0.011621862 0.05027844 0.015271119
-0.0045397468 0.05060669 0.014909266
0.0025919646 0.050478172 0.015347688
-0.012983649 -0.020931432 0.025013551
-0.0051401001 -0.021712938 0.024947084
0.0041411556 -0.021219948 0.025070457
0.01130891 -0.020328922 0.025459839
-0.031324629 -0.011227748 0.025742514
-0.024924345 -0.014581423 0.025065999
-0.016791726 -0.018782923 0.025062492
-0.0099089816 -0.019908011 0.023299366
0.0076047396 -0.019278008 0.024869958
0.01519289 -0.01648291 0.025024395
0.022131128 -0.01205386 0.02496098
-0.033865035 -0.0049487045 0.025016779
-0.029158739 -0.0093054185 0.025248094
0.026270613 -0.0058417278 0.025068907
0.030702652 -0.0018001705 0.024351181
-0.040841561 0.0059477021 0.025122147
-0.037547637 0.0045707081 0.024893725
-0.0042566624 0.0089698117 0.020299383
0.029032078 0.0035102426 0.025016256
0.03208565 0.0055924468 0.025059361
-0.041159954 0.014977807 0.025152281
-0.03851917 0.015027339 0.025205387
-0.0043314733 0.015013722 0.020471649
0.0013819057 0.014231488 0.020323966
0.029729817 0.01571602 0.02550715
0.03256375 0.014986491 0.025039265
-0.04085888 0.023139434 0.025550401
-0.037239902 0.025212921 0.024864664
-0.0020282567 0.020112239 0.020237744
0.028716076 0.026237397 0.025081193
0.031797297 0.024207762 0.025006976
-0.03332885 0.034247875 0.025022047
-0.028621754 0.038424801 0.025016213
0.019387878 0.039151512 0.026227685
0.025467053 0.03524334 0.025035411
0.030421376 0.031180644 0.025023242
-0.031461533 0.040682595 0.02677897
-0.024359057 0.043365639 0.024867794
-0.015190397 0.047818959 0.025017507
-0.0051737013 0.049386136 0.024969431
0.0055382717 0.048628844 0.024900628
0.014935426 0.044872802 0.024884677
0.021489961 0.041331705 0.025175089
-0.011576436 0.050341081 0.025074212
-0.0044907066 0.050610837 0.024874801
0.0025789377 0.050500736 0.025348091
-0.020730034 -0.02012828 0.035910368
-0.01298673 -0.020912405 0.03512872
-0.0050940136 -0.021744333 0.034803294
0.0040885997 -0.021270435 0.034871586
0.010950319 -0.020390891 0.034810074
-0.031184794 -0.0111396 0.034925129
-0.02487739 -0.014666459 0.034938693
-0.016835408 -0.018797463 0.035018284
0.0079210922 -0.019258771 0.034769334
0.015314237 -0.016403632 0.035051968
0.022236301 -0.01203345 0.034961
-0.034120247 -0.0047551049 0.034977924
-0.029179137 -0.0091658831 0.035411239
0.026257459 -0.0058171432 0.034867208
0.030753197 -0.0017335529 0.035243917
-0.041019924 0.0063947653 0.035152815
-0.037600778 0.0046511348 0.034973465
0.028995954 0.0031736887 0.034739219
0.032065462 0.0054871212 0.034953035
-0.041444011 0.014829316 0.034837611
-0.03856292 0.015129345 0.034893073
0.029718403 0.014888098 0.034695197
0.032636479 0.015004429 0.035042543
-0.04092655 0.023056349 0.034913749
-0.037166744 0.025282428 0.034931783
0.028730989 0.026508562 0.034987129
0.031801827 0.024289759 0.034773048
-0.033415005 0.034176674 0.03493499
-0.028613204 0.038426068 0.03471854
0.019300669 0.038960047 0.03435456
0.025414038 0.035279136 0.035089672
0.030475399 0.030995509 0.03524496
-0.031138124 0.040866524 0.035401385
-0.024358712 0.043395963 0.034956925
-0.015102259 0.047861163 0.034961104
-0.0053770924 0.049372997 0.03487625
0.005327296 0.048662271 0.034905173
0.014994038 0.044871893 0.03490432
0.021639042 0.041258417 0.03479933
-0.011729863 0.050280932 0.035818908
-0.0045412015 0.050576895 0.035226882
0.002687179 0.050492704 0.035100766
-0.020662479 -0.020136014 0.042684436
-0.013005923 -0.020884877 0.044992696
-0.0050406377 -0.021711057 0.044839568
0.0042428984 -0.021171089 0.044880491
0.011300914 -0.020385774 0.045459617
-0.031460151 -0.011170059 0.043984327
-0.024987847 -0.014552172 0.04504877
-0.01690991 -0.018732194 0.045020163
-0.0098273084 -0.019914627 0.044263154
0.0076714209 -0.019290656 0.045020346
0.015210864 -0.016389174 0.044941008
0.022141663 -0.012007002 0.045078989
-0.034021042 -0.0048658634 0.045037013
-0.029136594 -0.0092545375 0.045909926
0.01995929 -0.0098353028 0.044815451
0.02636759 -0.0056063435 0.044855736
0.030881001 -0.0015167978 0.044632185
-0.040852599 0.0065866434 0.045130957
-0.037531916 0.0043815067 0.044736087
0.028978487 0.0031197474 0.044870798
0.031977557 0.0054688402 0.044820316
-0.0411673 0.014930335 0.044787325
-0.038549121 0.014854469 0.044940066
0.029768461 0.015434543 0.046000004
0.032496363 0.014891451 0.044913091
-0.040922787 0.022997135 0.044727009
-0.037178677 0.025318457 0.04485115
0.028600093 0.026765564 0.044699229
0.031783462 0.024167899 0.044806771
-0.033389613 0.034263451 0.045002032
-0.028483579 0.038396329 0.044677183
0.019385237 0.03927096 0.044817045
0.025363684 0.035370901 0.044897765
0.030485919 0.031211291 0.04589102
-0.030994741 0.040667608 0.04550004
-0.0244403 0.043390505 0.045076273
-0.015380044 0.047759198 0.044961121
-0.0053484989 0.049367495 0.044936109
0.0055035241 0.048585333 0.044811126
0.015167466 0.044741493 0.045078117
0.021504572 0.041324917 0.044861827
-0.011592522 0.050339736 0.044074323
-0.0045579765 0.050591953 0.045238763
0.0025394638 0.050483372 0.045155369
-0.013075526 -0.020875905 0.054888133
-0.0050495104 -0.02174329 0.055008404
0.0042005708 -0.021174772 0.054889873
0.010880765 -0.020445444 0.055502012
-0.031213343 -0.011354906 0.054915696
-0.024957353 -0.014648966 0.055017371
-0.016949715 -0.018737243 0.054883268
0.0076017403 -0.019259961 0.054949462
0.015360681 -0.016273785 0.055047162
0.022184437 -0.012091297 0.054880992
-0.034062363 -0.0048530954 0.054886665
-0.029089438 -0.0091844657 0.054778412
0.019889096 -0.0099476427 0.05013907
0.02626195 -0.0056187408 0.054940511
0.030674784 -0.0018431882 0.054889306
-0.040884994 0.0061254292 0.054851227
-0.037633289 0.0047723991 0.054866791
0.029022872 0.0031400889 0.055126309
0.032073975 0.005579785 0.054873783
-0.041331477 0.014813141 0.054629941
-0.038535867 0.015095459 0.054997299
0.029799113 0.015646718 0.054220513
0.032485574 0.014973063 0.054681059
-0.04075947 0.022878237 0.054381203
-0.037193432 0.025367947 0.054795288
0.028652722 0.026479242 0.054858696
0.031762719 0.024366863 0.054914199
-0.033355843 0.034321163 0.054935358
-0.028449247 0.038514502 0.055053383
0.01928471 0.039114218 0.055152182
0.02547444 0.035211138 0.054943345
0.0304929 0.03129318 0.054658812
-0.031296276 0.040468443 0.054519042
-0.024414944 0.043426029 0.055032447
-0.015192145 0.047827516 0.054909494
-0.0053746495 0.049354542 0.055130392
0.0054469481 0.048574377 0.054957185
0.014986146 0.044837642 0.054922085
0.02150677 0.041372649 0.055183027
-0.011634354 0.050340246 0.055176631
-0.0047729546 0.050587896 0.054709233
0.0025436624 0.050430924 0.054692239
-0.013083042 -0.020900959 0.064893872
-0.0049527152 -0.02172235 0.064980485
0.0042362893 -0.021144364 0.064901449
0.011368207 -0.020246342 0.064652011
-0.031574368 -0.01117451 0.065345839
-0.024946898 -0.014655556 0.06502194
-0.016797619 -0.018806739 0.064915769
-0.0097412243 -0.019921601 0.066363066
0.0076700663 -0.019276226 0.065251388
0.015340715 -0.016273038 0.06493412
0.02222446 -0.012024118 0.065095045
-0.034035709 -0.0049937721 0.064903975
-0.029112684 -0.0092047658 0.065016471
0.026248056 -0.005526437 0.06504266
0.030666027 -0.0017176288 0.064354643
-0.040873758 0.0065227244 0.065442897
-0.037583265 0.0045271046 0.064824507
0.029034022 0.003424315 0.065089032
0.032005008 0.0055016745 0.065117121
-0.041199349 0.015138359 0.065878414
-0.038519893 0.014841131 0.065105297
0.029786073 0.015947085 0.065705292
0.032420084 0.014925627 0.064810462
-0.040823836 0.022837257 0.06502866
-0.037244335 0.025203874 0.064982437
0.028831322 0.02642631 0.065006718
0.031785343 0.024157152 0.065067858
-0.033413023 0.034304589 0.064926945
-0.028487356 0.038523301 0.065153107
0.019152408 0.039143182 0.064327933
0.02538177 0.035172943 0.065045811
0.030315032 0.031299591 0.065751769
-0.030900436 0.040606957 0.065188579
-0.024453158 0.043409038 0.065154865
-0.015357715 0.047767218 0.064918645
-0.0053955927 0.049379062 0.065061092
0.0054339264 0.048589312 0.064964347
0.014933786 0.044842105 0.064928904
0.021417489 0.041347522 0.06531626
-0.011614819 0.05025655 0.064983219
-0.0045815841 0.050621431 0.064694919
0.0027777611 0.050513621 0.065036416
-0.013324645 -0.02090247 0.075049147
-0.005149663 -0.021701073 0.075050622
0.0039491802 -0.021267461 0.07496547
0.0110223 -0.020404598 0.076167248
-0.031311933 -0.011104207 0.075391151
-0.02497541 -0.014651374 0.075010791
-0.016861226 -0.018754143 0.075063899
0.0076310053 -0.019267697 0.074882217
0.01520451 -0.01630169 0.075007655
0.022412203 -0.011934998 0.075005017
-0.04005719 -0.0013058782 0.072807968
-0.034166589 -0.0048417114 0.074997164
-0.029084755 -0.0090687992 0.0744754
0.026292669 -0.0055477391 0.075139493
0.030605515 -0.001786025 0.07509122
-0.040836595 0.0062517701 0.075468533
-0.037597913 0.0044704387 0.075144924
0.029024217 0.0035077031 0.075227693
0.032033324 0.0056115086 0.074950986
-0.04120826 0.014840756 0.075402297
-0.038508002 0.015017877 0.075014614
0.029815145 0.016361067 0.076236755
0.032472257 0.014869892 0.074986681
-0.040784031 0.02310068 0.075602412
-0.037285883 0.025255425 0.075132266
0.028735584 0.026296044 0.075103886
0.031821497 0.024129175 0.075026162
-0.033534791 0.034225866 0.074991472
-0.028508514 0.038514301 0.074961662
0.019175401 0.039163467 0.074147508
0.025355643 0.035208967 0.075079888
0.030456159 0.031071454 0.075750224
-0.030933205 0.040836707 0.074886769
-0.024409596 0.043439016 0.075131491
-0.01520881 0.047871735 0.074903898
-0.0051550968 0.049350556 0.07491105
0.0056582293 0.048522659 0.074902706
0.014980883 0.044786811 0.07506454
0.021456113 0.041306265 0.075234085
-0.0117286 0.050356824 0.075549752
-0.0045979214 0.050592959 0.075046308
0.002435961 0.050552204 0.075745985
-0.020677038 -0.020068198 0.080351472
-0.013336448 -0.021040151 0.085006945
-0.0052540987 -0.021860551 0.08506342
0.004119372 -0.021285104 0.084930919
0.011417383 -0.020321934 0.085131228
-0.031265866 -0.011350236 0.08447288
-0.024983088 -0.014834974 0.084984832
-0.016794555 -0.018852647 0.084987924
0.0078041069 -0.019294878 0.084814817
0.015335168 -0.016405709 0.085075535
0.022243425 -0.011918755 0.085056394
-0.034156803 -0.0048740013 0.084983408
-0.02914571 -0.0091676833 0.084923968
0.026318545 -0.0055736126 0.084919125
0.030897303 -0.0018761546 0.085764103
-0.040979922 0.0066573429 0.085295521
-0.037740454 0.0046995929 0.084922664
0.029030183 0.0030348613 0.084853202
0.031941943 0.0055501075 0.084872164
-0.041219294 0.015110452 0.08474879
-0.038504425 0.014973551 0.08508721
0.029747013 0.017341107 0.085947968
0.032326933 0.014852096 0.085194349
-0.040759809 0.023238912 0.084979534
-0.037319783 0.025286905 0.084936343
0.028742533 0.026189093 0.084895432
0.031706862 0.024265701 0.084806651
-0.033433907 0.034309931 0.085055217
-0.028560678 0.038327243 0.085125998
0.019304503 0.039242566 0.085178196
0.025293354 0.035293691 0.085004471
0.030631619 0.031271148 0.086044528
-0.030843951 0.040801901 0.084703282
-0.024380166 0.04342366 0.084853336
-0.015343577 0.047781669 0.085013486
-0.005206021 0.049376376 0.084916882
0.0054653049 0.048541635 0.08500322
0.015025487 0.044736907 0.084997028
0.021712344 0.041314539 0.084938452
-0.011668826 0.050306737 0.085625313
-0.004567903 0.050577 0.085200302
0.0028426051 0.05045943 0.08499755
-0.020631611 -0.020082925 0.094107717
-0.013215829 -0.021105925 0.094848506
-0.0049072476 -0.021991329 0.095106512
0.0045472165 -0.02128882 0.095062934
0.011333903 -0.020414094 0.094531521
-0.031277537 -0.011262037 0.094845369
-0.024957363 -0.01499352 0.095120117
-0.017165596 -0.018861173 0.095104076
0.0082110958 -0.019211063 0.095218658
0.015425762 -0.016434141 0.095018461
0.022285724 -0.011962235 0.094983093
-0.034145985 -0.0049374392 0.094929352
-0.029088749 -0.0091337748 0.095417045
0.026496574 -0.0054540029 0.095015116
0.030926399 -0.0019222745 0.095326304
-0.040835686 0.0065368069 0.094857298
-0.037667628 0.0044619343 0.094881952
0.029166877 0.0027556648 0.095325805
0.032092623 0.0057388567 0.094928727
-0.041285634 0.015078773 0.094994567
-0.038526308 0.01497639 0.094711177
0.029831696 0.018051568 0.094396181
0.032478891 0.014957187 0.095030613
-0.040852997 0.023102896 0.09466166
-0.037316319 0.025331043 0.09481927
0.028702388 0.026542872 0.094953336
0.031734273 0.024114732 0.09502317
-0.033579201 0.034271333 0.09506695
-0.028520413 0.03830969 0.0950654
0.019160813 0.039409019 0.095951147
0.025296921 0.035144389 0.09491393
0.030678574 0.031114249 0.095309369
-0.031002613 0.040772453 0.094809905
-0.024594525 0.043379553 0.094871834
-0.015311209 0.047835961 0.094940118
-0.0052258912 0.049394943 0.095031239
0.0054970914 0.048536725 0.094976544
0.01516414 0.04463049 0.095050305
0.021505073 0.041248631 0.094916314
-0.011835211 0.050323304 0.094358854
-0.0049305558 0.050618332 0.095141925
0.002597363 0.050503675 0.095220789
-0.020810073 -0.020061575 0.1052953
-0.013388999 -0.021071315 0.10505617
-0.0049407533 -0.021968277 0.10516537
0.0043625338 -0.021274082 0.1051147
0.01131538 -0.020432454 0.10469946
-0.031340297 -0.011208787 0.1055892
-0.024924206 -0.015035741 0.10496427
-0.016954305 -0.018950563 0.1052808
0.0082647186 -0.019236075 0.1051519
0.015329729 -0.016495362 0.10510565
0.022131536 -0.012179407 0.10471705
-0.034298934 -0.0047881589 0.10490315
-0.029187698 -0.0090351114 0.10511032
0.026360126 -0.005622487 0.10518946
0.03093761 -0.0020823055 0.10503025
-0.041024558 0.0066744694 0.1051027
-0.037784766 0.0047073518 0.10502885
0.029201072 0.0031087303 0.104836
0.032023948 0.0055927313 0.10500227
-0.041335654 0.014802041 0.10553138
-0.038515531 0.015151743 0.10489942
0.029865524 0.017641783 0.10496774
0.03237845 0.015052774 0.10511976
-0.040809758 0.022785291 0.10511323
-0.037280574 0.025341552 0.10503362
0.028756049 0.026054336 0.10465954
0.031760469 0.024298947 0.10502464
-0.033533338 0.034398336 0.10504267
-0.028482042 0.03838164 0.10498456
0.019007314 0.039412454 0.10472231
0.025357457 0.035112929 0.10494087
0.030691611 0.031173836 0.1051733
-0.030893419 0.040744197 0.10523336
-0.024455599 0.04352022 0.10502807
-0.015339352 0.047864422 0.10483045
-0.0052058445 0.049352232 0.10487678
0.0054602767 0.048546992 0.10501374
0.014916419 0.044718992 0.10495562
0.021468746 0.041401602 0.10496771
-0.011688393 0.05032425 0.10491921
-0.0049991067 0.050564259 0.10465007
0.0031057193 0.050412942 0.10478034
-0.020705996 -0.020279802 0.11561094
-0.013381714 -0.020998333 0.11490919
-0.0050479937 -0.021959841 0.11477726
0.0043311696 -0.021289529 0.11507495
0.011168432 -0.020422002 0.11445157
-0.031329822 -0.011246696 0.1152226
-0.02509449 -0.01489267 0.11472227
-0.017293947 -0.018828247 0.11505207
0.0081965989 -0.019262409 0.11510433
0.015409818 -0.016419092 0.11486062
0.022296829 -0.01213596 0.11498663
-0.034221064 -0.0049572666 0.11475133
-0.029245542 -0.0089817792 0.11471664
0.02630784 -0.0057921638 0.11491515
0.031175377 -0.0014165071 0.11466818
-0.040792048 0.0070469552 0.11513974
-0.037735112 0.0043556439 0.11508273
0.029078653 0.00262384 0.11515431
0.032054648 0.0056528216 0.11497869
-0.041149642 0.015072215 0.11524758
-0.038574744 0.015076519 0.11516765
0.029775262 0.017916966 0.11554559
0.032374974 0.014870791 0.11508042
-0.040655229 0.023005929 0.11584821
-0.037312385 0.025487162 0.11499122
0.028762233 0.026175996 0.11486745
0.031781394 0.024369396 0.1148162
-0.033602212 0.034292426 0.11488785
-0.028609369 0.038316522 0.11481912
0.019137967 0.039499659 0.11624563
0.025244366 0.035174519 0.11480308
0.030516364 0.030893864 0.11692932
-0.030374102 0.040762745 0.1156975
-0.024518121 0.043462217 0.11501268
-0.015281387 0.047867533 0.11504064
-0.0053081699 0.049382366 0.11484043
0.0055928137 0.048518226 0.1149812
0.015135055 0.044637382 0.11486134
0.021766419 0.041108731 0.11510716
-0.011769374 0.050373793 0.11448165
-0.0045371824 0.05056468 0.11492676
0.0024004923 0.050495666 0.11509545
-0.020218341 -0.020487726 0.12541959
-0.013504161 -0.021073986 0.12490591
-0.0049645677 -0.021941613 0.12505507
0.0042677671 -0.021282932 0.12500139
0.010806115 -0.020629128 0.12325576
-0.031052453 -0.011418423 0.12526183
-0.024995135 -0.015025775 0.12492733
-0.017072553 -0.018972969 0.12496253
0.0081570316 -0.019258341 0.12469339
0.015602944 -0.016306687 0.12478852
0.022310289 -0.011895478 0.12497739
-0.034421712 -0.0047976659 0.12492339
-0.029209636 -0.0089842202 0.12551664
0.026266584 -0.0055826791 0.1250875
0.031190779 -0.0016875557 0.12568763
-0.040855043 0.0069960491 0.12498762
-0.037688032 0.0043304735 0.12463717
0.029184695 0.0026862228 0.12485242
0.031995624 0.0057115485 0.12478687
-0.041157357 0.014823101 0.12492708
-0.038552675 0.015149986 0.1246865
0.029791925 0.018097423 0.12584978
0.032230645 0.014979681 0.12479452
-0.040729869 0.022455776 0.12548923
-0.037241809 0.025635818 0.1246479
0.028696962 0.026424894 0.12498905
0.031695094 0.024336196 0.12468708
-0.033574391 0.034402009 0.12500863
-0.028619373 0.038355492 0.12503076
0.019028729 0.039361931 0.12445731
0.025172323 0.035247546 0.12499002
0.030706836 0.030957777 0.12640928
-0.030598084 0.040900514 0.1253635
-0.024396319 0.043565065 0.12497459
-0.015151635 0.047934297 0.12482074
-0.0053647822 0.049365502 0.12518425
0.0055285166 0.048476312 0.12490322
0.015138725 0.044656571 0.12487414
0.021660654 0.041245386 0.12498099
-0.011693544 0.050342757 0.12555298
-0.0043940097 0.050571918 0.12488849
0.0026020401 0.050501544 0.12467319
-0.020134103 -0.02053988 0.13321918
-0.01345071 -0.021075683 0.13503876
-0.0049682469 -0.021981813 0.13476101
0.004215783 -0.021274639 0.13486688
0.011286686 -0.020325404 0.13452777
-0.031164201 -0.01134176 0.13523221
-0.025092466 -0.014931914 0.13499543
-0.017117398 -0.019029615 0.1349346
0.0082769254 -0.019227002 0.13505428
0.015314755 -0.016410535 0.13483906
0.022263499 -0.01209514 0.13485114
-0.034284737 -0.0049336115 0.13498895
-0.029298097 -0.0089356015 0.13467877
0.0263317 -0.0055990471 0.1349856
0.030927002 -0.0017507001 0.13473548
-0.040956099 0.0068583358 0.13504237
-0.03778955 0.0045397002 0.13478979
0.029180164 0.002797384 0.13507055
0.032065235 0.0059726648 0.13520633
-0.041229926 0.014940836 0.13470373
-0.038528681 0.014995884 0.13457227
0.029802794 0.017322386 0.13530253
0.032326013 0.014901534 0.13507871
-0.040763516 0.023030041 0.13516556
-0.037368678 0.025340099 0.13485995
0.028669905 0.026239442 0.13502429
0.031696029 0.023837663 0.1349081
-0.033656616 0.034400854 0.13506982
-0.028530329 0.03828587 0.13517919
0.018994199 0.039506476 0.1346229
0.025255343 0.035096996 0.13520348
0.030829702 0.030821508 0.13389087
-0.030843053 0.040823407 0.13457286
-0.024389617 0.043559894 0.13505355
-0.015198672 0.047964938 0.13492715
-0.0053087687 0.049342569 0.13512579
0.0054665543 0.048532628 0.13495569
0.014940694 0.044671923 0.13508962
0.021535931 0.041273035 0.13531667
-0.011644559 0.050330106 0.13506618
-0.00452065 0.050588652 0.13527392
0.0028592863 0.050405074 0.13579859
-0.013547332 -0.02111003 0.14513455
-0.0049988949 -0.021968909 0.14492944
0.0042189695 -0.021318937 0.14481892
0.010984241 -0.02039578 0.14521737
-0.031099269 -0.011297386 0.14512818
-0.025095263 -0.014956784 0.14498584
-0.017291002 -0.018936638 0.14483827
0.0082221348 -0.019271206 0.14504404
0.015337923 -0.016418729 0.14501338
0.022191372 -0.012051935 0.1449798
-0.034283098 -0.0049951077 0.14506379
-0.029246652 -0.0089285616 0.14531516
0.026243184 -0.005531251 0.14489797
0.030946728 -0.0019842165 0.14531973
-0.040862333 0.0067646513 0.14503479
-0.03789084 0.0044374736 0.14493373
0.029159136 0.0027705198 0.14525025
0.031897373 0.0056581525 0.14522451
-0.04118257 0.014921543 0.14474167
-0.038476825 0.015123008 0.1451308
0.029814422 0.01829556 0.14500849
0.032325808 0.014917852 0.14522715
-0.040736403 0.022613581 0.14542352
-0.037443586 0.025414463 0.14497709
0.028757961 0.026470859 0.14512825
0.031681035 0.024085203 0.1450464
-0.033571202 0.034418754 0.14507852
-0.028596839 0.03836992 0.14474332
0.019225942 0.039398324 0.14485957
0.025097493 0.035220355 0.14502709
0.030646801 0.031211061 0.14472045
-0.030852901 0.040748496 0.14487338
-0.024567824 0.043449111 0.14492558
-0.015204545 0.047930237 0.1450603
-0.005166641 0.049407449 0.14493367
0.0053830566 0.048533559 0.1450406
0.014984045 0.044632327 0.1449969
0.021407681 0.041232053 0.1448209
-0.011955939 0.050310601 0.14463371
-0.0050579188 0.05061014 0.14489079
0.002489002 0.050469954 0.14477448
-0.020846125 -0.020115167 0.15193638
-0.013477928 -0.021084117 0.15513176
-0.005207683 -0.02194489 0.15501654
0.0040082387 -0.021316916 0.1550656
0.011025746 -0.020559521 0.15435886
-0.031194212 -0.011118628 0.15547247
-0.024940124 -0.01504465 0.15507983
-0.017084915 -0.01896311 0.15492471
0.0078906547 -0.019235289 0.15506171
0.015339989 -0.016325405 0.15519394
0.022159386 -0.012034424 0.15500924
-0.034354094 -0.0050061806 0.15505226
-0.029275356 -0.0087092752 0.15459806
0.026343243 -0.0053965626 0.15507589
0.030950332 -0.0015196147 0.15498398
-0.040866535 0.0070936764 0.15429766
-0.037710018 0.0042982544 0.15512384
0.02913841 0.0028416871 0.15583663
0.031906478 0.0057211649 0.15498628
-0.04125591 0.014760108 0.15479407
-0.038536627 0.015086193 0.15513624
0.029881667 0.01743813 0.15362316
0.032211531 0.014881315 0.1548135
-0.040798377 0.022473181 0.15463313
-0.037386261 0.025372336 0.15502463
0.028659239 0.026589837 0.15521154
0.031771801 0.023822159 0.15501487
-0.03359494 0.034454864 0.1550229
-0.028506167 0.038434744 0.15495658
0.019097896 0.039455008 0.15663049
0.025010727 0.035325088 0.15497755
0.030563725 0.031201754 0.15491565
-0.030673755 0.040788025 0.15575592
-0.024535252 0.043532889 0.15503632
-0.015192729 0.047977641 0.15503044
-0.0050297482 0.049387094 0.15489417
0.0054448377 0.048429996 0.15479834
0.015052257 0.044541411 0.15495221
0.021579739 0.041299876 0.15465409
-0.011638014 0.050402198 0.15488234
-0.0046417867 0.050580762 0.15504022
0.0027457192 0.050423741 0.15518226
-0.020411745 -0.020018429 0.16471797
-0.013201756 -0.020972516 0.16504475
-0.0051851929 -0.021742791 0.16501726
0.0039514042 -0.021163264 0.16485925
0.010864315 -0.020518418 0.16339903
-0.031217713 -0.011283719 0.16520448
-0.024917021 -0.014919748 0.16495974
-0.017029153 -0.018914472 0.16501358
-0.0093447715 -0.019955218 0.16819599
0.0077298796 -0.019222787 0.16508998
0.015212054 -0.016143596 0.16502172
0.022138258 -0.011729931 0.16512406
-0.040137719 -0.00029999018 0.16782197
-0.034343809 -0.0050046444 0.16499592
-0.029145507 -0.0088590058 0.16486099
0.025970617 -0.0055297823 0.16497271
0.030942267 -0.0014943621 0.16562428
-0.040825635 0.0066125146 0.16472541
-0.037868496 0.0043249042 0.16497049
0.029084053 0.002958376 0.16509369
0.031845666 0.0060026874 0.16478397
-0.041221023 0.015036604 0.16522351
-0.038523298 0.01512638 0.16494042
0.029839948 0.018295269 0.16579017
0.032018755 0.014994751 0.16457643
-0.040750716 0.022749115 0.16491516
-0.037447132 0.025519116 0.16498865
0.028771397 0.026393346 0.16488288
0.031697471 0.023831192 0.16481164
-0.033631969 0.034537449 0.16500953
-0.028563309 0.038303386 0.16457003
0.019305704 0.039524622 0.16546278
0.025015716 0.035284419 0.16489218
0.030638948 0.031276021 0.16613217
-0.030892866 0.040717732 0.16474423
-0.024563823 0.043508165 0.16492979
-0.015363945 0.047893219 0.16512278
-0.0052504316 0.049370188 0.16497746
0.0056411503 0.048472196 0.16501336
0.015164018 0.04450608 0.16499329
0.02160215 0.041323788 0.16495433
-0.011978565 0.050339967 0.16465762
-0.0043893186 0.050593406 0.1649913
0.0026892675 0.050562065 0.16495131
-0.020060565 -0.020180613 0.17942446
-0.013344011 -0.020935867 0.17515475
-0.0049267067 -0.021726985 0.17503874
0.0039925268 -0.02117268 0.17500792
0.011454905 -0.020337079 0.17598933
-0.031258311 -0.011177723 0.17542186
-0.025095498 -0.014839054 0.17489891
-0.017105261 -0.018862829 0.17492747
0.0076141204 -0.01924907 0.17493552
0.0152974 -0.01610996 0.17505014
0.022057036 -0.011765601 0.17486206
-0.034339927 -0.005045502 0.174896
-0.029155735 -0.0090633715 0.17479035
0.025964454 -0.0054655219 0.17499329
0.030977167 -0.0016792982 0.174751
-0.040820953 0.0067931013 0.17524432
-0.037809774 0.0043009929 0.17495222
0.029166119 0.0030113021 0.17500187
0.031762712 0.0061632665 0.17502567
-0.041140914 0.014923235 0.17519401
-0.038528517 0.014985456 0.17518935
0.029882774 0.018545695 0.17693323
0.032029536 0.014871166 0.1748696
-0.040671825 0.022960588 0.17530987
-0.037483286 0.025544481 0.17495714
0.028746385 0.026322281 0.17506003
0.031658478 0.023600437 0.17516218
-0.033653297 0.034444541 0.17506753
-0.028424062 0.038580231 0.17469043
0.019413698 0.03939791 0.17518352
0.02497915 0.035215441 0.17495742
0.030618493 0.031496894 0.17496842
-0.030812714 0.040682223 0.17529199
-0.024530377 0.043625951 0.17502241
-0.015279611 0.04797966 0.1750675
-0.0053726803 0.049383968 0.17492151
0.0054618046 0.048492115 0.17506279
0.014949275 0.044586878 0.17501061
0.021601804 0.0413532 0.17497557
-0.011860275 0.050354712 0.17480329
-0.0046970886 0.050643925 0.17537145
0.0023585851 0.050510652 0.17483729
-0.013345585 -0.020989737 0.18503053
-0.0050217304 -0.021800954 0.18495828
0.0040892074 -0.021164065 0.18518023
0.010945602 -0.020366527 0.18470365
-0.031368367 -0.011215528 0.18505278
-0.025100399 -0.014892252 0.18506479
-0.017128186 -0.018846709 0.18496925
0.0077864313 -0.019202782 0.18489221
0.015150428 -0.016173927 0.18502133
0.022172423 -0.011861729 0.18505117
-0.040109791 -0.00020478666 0.18520623
-0.034497954 -0.0049363114 0.18502536
-0.029352847 -0.0087758843 0.18477821
0.025995467 -0.0053910464 0.18511848
0.031003803 -0.0017510637 0.18455428
-0.040882103 0.0067379526 0.18503107
-0.03792154 0.0042481623 0.1852437
0.029126201 0.0028538692 0.18499082
0.031708315 0.0059712636 0.18528396
-0.041184664 0.014956012 0.18509884
-0.038548969 0.015075679 0.18540367
0.029739818 0.019583216 0.1852853
0.032000322 0.014939427 0.18526436
-0.040810406 0.022539167 0.18550153
-0.037651561 0.025427608 0.18520793
0.028778711 0.026549969 0.18500592
0.031683229 0.023832778 0.18514809
-0.033755552 0.034538154 0.18510501
-0.028667884 0.038416617 0.18501569
0.019476479 0.03921527 0.18497041
0.025021749 0.035273388 0.18510693
0.030802231 0.031243769 0.18439662
-0.030642347 0.040901046 0.1849457
-0.024427954 0.043728974 0.18504657
-0.015302355 0.048036508 0.18502544
-0.0052234684 0.049424723 0.18488854
0.0054237233 0.048503008 0.18512408
0.015158721 0.04446708 0.18497269
0.021353107 0.041391883 0.18540166
-0.011787476 0.050386366 0.18505517
-0.0047771721 0.050603885 0.18498792
0.0027846384 0.050447993 0.18520322
-0.013030419 -0.020927347 0.1938874
-0.0048310598 -0.021433251 0.19503744
0.0036752699 -0.02103663 0.1941776
0.010910353 -0.020245222 0.194904
-0.031259947 -0.011157542 0.19389454
-0.024989631 -0.01449582 0.19496199
-0.016371943 -0.018597411 0.19580749
-0.0061950726 -0.019566482 0.19860791
0.0066076615 -0.018950881 0.19626358
0.015186355 -0.015689095 0.19497575
0.021990927 -0.011600168 0.19442846
-0.034035847 -0.0049242885 0.1951057
-0.028776258 -0.0087487157 0.19643234
0.01976224 -0.009654494 0.19927996
0.025553191 -0.0052741594 0.19530633
0.030946637 -0.001760342 0.19383447
-0.040636461 0.0068103117 0.19396397
-0.037598491 0.00455338 0.19538611
0.028803693 0.0035025654 0.1958815
0.031674221 0.006027081 0.19447304
-0.040928397 0.014646169 0.19385628
-0.038271207 0.015097493 0.19570753
0.029660968 0.015849071 0.19736931
0.031925138 0.014781325 0.1948195
-0.040643767 0.022240691 0.19470812
-0.037128121 0.025417201 0.19529103
0.028473046 0.026125329 0.19549437
0.031592093 0.023662608 0.1946914
-0.033352196 0.034412879 0.19480376
-0.028147331 0.038267147 0.19612357
0.018851127 0.03924302 0.19720235
0.024638088 0.0351112 0.19503058
0.030675057 0.031476229 0.19329084
-0.03064999 0.04071077 0.19296917
-0.024316689 0.043377627 0.19472592
-0.015161353 0.04753314 0.19524784
-0.0052084797 0.04901484 0.19562462
0.0052702832 0.048116308 0.19534199
0.014791907 0.044218335 0.19495957
0.02131309 0.041297227 0.19417676
-0.011911935 0.050333112 0.19322044
-0.0048855152 0.0505509 0.19346833
0.0021641923 0.050444141 0.19318014
-0.011488064 -0.020565066 0.20110962
-0.0046862476 -0.020674806 0.20184286
0.0027455448 -0.020534877 0.2014914
-0.030114368 -0.010413796 0.20056459
-0.023559401 -0.012752593 0.20414819
-0.015122158 -0.016060552 0.205423
-0.0051556788 -0.017844366 0.20553847
0.0051267464 -0.016728958 0.20539683
0.014219121 -0.013314744 0.20455599
0.021444425 -0.010924546 0.20242204
-0.03239698 -0.0035063922 0.20403297
-0.02714875 -0.0068225805 0.20625909
-0.019780099 -0.0099958479 0.20958601
0.017927404 -0.0078009581 0.20684762
0.02345098 -0.0041610915 0.20470574
0.030228537 -0.0013321915 0.20078997
-0.040264264 0.0076464452 0.20099455
-0.034901857 0.0050458717 0.20530455
-0.029309858 0.0018343681 0.20937602
0.026643043 0.0047668046 0.20540246
0.031112876 0.0059192241 0.20278931
-0.04044009 0.014609606 0.20125875
-0.03605419 0.015006538 0.20526837
0.027603503 0.015067849 0.20570061
0.0311363 0.014753128 0.20325646
-0.034419421 0.024851466 0.2051753
-0.028931782 0.028271463 0.20876916
0.026141925 0.025396494 0.20521927
0.030908173 0.023111759 0.20272234
-0.032157056 0.032735575 0.20370385
-0.026534351 0.036228061 0.20577277
-0.018647308 0.039124846 0.20917737
0.0090090763 0.03967439 0.20902048
0.017052002 0.03723136 0.20628339
0.022902813 0.033701397 0.20433442
-0.022924772 0.041939508 0.20357381
-0.015081883 0.044450872 0.20506433
-0.0050352532 0.046334889 0.20521799
0.004975406 0.045208346 0.20498925
0.013497366 0.042431451 0.20412052
0.020303056 0.040771004 0.20208794
-0.0038146675 0.050186776 0.20061998
-0.021991221 -0.011135017 0.21115437
-0.014194021 -0.012316062 0.21288586
-0.0049436432 -0.013236023 0.21381558
0.004453497 -0.012757223 0.2131791
0.012552256 -0.01123496 0.21203032
-0.031237943 -0.0016446037 0.21114472
-0.024123043 -0.0043123099 0.21384934
-0.015820244 -0.0062551275 0.21687412
-0.0051382426 -0.0079183653 0.2180271
0.005865871 -0.0067806314 0.21730042
0.014810324 -0.0047866101 0.21449454
0.021502597 -0.0022068569 0.21255435
-0.031923752 0.0058640763 0.21229604
-0.026016995 0.0046319254 0.21642713
-0.018769754 0.001542696 0.21909429
0.016833989 0.0041178698 0.21733952
0.022880819 0.0056603667 0.21320891
-0.03243174 0.014817278 0.21296687
-0.027096719 0.01515681 0.2170483
-0.019908965 0.01903142 0.21994153
0.017771877 0.015196916 0.21819597
0.023412779 0.014896222 0.21413702
-0.03183667 0.0236341 0.21225095
-0.025651196 0.025293572 0.21606421
-0.017979229 0.028271733 0.21885155
0.0080750156 0.029037828 0.21934998
0.016405622 0.025589038 0.21699789
0.022699073 0.024328372 0.21295409
-0.030895561 0.030558869 0.21173111
-0.023839122 0.033622541 0.21337517
-0.015312333 0.035745587 0.21610875
-0.0051108422 0.037069842 0.21727243
0.005551849 0.036090933 0.21659416
0.014446215 0.034100655 0.21397758
0.0214165 0.031814892 0.21216851
-0.021526402 0.040499516 0.21078061
-0.013669152 0.041609589 0.21207733
-0.0049545816 0.042268001 0.21283796
0.0040187337 0.041862149 0.21238087
0.011658581 0.040836703 0.21165326
-0.010114372 -0.010567784 0.22003374
-0.0051438138 -0.0107411 0.22040629
0.0030451715 -0.010028005 0.22064267
-0.020908855 -0.0016218185 0.22042988
-0.013517964 -0.002363367 0.22232784
-0.0049631712 -0.0029353842 0.22408734
0.0040778019 -0.0026477969 0.22269438
0.012025955 -0.0021489435 0.22106555
-0.022249898 0.0063672122 0.22187981
-0.016178858 0.0042839153 0.22548535
-0.0060862568 0.00066096295 0.22803298
0.0063441615 0.0033731866 0.22604513
0.013198948 0.0060195765 0.22265263
0.020115912 0.0081811622 0.22029892
-0.022361344 0.014940321 0.22275569
-0.018399406 0.015322901 0.22653297
0.0093680928 0.015226178 0.22763675
0.013555733 0.014913552 0.22364257
0.021338701 0.016916092 0.22026363
-0.022259634 0.023149895 0.22167565
-0.015409539 0.025394285 0.2248141
-0.0052460963 0.028636999 0.22689305
0.0057205404 0.02597023 0.22548367
0.012832891 0.023783186 0.22242513
-0.01321732 0.031871282 0.2216368
-0.0047252048 0.032631725 0.22236738
0.0038593751 0.032267984 0.22182092
0.011545959 0.031918749 0.22088179
-0.010323351 -0.00030325851 0.23296329
-0.0049166144 -0.00052032713 0.23407242
0.0011782149 -0.00033897659 0.23395234
-0.020163774 0.0096729696 0.23174983
-0.014489527 0.0050448678 0.23488314
-0.0051136143 0.00098882255 0.23540394
0.0052078562 0.0045341109 0.23483592
0.010902649 0.0082985014 0.23470454
-0.020299567 0.014167363 0.23282138
-0.017661138 0.015113057 0.23516442
0.0086859167 0.015305414 0.23528697
0.011272271 0.014554056 0.23463856
-0.013950641 0.023926059 0.23493385
-0.0051360503 0.027640702 0.23504637
0.0045706271 0.024472028 0.23504959
0.010831987 0.020783275 0.23397431
-0.0058229864 0.030016899 0.23016483
-0.0046865344 -0.00031223928 0.24443534
0.00098167441 -0.00016437769 0.24280258
-0.014238153 0.005271967 0.24498339
-0.0050946567 0.0011885468 0.24518587
0.0049792216 0.0046929722 0.24508214
0.01106008 0.0088953599 0.24421476
-0.020129915 0.014143178 0.24500927
-0.017289877 0.015148092 0.24517222
0.008390449 0.015194094 0.24515887
0.01128877 0.014832636 0.24491122
-0.013614998 0.023820816 0.24505016
-0.0050833891 0.027190503 0.24504957
0.0044268761 0.024230788 0.24500448
0.010481765 0.020786673 0.24436814
-0.0041322918 -0.00021493186 0.25436226
-0.014033216 0.0053517292 0.25484824
-0.0050932737 0.0013706101 0.25509804
0.0046351636 0.0047766455 0.25513339
0.010740689 0.0083695604 0.25525519
-0.020137882 0.014188397 0.25389782
-0.017007878 0.015087096 0.25519148
0.0081582926 0.015200845 0.25504494
0.011232096 0.014840337 0.2547074
-0.013636755 0.023511088 0.25476471
-0.0050154435 0.026925573 0.25503698
0.0042846408 0.024036722 0.25492939
0.010551917 0.021178164 0.25409412
-0.0027564019 -9.1612339e-05 0.26108688
-0.01396317 0.0057368148 0.26491916
-0.005245185 0.0016268089 0.26504055
0.0046404619 0.0051354533 0.2650305
0.010531993 0.0087722884 0.26437512
-0.016809126 0.015069175 0.2649917
0.0078871604 0.015070095 0.2650542
0.011076359 0.014855517 0.26454282
-0.013361792 0.023384517 0.26492184
-0.0050477115 0.026618386 0.26512772
0.0041453834 0.023755958 0.26491228
-0.013832087 0.0057543628 0.2749719
-0.0050944947 0.0018604118 0.27513516
0.0044865771 0.0053589228 0.27486008
0.010471422 0.008395588 0.27504089
-0.016463296 0.015002881 0.27526206
0.0077028354 0.015150529 0.27491
0.011165712 0.014293157 0.27444205
-0.013398976 0.023122231 0.27476487
-0.0051772646 0.026284842 0.27517131
0.0040357639 0.023512639 0.27493989
0.010592252 0.020821661 0.27549648
-0.0049442104 -0.00031861154 0.28711966
0.00056287646 -0.00041812658 0.28666076
-0.014258173 0.0054836222 0.28537288
-0.0050666356 0.001486848 0.28496316
0.0046999548 0.0050757271 0.28528166
0.011204381 0.0080158915 0.28689969
-0.017296737 0.015062089 0.28522182
0.0080383439 0.015199123 0.28492323
0.011354783 0.014745084 0.28566498
-0.013611811 0.023537217 0.28526831
-0.0050494024 0.026862716 0.28523511
0.0041260086 0.023943648 0.28534934
0.010983512 0.020942084 0.28547299
-0.0047898474 -0.00029236291 0.29265496
0.0014688019 -0.00022253394 0.29254401
-0.014326758 0.0052293586 0.29412377
-0.0050225519 0.0012841027 0.29440904
0.0047585717 0.0050132917 0.2944622
0.010788077 0.0079756938 0.29281509
-0.017635293 0.015159059 0.29398644
0.0081259571 0.015162909 0.2947081
0.011224041 0.014641835 0.29428518
-0.013898171 0.023710376 0.29393005
-0.005038925 0.027047278 0.29432318
0.0042426293 0.023941753 0.29428756
0.011517559 0.021461569 0.29359147
-0.014951348 0.0066889543 0.30018318
-0.003112124 0.0011347934 0.3004041
0.006097489 0.005589515 0.3006016
-0.017481387 0.015455157 0.3000772
0.0090075945 0.014385854 0.30087689
0.010976833 0.013687662 0.30063978
-0.011825358 0.024559064 0.30022341
-0.0030212849 0.026549321 0.30039886
0.0058777519 0.022848384 0.30044198
